ncols 200
nrows 85
xllcorner 350000
yllcorner 490900
cellsize 50
85.4 79.6 75.8 68.4 62.6 57.8 55.7 55.5 55.6 54 53.8 51.8 51.5 51.1 53.1 54.6 51.7 50.5 49.6 50.2 50.2 50.5 50.5 51.3 51.3 51.5 51.6 52.8 50.1 50.9 49.9 48.4 47.9 50.6 50.7 50.3 53.4 53.2 51.7 50.4 53.1 56.1 56.1 61.2 63 64.1 64.4 62.3 59.8 59.4 63.4 63.9 59 62 70 69.5 74.4 79.6 77.2 71.4 65.2 65.5 65.9 64.1 64.9 65.3 65.2 66.5 66.7 68.5 69.8 70.8 72.4 74.1 77.7 83.5 87.2 94.9 100.6 106.6 118.4 122 133.1 145.4 144.8 151.7 158.6 167.7 174.7 186 189.7 194.7 199.3 204.8 211.3 210 206 199 194.3 192.8 193.8 199.8 205.6 211.4 210.3 210.4 210.8 213 213.7 213.5 212.6 211.2 208.3 201.2 197.4 187.2 185.6 186 179.5 174.7 174.9 170.8 166.1 158.8 146.7 142.6 145.5 144.7 141.5 144 148.7 152.4 154.2 146.3 139 139 140.8 142.2 143.3 145.6 150 153.6 159.5 167.4 167.9 169.7 172.8 177.2 181.1 187.9 193.7 199.7 206.2 209.4 218.5 233.4 239.8 244.8 244.8 240.2 235.1 234.5 245 251.2 253.3 257.7 257.1 255.8 256.3 255.9 255.3 260.8 264.4 267.4 268.7 272.5 283 287.1 289.2 288.7 285.2 278.4 277.8 271.8 266.4 251.7 250.2 245.2 239.4 233.8 227.7 223.4 219.8 212.7 206.8 205.4 206.4 213.9 220.2 231.9
84 79 74.1 65.9 61.1 57.8 55.8 55.1 55.1 54.6 53.9 52.5 51.4 51.2 55.9 59.6 56.9 55.5 58.3 53.9 48.9 50 50.3 50.5 51 50.8 50.8 51 49.9 49.4 48.8 48.2 48.9 47.9 48.6 48.3 51.9 52.2 52 51.9 53.3 57.7 56.5 58.5 62.1 63.1 63.9 63.7 59.8 59.6 66 65.9 63.1 67 68.1 66.4 69.5 69.9 64.5 63.9 64.2 64.4 63.9 64.4 64.6 64.7 65.4 66.8 68.2 69 70.1 71.6 72.4 73.9 78.2 87.9 89.4 97.8 101.6 109.4 118.9 119.9 135.5 148 145.6 153.4 167 171.3 181.5 190.3 195.2 199.5 203.8 209.6 213.1 209.8 206.6 202.2 201.8 199.1 201.4 208.2 216.6 220.5 218.4 217 218.9 217.6 217.5 216.3 215.4 213 207.9 201.2 194.8 187.3 184 181.1 178.3 179.9 179.7 175.5 168.5 161.8 153.4 148 146.3 143.8 142.4 144.8 151.2 155.9 157 144.4 139.8 145.8 144.9 141.4 150.1 152.3 153 159.2 165.2 168.7 168.6 174.7 176.3 178.1 183.1 188.3 194.8 199.2 205.2 212.6 224.5 239.5 244.4 246.2 245.4 239.7 241.9 236.4 245.5 251.1 254.9 259.5 263.4 262.7 261.6 260.8 256 263.7 267.8 271.7 274.4 278.1 286.3 290.7 291.9 291.4 288.4 283.5 280.1 274.8 268.8 260.8 257.5 248.7 238 231.1 230.7 225.7 222 214 206.8 206.1 205.9 214.6 215.6 230.1
89 80.1 73 68.5 66.5 60.8 56.6 54.8 54.5 54.3 53.6 51.6 53.3 51.4 54.8 59 57.8 63.7 67.3 66.8 55.1 48 49.8 50.2 50.6 50.7 51.2 50.7 49.7 49.2 49.1 48.1 48.3 48.2 48.9 48.6 51 51.8 51.8 51.7 52.7 54.8 58.1 59.5 61.7 61.9 62.1 59.9 59.5 62.4 66.8 64.5 62.8 66.8 64.7 64.3 64.3 63 62.6 62.8 63.2 63.7 64.1 63.8 64.2 64.5 65.5 67.2 72.4 76.3 76.5 75.4 72.6 74.7 82 88.8 90 94.2 100 112.2 118.9 128.1 134.8 141.4 147.3 163.4 171.8 174.9 184.9 194.5 199.5 203.9 207.4 213.2 214.1 210.4 206.1 203.8 205.8 208.5 207.5 215.5 222.8 227.5 225.7 224.6 224 222 220.9 220.2 217.9 215 207.9 200.2 192.4 194.9 186.2 176.7 178.4 183.4 184.3 177.5 166.6 161.5 157.2 150.9 147.4 145.4 142.4 144.7 152 158.1 154.4 142.1 143.9 144.2 141.3 145.3 153.9 158.3 159.1 161.4 168.6 168.4 176.2 180.4 182.5 184.2 187.6 191.6 197.4 204.8 209 219.9 231.6 241.2 246.4 244.7 245.4 242.3 243.1 243.7 246.7 253.7 258.6 262.2 267.6 270.6 268.4 265.7 262.6 266 270.6 276 278.9 282 286.5 292.2 293.2 291.8 288.2 285.1 282.5 280.9 275 268.3 262.7 251.2 238.2 232.9 233.4 225.4 219.2 213.4 207.7 206.4 206.3 209.2 215.7 226.9
92.7 85.8 78.2 73 71.3 67.4 58.7 55.5 53.5 54 53.9 54.2 51.8 51.3 52.8 60.1 63.1 70.3 74.5 73.1 64.3 53.4 48.1 50.4 50.6 50.2 50.1 50 49.4 49.1 49.2 49.1 49 48.8 48.1 50.5 51.4 50.3 50.4 50.6 51.5 54.8 61.5 61.2 63.5 62.7 60.6 59.2 63.5 63.3 63.4 62.5 63.3 67.6 63.8 60.2 60.5 61.1 62 62.3 62.6 62.6 63.2 63.7 63.8 64.5 67.1 77.1 88.2 89.7 88.2 75.2 74.4 81.9 85.2 89.6 92.3 95.6 102.8 114.8 119.3 128.3 133.8 143.2 145.7 165.6 172.2 179 190.6 195.9 202.7 207 210.6 214.9 214.8 211.2 207.4 206.4 210 212.2 216 221.6 228.2 233.1 233.2 233.4 230 226.3 224.3 223.8 224.1 217.1 209.1 202.2 202 198.8 191.8 179.2 173.3 179.1 181.8 178.5 166.1 160 155.7 150.9 147.1 146.3 142.8 145 152.5 155.5 145.4 142.2 143.8 143.5 146.2 150.2 155.9 161.2 163.2 163.6 169.8 174.8 181.2 184.3 188.6 191.2 190.1 198.1 203 208.8 213.1 224.3 233.5 239.4 240.5 241.5 241.6 242.2 245.1 245.6 248.2 252.9 261.8 267.5 274.2 276.4 276.1 273.2 267.4 270.7 276.4 280.1 283.1 285.6 289.2 294.1 294.7 293.1 289.7 287.4 285.8 286.8 281.1 274.1 266.6 254.3 241.9 235.3 228.9 226.4 220.4 214.2 210.6 207.7 206.4 206.9 216.7 221.2
89.8 87.7 82 76.2 72.8 68.8 57.8 55.1 54.5 53.3 52.9 51.4 51.4 51.2 51.7 59.7 65.8 73.5 78.3 76.6 68.1 58.2 49.8 49.3 49 50.4 49.5 49.6 48.8 48.2 48 48.8 48.6 49.2 48.8 48.1 48.3 48.3 49.3 49.9 50.3 54.2 61 64.7 63.8 62 60.4 60 62.3 62.7 64.4 63.6 65.3 69.9 64.5 60.5 60.4 59.9 61 60.5 62.2 62.3 62.6 63.3 64.1 66.8 72.8 84.6 95 95.6 87.5 76.1 79.4 87.1 88.6 91.8 94.9 100.5 105.1 112.7 119.9 126.5 133.1 146.6 151.1 165.3 173.7 181 193.1 198.1 204.7 209.4 213.2 216.7 216.2 213.8 211.6 213.5 215.5 219.8 224.7 226.5 233.3 237.9 240.1 238.3 236.5 231.3 228.3 229.6 231.4 220.4 218.7 206.1 203.7 204.4 193.7 184.5 170.4 171 175 174.5 165.3 157.4 153 149.5 145.4 143.8 143.1 144.8 150.7 150.1 144.1 143.6 144.6 145.7 148.1 152.1 158.6 167.5 167.5 168.8 172.7 179.8 186.3 189.2 194.4 200 201.8 200 207 212 219 225.7 233 235.8 236.2 238.4 242.4 247.7 252.8 250.4 251.8 255.3 267.6 274.9 278.4 280.6 280.3 278 273.7 280 282.2 285.4 288.3 289.8 292.8 297 296.1 293.9 290 288.5 289.6 290.2 287.3 276.6 270.2 255.6 243.2 235.9 230.9 222.4 218.1 215.9 210.3 208.3 207.1 207 214.2 217.9
91.2 82.3 79.2 72.9 71.3 72.6 64.2 59.1 58.7 56.1 53.3 52.1 55.1 52 52 58 64.5 74.5 80.3 79.9 71.2 57.9 51 50.4 49 47.2 47.4 47.1 47.2 47.3 47.6 48.1 48.4 48.8 48.6 48.4 48.6 48.5 49.1 50.2 50.1 51.5 60.4 60.5 60.8 60.9 61.1 61.7 62.4 61.7 62.8 64 65.5 65.6 60.5 60.3 61 61.5 65.3 65.6 61.6 62.7 63.3 71.8 73.6 71.3 77.6 88.9 97.5 94.7 83.5 77.2 81.8 88.4 91.5 95.9 102.1 102.4 103.3 110 120.3 123.9 135.3 146.7 151.8 167.4 171.9 188.5 194.2 199 206.4 211.7 214.9 218.1 216.9 216.1 217.3 224.4 228.8 228 230.5 233.3 237.6 241.5 242.1 244.1 241.5 236.9 233.3 234.5 232.2 223.2 215.7 214.2 206.6 203.4 192.1 185 169.6 167.9 168.6 169.5 161.7 155.5 150.8 146.8 145 143.6 143.3 145.8 149.4 144.3 143.7 144.3 145.5 147.9 151.2 156.2 161.1 164.6 167.8 170.6 177.4 184.6 190.3 196.6 206.4 214.5 216.6 212 210.8 218.2 224.6 228.1 232.6 235.5 242.2 244.1 246.7 257.4 260.8 260.1 254.1 261.8 273.6 279.3 282.2 284.7 284.8 282.3 279.4 284.6 287.1 290.6 295.3 295.1 299.6 299.3 297.5 296.1 291.9 291.3 294 295.6 290.8 279.9 270.6 255.2 241 234.7 231.2 222.8 217.7 214.8 211.5 208.9 208.1 208.6 211.8 218.9
93.1 85.4 75.7 72 70.5 73.4 67.5 63.4 60.6 58.3 52.6 53.9 52.7 52.5 53.9 59 65 71.8 80.4 83.3 68.8 57.9 52.4 54.3 53.2 50.7 49.8 49.6 48.3 49 48.6 48.4 48.2 46.6 48.5 48.7 48.2 48.2 50.1 49.8 49.9 51.6 51.7 56.7 58.6 62.3 62.3 61.2 62.4 62.7 61.8 61.4 63.4 63.7 58.7 59.5 60.6 61.7 65.8 67.2 69.1 65 68.2 75.3 73.1 72.5 82 93.6 98.1 93.3 79.3 79.9 85.6 88.5 92.4 100.2 101.1 97.8 104.2 108.5 120.1 125.3 137.2 142.7 157.1 165.7 176.7 191.7 195.9 202.4 210.4 216.1 218.2 218.4 218.7 219.7 224.4 233.8 235.8 235.5 239.1 240.9 241.8 243.1 245.1 249.8 245.7 241.1 235.7 237.5 231.6 222 225.2 219 214.9 204.2 195.7 185.8 169.9 166.4 166.3 168.1 160.2 154.2 149 146.7 145.5 144.1 143.6 144.6 146.1 144.2 144.4 144.9 145.7 151.5 156.4 158.4 163.2 164.7 168.6 176.2 182 189.3 195.7 204.6 216.1 222.6 225.4 223.6 223 221.1 228.5 232.7 235.7 242 246.3 250.5 256.2 265.7 268.7 266.7 259.8 265 274.3 280.1 285.5 287.6 287.3 285.7 283.8 287.9 289.8 295.3 302.1 303.7 303.9 301.8 298.5 298.6 296.9 296.1 298.8 297.9 290.4 281.7 271.7 253.6 243.2 235.9 228.5 221 220.7 221 214.5 213.2 209.4 209 215 219.6
100.1 90.8 80.8 71.2 69 71 68.7 63.8 62.5 54.4 53.5 59.7 58.6 55.8 58.8 59.9 63.9 69.7 77 79.5 66.8 54.2 53.6 53.3 53.4 52.4 50.2 49.8 49 47.9 48.1 48.1 48.1 47.9 46.8 48.5 48 48.9 50.1 49.8 49.3 51.4 51.4 54.8 56 60.8 61.2 60.7 61 60.6 60 59.4 64.8 63.4 57.9 60.6 61 64.8 67.9 67.6 67.5 66.1 70.1 72.2 72.6 74 86.6 97 96.9 91.7 81.3 82.6 89.6 90.7 95.1 103.8 98.4 97.4 97.6 104.9 119.3 126.4 138.5 143.5 156.9 164.7 178.3 192.2 201.7 210 216.7 223.6 225.4 224.2 226.2 228.1 233.5 242.3 243.2 243.3 245.8 246.3 243.5 245.3 249.9 253.2 249.9 244.3 239.5 236.3 229.1 228.5 229.6 224.5 217 209.5 197.4 184.3 169.1 163.8 165 167 157 151.3 149.1 147.6 146.1 146.5 144.2 144.9 145 144 143.8 144.6 149.3 155.4 161.8 162.5 166.1 169.4 170.7 181.3 187.2 193.1 201.6 212.2 221.8 227.8 233.7 234.1 230.9 231.6 228.9 235 240.8 245.2 248.2 253.9 261.4 268.9 271 270.7 267.1 268.6 275.2 281.2 288.5 290.2 289.6 292.9 291.3 290.8 293.8 297.3 303.1 307.8 308 305.7 301.5 301 299.3 299.3 301.1 298.5 292.6 285.6 275.5 255.9 245.4 234.2 226.8 223.1 225.5 227.9 218 213.9 210.5 210.9 217.3 220
101.8 95.2 85.9 73.8 66.9 67.6 67.2 63.3 58.3 53.4 56.6 69.1 67.7 59.7 63.4 61.4 61.3 66.3 76.4 76.5 63.8 55.6 55.2 53.5 53.1 52.6 50.4 49.4 48.7 48.7 47.4 47.8 48.1 47.9 47.5 47.7 48.3 48.3 49.3 49.4 49.8 51.3 51.5 54.1 53.1 60.6 60.6 59.5 58.5 59.9 59.8 58.4 63 57.8 59.2 62.2 64.7 66.6 68.4 68.6 68.1 69 78.1 80.3 74.2 78.6 90.6 97.4 95 88.8 81.7 84.8 89.3 91.3 94.8 100.6 97.8 96.2 97.7 107.2 126.2 128 135.2 143.9 156.8 173.3 185.6 199.1 209.2 216.8 221.8 230.4 234.1 235.4 238.1 243.6 247 250.6 249.9 250 253.5 251.6 247.5 251.2 253.4 253.2 249.7 244.4 241.8 233.6 230.2 233.2 235.3 228 221.2 210.9 196.6 184.7 172.1 163.2 162.8 163.4 154.1 151.9 150.6 148.3 147.3 146.1 145.2 145.2 144.3 144.2 145.9 151.7 158.4 166.1 170.4 165 167.6 171.2 176.1 183.9 191.1 194.9 203.6 216.4 225.9 232.6 238.1 237.9 237.1 237.7 234.5 240.6 245.2 249.1 253.4 258.4 265.1 270.3 273.5 275.2 272.2 270.6 276.4 281.4 288.1 290.3 290.4 291.2 292.3 293.5 297.5 301.2 306.5 312 312.6 309.7 306.9 303.7 301.7 302.8 301.8 298.5 292.9 287.4 277.8 257.7 243 232.6 228.9 231.4 233.6 228.9 221.2 215.8 211.3 211.9 215.1 215.9
100.2 96.5 89.9 79.1 69.6 65.6 65.1 61 55.3 54.2 59.9 70.6 70.7 64 57.4 60.4 61.6 62.6 70.5 72.4 59.2 52.9 54.5 52.2 51.7 50.4 50.3 49.2 48.6 48.6 47.9 47.3 47.7 47.4 46.5 47.6 48 48 48.8 49 49.8 50.9 51 53 56.2 59.4 62.9 61.7 57.5 60 58.9 57.5 54.6 65 65.7 64.8 64.8 66 68.4 69.3 69.4 75.8 84 85.1 76.8 83.6 92.1 94.6 90.6 83.1 83.9 86.6 90.2 91.4 96.1 100.2 101.9 102.2 102.9 105.3 124.8 130 135.3 146.3 157.8 177.2 192.5 203.1 215.2 223 228.2 243.4 242.5 243.9 243.9 248.1 253.8 256.2 256.9 258.7 260.8 258.2 261.7 258.5 251.8 250.1 248.2 245.5 242.2 234.1 235.1 235.1 239.9 232.8 222.7 214.1 198.2 184.4 175.5 163.2 159.2 159.2 154.4 154.2 150 148 147.2 145.8 145.8 145.2 144 147.6 152.6 161 169 172.6 169.3 165.8 170.6 173.8 181.3 185.2 192.1 197.5 207.2 221.5 230.5 240.2 246.7 245 243.5 243.2 243.6 244.5 248.8 251.7 254.9 261.2 269.2 271.6 275 278.7 279.5 270.6 277.1 282.2 288.4 290.5 292.2 293.5 299.4 301.6 300.9 303.2 307.8 313.5 317.2 313.6 310.5 307 304.3 305 302.7 298.7 292.9 286.7 276.7 257.2 245.1 236.6 234.3 239 235.5 228.1 223.9 216.9 212.2 213.2 214.3 215.8
102.7 94.7 89.1 83 73.4 64.1 62.3 59 55.7 55.8 62.4 72 72.4 69.1 65.1 60.9 61 63.3 66.8 67.7 58.5 53.7 52.5 52.3 51.2 50.7 50.7 50 48.5 48.7 47.7 47 47.8 47.9 45.9 48.2 47.9 48.3 48.5 48.7 49.2 49.6 50.3 52.2 55.6 58.6 58.2 56.6 56.8 56.5 54.2 53.3 61.5 63.8 63.7 64.1 65 65.7 69.7 70.3 73.9 83.4 89.4 87.1 80 87.4 90.7 88.8 86 83.9 86 88.2 90.6 96.2 99.3 101.4 102.5 107.2 109.4 109.2 122.9 130.9 137.1 145.1 161.3 182.4 194.7 207.3 218.8 231.4 238.9 245.9 247.7 254.4 252.3 258.1 260.1 261.9 263.2 267.2 265.1 266.9 276.1 269.1 258.1 254.9 251.6 247.1 241.9 238 236.1 238.6 240.5 234.3 224.7 215.3 199.6 185.8 178.9 168.1 163.1 156.9 155.3 154 149.3 147.8 147.3 145.9 146.1 144.5 145.4 150.2 158.5 165.9 172.3 173 165.1 166.9 169.4 175.1 182.4 187.8 192.3 200.4 212.3 223.5 235.3 247.1 250 249.1 247.7 247.2 248.2 249.6 251.8 255.1 259.1 264.2 268.7 272.5 277.8 281.6 283 274.1 280 284.8 290.6 297.8 297.6 302.8 307 308.8 308.8 306.9 311.7 314.2 319.9 317.9 313.8 310.1 307.3 304.2 303.1 301.9 294.3 284.3 274.6 259.8 246.7 239.9 243 246.5 237.8 230.9 225.7 218.6 214.1 217.7 220.3 223.4
103.3 97.8 87.4 80.2 73.3 68.2 63.7 57.7 56.2 55 60.3 70.7 72.9 70.3 66.9 60.8 64 67.3 68.1 64.4 59.1 57.3 52.9 54 51.2 51.4 52.3 49.2 48.2 47.9 47.6 47.6 47.8 47.7 46.7 48.2 47.7 48.6 49.1 48.8 48.8 49.4 50.8 52.3 55.2 57.2 56.8 55.9 56 51.9 54.3 59.2 61.9 62.3 63.6 64 65 66 69.5 71.4 77.1 90.7 93.6 91.8 84.2 85.9 85.8 85.4 86.7 85.3 87.9 89.4 93 97.3 98.8 100 103.4 108.8 112.9 117.6 125.8 132.5 137.4 149.1 165.8 183.1 193 208.8 223.6 236.1 244.5 249.2 257.5 261 266.2 267.5 271.3 272.2 272.1 272.7 271.5 274.4 284.1 280.6 270.1 264.4 257 249.4 240.7 238.7 236.2 239.7 239.2 233.6 221.6 215.6 202.8 189.8 182.3 174.2 167.9 157.6 155.5 156.2 152.9 148 147.3 146.6 145.2 144.7 145.8 151.9 161.7 169.1 174.3 171.2 165.1 168.5 171.5 176.9 183.5 190.5 199 207.6 216 225.9 239.9 248.8 250.6 251.7 251 251.4 252.4 253.8 253.6 256.5 262.5 269 272.5 275.2 280.1 285.9 284.4 278 282.3 291.7 299 298.7 303 313.8 313.5 312.6 315.2 319.8 322.4 315.7 320.7 316.9 314.7 311.4 312.3 303.1 303.6 299.8 292.2 282.6 272.3 263.6 250.1 243.9 249.5 247.6 238 231.1 227.7 219.7 218 222.5 227.8 232.2
102.1 98.3 92 84.7 73.9 65.3 63.9 58.3 56.3 55.3 57.6 68.8 74.2 67.9 67 68 59.2 65.7 67.9 64.3 62.2 57.2 54.2 52.5 52.1 52.8 54.9 51.7 48.1 47.9 47 47.3 47.5 47.8 47.2 47.7 47.8 48.2 48.3 49.6 49.3 49.9 51.4 53 55 56.2 56.8 57 54.5 53.4 55.7 57.3 61.8 62.2 63.7 64.4 64 67.9 71.9 72.9 83.4 94.3 96.1 93.3 86.8 82.7 84.2 88.7 86.7 88.2 88.9 91.8 94.3 98.1 100.8 102.5 105.7 112.3 117.8 124.9 130 133.8 136.3 152.1 167.4 177.5 193.7 209.8 228.6 237 248.6 255.5 262.3 271.1 275.8 277.3 278.9 278.3 276.8 276.3 280.1 282.9 286.7 281.9 274.4 268.2 259.3 246.4 245.5 238.5 236.9 238.5 236.3 230.7 220.5 213.5 204.9 192.1 185.4 175.9 170.6 164.1 157 156.1 151.3 149.5 149.5 146.2 145 145 145.5 157.3 165.9 171.8 174.1 166.8 165.8 171.6 173.5 180.8 186.8 193.3 204.2 212.5 217.6 230 240.6 246.6 250.5 252.1 253.5 254.7 256.6 257.5 254.6 262.9 271.9 276.5 280.2 282.9 286.5 289.6 286.8 284.3 290 295.7 305.8 308.3 310.1 317.2 320.1 319.2 323.5 325.5 323.7 317 319.9 318.5 315.5 311.2 306.7 301.7 301.8 299.4 288.7 279.2 270.8 262.7 254.7 249.3 249.7 246.3 234.5 229.4 227.5 223.5 222.8 227 233.6 236.3
102.4 99.2 91.5 83.7 78.2 72.3 69.7 62.7 58.5 55.8 55.7 69.4 76.8 71.4 70.2 68.2 64.2 63 61.1 60.1 61.4 60.2 54.9 53.9 52.7 54.6 57.8 55 48.3 47.7 46.8 46.9 47 47.7 46.3 47.3 48 48.1 49.3 49.9 49.2 50.6 52 54.2 54.4 55.1 56.7 55.4 52.2 55.2 55.5 57.8 61 64.4 63.9 64.3 63.5 69.3 71.3 76.3 88.1 94.6 94 88.4 84.6 85.4 89.1 89.4 88.2 90.1 92.6 95.9 98.3 100.4 103.5 105.6 109.9 115.4 121.8 128.5 130.6 134.1 138.5 153 166.8 176.1 192.3 206.4 226.8 240.8 251.7 260 266.3 273.7 282.8 283 286.9 282.2 279 280.4 278.3 285.1 287.4 281 272.5 265.3 255.3 246 244.3 240.5 237.3 236.9 231.2 224.9 217.8 213.1 205.1 194 186.8 177.1 171.1 167.1 160.8 155.6 150.9 150.3 148.3 147 145.6 145.2 146.4 159.4 165.4 171.1 172.1 163.8 166.9 173.6 179 187.7 189.1 201.5 210.6 213.9 220.1 231.4 242 246 250.7 252.8 255.9 258.5 261.2 258.2 259.6 272.1 280.7 284.5 286.7 290.8 291.7 295.8 293 292.4 301.2 299.7 306.7 314 319.4 323.3 325.9 325.6 328.3 329.9 331.5 321 322.4 325.1 320.8 315.1 309.1 298 297.1 293.1 283.8 277.9 271.6 267 256.4 251.7 247.4 242.5 233.3 233 225.8 226 225.1 229.3 237.8 240.1
101.8 100.4 97 90.4 82.9 76.5 69.3 64 59 56.8 59.5 69 76.8 73.9 71.4 67.8 63.6 60.2 57.7 58.5 60 59.9 56.5 54 53.5 57.2 60.3 58.3 51.4 47.7 46.6 47 47.2 47.3 46.4 47.8 47.4 47.9 48.6 49.4 49.5 51.8 52.2 53.9 54.4 53.3 53.6 52.5 52.9 55.3 55.3 56.7 57.9 59.6 63.6 62.6 66.3 70.1 72.5 78.4 86.6 89.8 87.3 84.3 84.2 85 87.4 87.1 89.8 94.9 96 97 99 102.7 106.2 109.4 113.6 118.7 125.3 131.9 132.5 134.6 138.1 148.5 163 172.5 189.1 202.7 224.9 241.6 254 260.9 266.6 276.4 284.3 288.1 286.6 280.2 277.7 276.8 276.5 283 281.8 274.9 267.9 259 249.2 248.8 244.9 238.7 235.9 232.3 227.7 219.6 215.4 216.4 204.5 195.8 187.7 177.9 172.8 169 162.2 155.9 151.9 151.5 150.1 148.3 146.6 146.1 152.8 160.7 165 168.8 168.2 163.8 170 174.9 183.9 189.8 192.1 202.3 210.2 216.8 221.9 233.1 241.1 245.4 250.5 253.9 257 260.5 262.2 258.1 270 274.9 285.7 289 289.5 293.7 298.7 302.1 303.2 308.3 311.1 303.1 311.3 316.1 325.8 324.9 327.4 328.6 328.3 331.2 328.3 323.5 323.6 325.6 320.3 314.8 305.9 298.8 293.1 287.1 281.5 278.4 274.8 265.7 259 250.1 246.8 241.8 238.3 238.1 235.6 231.7 228.4 233.4 241.2 242.2
107.3 99.7 94.5 87 82.9 79.2 72.9 68 65.5 60.3 58 65.6 74.5 71.7 67.5 64.1 61.8 59.5 57.8 58.3 59 57.3 55.5 55.5 55.5 56.8 61.2 60.6 54.7 48.5 46.4 46.6 44.1 44.6 47.4 46.9 47.6 48.5 48.7 49.6 48.2 51.1 52.5 53.3 53 51.3 51.6 50.5 54.6 54.7 54.7 54.4 55.1 59.4 62.5 62.6 66.3 70 71.1 76.5 83.1 84.8 84.1 84.1 86.9 88.9 86.7 88.6 92.3 96.5 97 98.5 101.8 104.8 109.1 114.3 121 118.3 131.1 132.1 132.4 134.8 139.5 149.8 159.8 170.9 183.5 200.8 221.6 236.1 246.3 258.4 262.6 273 283.8 289.1 283.9 281.4 277.8 273.4 274.7 280.8 272.6 267.3 258.3 252.5 250.7 248.8 242.8 235.3 231.1 227 221.6 213.9 215.7 218.2 209.7 195.6 187.3 178.9 174 169.8 164.5 159 154.1 153.5 151.7 149.9 148.1 147.1 155.7 161 163.7 167.1 164.1 164.2 171 179 186.7 194.5 198 210.4 215.2 218.5 224.4 234.7 237.6 244.4 251.5 255 258.3 261.9 261.3 258.8 272.5 281.9 289.4 295.7 301.1 303.1 306.6 309.5 312.3 317 311.9 304.3 308.7 320.3 322.4 322.1 332.5 336.7 327.3 329.5 328.2 330.7 324.6 325.2 317.1 310.2 302.1 297.2 291.5 284.8 279.2 276.7 274.1 268.8 263 257.6 252.4 246.8 245.4 243.8 239.1 235.3 234.9 236.8 241.9 243.4
108.9 104.6 103.5 92.6 87.7 81.8 75.2 72.5 69.4 62.6 60.6 63.5 67.6 65.9 63 61.2 58.5 58.5 57.2 56.9 57 55.7 55.6 55.2 55.7 56 60.8 61.6 57.7 51 46.3 44.4 45.4 46.7 48 49.6 48.9 48.7 49.2 49.4 48.9 49.1 51.1 52.2 52.3 50.9 49.9 52.7 53.7 54.1 53.9 54.2 56 59.8 60.7 61.6 64.4 69.7 74.5 77.6 86 86.2 86.4 87.9 92.3 89.6 88 90.1 97.2 100.5 101.1 100.9 103.6 109 113.5 120.1 125.5 125.1 130.5 132.3 134.4 136.8 143.4 152.7 157.5 168.2 182 199.2 218.7 234.6 249.5 260.4 263.7 274.6 288.4 289.9 284.3 282 276.2 272.5 272.8 273.5 265.6 257 253.2 256.4 251.2 249.5 240.8 234 230.5 224.5 215.1 211.9 215.3 222.2 214.1 195.9 187.8 180.2 175.7 171 165.1 161 156.9 154.8 152.7 150.8 148.4 149 156 158.9 162.5 163.4 159.7 162.7 172.4 182.5 190.6 198.2 206.8 214.3 222.3 227.2 230.8 237.9 241.5 245.5 251 255.2 259.9 261.4 259.8 262.8 276 290.9 296.4 298.7 303.5 306.3 309.1 315.2 315.4 316.1 309.5 301.8 302.6 314.2 321.3 323 331.5 327.4 330.2 331.1 329.1 332.3 325.2 322.6 314.8 311.8 301.3 294.5 289 284.4 277.6 272.7 271.9 265.9 262.2 258.2 256.5 252.9 252.1 248 244.7 240.7 241.3 241.2 240.3 244.1
110.2 109.7 104.2 96.5 89.2 82.5 76.8 73.6 71.6 63.3 64.5 62.4 64.8 62.7 59.5 58.6 56.9 56.4 57 57.1 56.8 56.2 57.4 55.5 55.5 56.2 60.1 61.3 57.5 48.7 45.6 47.6 47.4 48.1 48.9 49.3 48.9 49.4 49.1 49.4 49.7 49.1 49 49 48.4 52.4 52.8 53.5 53.5 53.5 53.4 53.4 55.3 58.5 60.5 62 67.1 70.5 75.4 77.7 90.7 90.7 91.4 91.8 91.6 90.8 88.8 92.1 100 103.9 102.2 106.1 109.5 112.7 118.6 122.6 127.3 126.4 130.4 132.2 136.6 144.1 145.3 152.2 156.4 167.2 184.6 201.1 221.1 237.6 255.4 271.1 277.9 288.5 291.8 288.3 289.8 288.5 282 277.6 274.1 274.3 272.6 262.5 255.4 256.1 251.5 245.6 239.9 237.3 232.7 226.9 221.1 213 211.4 215.8 208.6 194.5 186.3 175.8 172.8 168.9 165.4 161.5 158.3 156.1 153.5 150.8 149.3 150.7 155.1 158.4 161.5 158.9 158.9 165.9 173 184.8 193 204.2 212.1 222.2 227.6 231 234.1 238.9 242.6 245.8 249.8 254.6 259.8 260.8 260.4 271.4 281.8 295.7 302.3 301.7 305.2 309.7 312.4 315.3 314.9 312.6 304.9 301.4 304.1 311.9 318 319.4 323.9 326 333.2 332.9 333.7 332.3 326 319.4 314.2 310.1 299.4 290.4 285.8 282.3 274.5 269.5 266.7 264.5 265 258.5 256.7 252.5 253.9 249.7 246.4 245.3 245.8 246.3 242.3 242.2
110.6 113.1 109.6 100.4 91.9 85 77.4 72.6 70.5 67.8 65.7 62.9 60.4 59.1 58.6 62.8 64.6 56.9 55.7 57.2 58.2 57.6 56.9 56.5 55.4 55.8 59.8 60.4 56.5 47 47.1 46.8 47.3 47.8 48.2 48.5 49.2 48.9 48.9 49.4 49.8 49.7 50.1 52.1 52.6 53.1 53.7 53.8 53.4 53 53 52.9 53.5 57.2 60 61.4 63.1 70.3 74.9 86.1 96.9 98.6 95 96.1 93.3 93.2 91.2 93.8 108 107.5 105.6 110.3 113.6 117.7 123.1 126.4 126.3 127.5 131.8 133.8 137.8 151.6 151 158.3 160.9 170.8 187.2 203.3 225.7 251.2 261.4 278 285.2 299.3 304.1 297 304 304.4 297.8 287 280.2 282.7 277.7 280.4 264.3 260.5 250.9 247.5 245.2 241.6 237 230.1 222.4 217.3 207.1 205.6 199 190.4 186.7 185.6 176.4 169.2 166.5 163.3 160 155.9 153.4 150.9 150 152.8 152.4 154.7 156.2 155.9 161.2 166.2 174.1 185 194.7 206.5 216.5 222 229.1 234.5 237.7 241.2 245.4 248.1 248.4 253 256.8 262.5 264.1 276 283.7 295 298.3 302.7 303.7 308.8 312.3 316.9 314.4 304.5 299.1 293.3 302.2 305.4 308 314.7 319.8 323.7 329.2 335.7 338.2 331.5 324.5 315.1 311.5 306 293.8 286.8 284.3 278.9 270 265.4 264.1 262.9 261.3 260.1 252.7 252.2 251.4 251.1 251 250.9 250.1 249.9 245.7 241.9
110.7 116.7 114 101.2 97.1 89.7 82.5 75.1 72.6 70.2 69 65.3 63.3 60.3 58.6 56.8 57.2 55.9 55.5 56.8 62.5 56.9 55.8 56 55.5 55.1 55.9 58.3 56 48.8 46.5 46.6 47.7 47.3 47.5 47.7 48.3 48.7 49.1 49.5 49.5 49.7 50.8 51.5 52.1 53.1 53.3 53.3 53 52.7 52.2 52.5 53.1 56.2 59.4 61.1 66.1 70.5 77.1 94.3 103.6 102.6 99.7 104.5 101.3 99.6 94.5 95.7 106.8 106.4 111.3 115.4 118.4 118.6 124.2 125.9 128.2 128 131.3 134.2 142.7 153.1 152.3 158.1 160.8 174 187.3 200.5 226 256.1 272.3 282.3 290.7 305.7 314.8 302.9 316.1 319.4 308.9 297.2 288.9 284.4 280.7 287.7 266.2 263.3 251.8 251.4 250.4 248 239.9 232.3 223.8 218 212.1 204.1 192.5 196.6 195.8 190.3 178.8 168.7 171.5 165.8 161.8 156.9 154.9 151.2 154.4 153.2 152.8 152.9 153.9 155.9 161.5 166.3 174.2 184.2 194.4 203.7 214.5 221.2 230 237.5 243.4 248.9 253.6 257.2 252.9 251.7 261.4 267.4 269.6 280.1 287 291.6 294.8 299 302.4 304.2 309.9 312.2 306.4 299.8 293 288.2 296.5 302.8 307.2 314.3 319.3 327.8 335.5 339.4 336.4 327.1 317.5 312.9 305.7 298.7 286.8 285.1 280.4 275.7 266.5 262.2 262.1 262.2 260.4 255.1 253.5 252.4 253.4 253 254.6 254.1 252.7 252.3 247.9 243
111.9 120.4 116.9 102.8 95.3 93.8 86.5 79 75.4 71.7 70.3 67.8 64.5 61.2 59 58.6 57.2 57.2 55.7 55.5 56.8 57 56.1 56.8 55.6 54.6 54.7 55.9 53.7 48.6 46 46.7 46.8 47.4 47.2 47.5 47.6 48.1 48.8 49 49.3 50 51.5 51.7 51.3 51.9 52.7 52.7 53 52.3 52 53.9 53.4 57.7 56.9 61.5 68.1 71.2 82.2 93 103.5 106.7 108.4 110.3 110.3 103.1 97.8 100.4 108.1 109.1 116.5 120.4 118 124.7 128.3 127.7 128.9 129.4 131.1 135.6 146 149.1 150.8 158.1 162.3 178.9 188.1 200.8 220.7 252.2 273 286.1 293 307.2 316.8 304 316.3 319 310.4 299.7 292.6 290.5 284.2 277.4 265 259.3 253 254.2 254.8 253.7 245.2 236.3 225.9 219.8 213.5 207.4 207.5 204.8 204 195.6 182.8 169.7 174.3 166.9 162.6 157 153.6 152.3 156.8 153.4 152.4 153.2 154.6 157.7 162 165.9 174.2 181.6 193.5 206.1 213.9 221.1 233.6 239.1 249.4 254.9 259.8 263.7 256.9 259.5 272.2 272.8 274.2 283.9 290.9 292.8 295.1 298.5 301.3 300.8 304.6 303.8 297.7 292.7 283.7 284.3 291.9 299.1 309.7 319.3 324.7 326.2 334.3 335.2 328.1 320.5 314.3 305 300.9 290.6 283.5 282.2 277.2 272.4 264.4 258.9 260.3 261.1 258.6 256.2 256.4 256.2 254.3 255.1 256.5 254.3 251.4 248.9 248.2 240.1
114.3 120.9 113.3 104.2 96.5 95.5 91.2 83.1 79.2 75.1 72.3 69.6 65.2 61.4 60.3 59.2 59.3 59 57.1 55.5 55.9 56.6 57.5 56.4 54.5 53.9 53.9 56.3 53.2 47.5 45.3 46.3 47.2 46.9 47.1 47.3 47.5 47.8 48.4 48.6 49.2 50.5 50.5 50.7 51 51.5 51.8 52.7 52.8 52.1 51.8 55.1 52.7 52.4 56.4 62.2 67.2 72.1 81.7 97 107.5 107.3 110.5 113.9 114.6 107.1 98.8 102.2 108.6 109.2 117.7 116.2 120.2 124.8 126.6 126.8 128.4 129.6 131 144 157.1 159 154.5 158.9 167.4 181.6 186.6 201.8 220.8 247.8 270.2 281.8 289.3 304.4 308.4 304.6 312.5 314.2 307.9 299.7 292.3 289 283.2 270.6 264.4 258.3 255.7 259 260.3 257.8 245.8 237.4 228.8 218.6 213.4 208.9 215.6 217.1 213 200.5 185.6 177.3 177.5 168.2 162.5 156.3 154.1 155.2 157.3 153.9 152.9 153.2 154.4 157.8 162.6 169.2 175 184.5 192.3 206.2 214 224.6 237.6 248.6 255.7 261.3 266.2 269.9 268.7 272.7 280.5 280.5 281.6 284.5 297.9 298.7 300.9 302.1 304.1 297.8 299.2 295.7 290.5 280 276.6 279.9 288.5 300.8 314 323.7 332.5 331.6 329.3 328 323.2 314.1 305.7 298 291.7 282.9 282 279 274.3 269.2 261 257.6 260.7 260.1 257.1 256.4 257.3 257.1 253.7 251.8 253.8 253.2 251.8 250.2 248.8 237.1
113.8 120.6 116.9 101.2 95.4 97.3 96.4 90 83.3 79 75 70.1 66.2 62.3 62.5 62.5 59.7 59.4 56.9 56.4 57.4 58 59.5 59.1 55.8 54.1 54 54.9 52.7 46.9 45.5 47.3 47.2 46.6 46.9 47.2 47.5 47.8 48.2 49.1 49.6 50.1 50.2 50.3 50.7 51.1 51.4 52.2 51.2 51.2 53 54.5 51.7 52.2 58 61.9 66.4 76.6 87.3 100.8 109.4 109.7 115.9 114.1 117.7 105.9 98.6 104.5 109.1 109.7 113.7 119.2 122.5 125.1 128.2 128.8 129 129.4 129.4 146.5 160.7 165.8 157.3 159.2 172.2 184.6 191.7 206.3 218.9 238.5 262.6 278.6 288.4 300.1 297.5 300.6 307.2 306.6 300.9 299.4 293.5 287.2 283.5 272.3 268.7 264.3 258.9 260 264.6 265.2 250.5 238 227.3 218.6 214 214.5 227.4 224.2 216.5 204.4 186.8 179.8 180.4 170.5 162.4 157.5 160.2 165.1 165.1 159.3 153.7 154.6 156.2 159.6 163.3 171 179.3 188.7 196.6 210.2 221.4 233.3 244.1 254.8 260.3 265 270.1 275 274.7 281.1 283.9 284.6 286 288.5 300.9 305.5 305 307.6 302.5 295 292.1 285.4 278.7 272.1 271.6 280.2 289.4 305.5 320.1 328.4 332.6 332.5 325.1 319.7 316.2 307.5 300.2 292 284.9 280.4 280.5 276.3 270.7 262.9 258.1 256.5 256.8 258 258.1 255.2 251.7 252.1 250.1 249.4 250.4 253.4 253.8 251.5 247.3 234.1
114.6 115.2 118.5 103.2 98.8 100 98.7 91.9 90.1 84.5 78.5 72.5 68.5 65 65.5 65.8 61.8 60.5 58.4 59.9 61.1 62.2 63.8 62.1 58.6 55 54.4 54.5 50.3 45.4 46.3 46.5 46.4 46.4 46.7 47.1 47.3 47.7 48.5 49.5 49.7 49.6 49.9 50.1 50.2 50.3 50.5 50.8 50.8 50.8 53.7 55.8 51.6 54.7 58.6 60.7 67.3 78.8 90.3 102.1 109.2 111.5 120.4 124.5 117.2 103 99.2 102.4 106 109.5 118.4 120 125.5 128 129.9 128.2 128.8 130.9 132.7 148.8 160.9 164.6 162.3 165.6 171.6 183.6 197.9 212 219.5 231.8 253.9 272.2 286.6 295.1 295.8 296.5 299.9 299.1 293.7 293.8 288.4 284 282.8 276.4 279.9 272.1 260 254.9 256.3 258.5 251 242 226.6 232.1 225.6 227.6 237.5 228.8 219.4 206.5 188.1 183.1 183.2 171.4 163.8 162.4 171.6 174.3 170.1 161 154.2 156.6 159.1 164.7 167.4 175.3 183.6 191.3 202.1 212.9 225.2 237.5 249.9 258.6 263.9 268.8 272.7 276.3 279.1 287.8 292.3 294.7 293 293.6 305 307.6 308.4 306.7 299 289.6 281.8 275 268.3 263.8 273.5 285.9 297.3 315.9 324.4 330.3 334.3 326.6 320.8 315.5 307.6 302.1 296.1 290.8 283.9 278.8 277.7 273.6 266.4 260.8 257.7 255.4 255.9 256.1 257.5 253 251.3 249.2 248.4 250.5 251 254.1 252 247.8 242.8 234.4
122 113.3 110.9 104.8 102.7 106.5 103.7 97.3 91.6 89.7 85.1 78 70.9 68 68.9 68.4 64.7 63 61.8 62.3 64.2 66.5 70.4 70.4 64.2 58.9 55.3 54.4 48.3 45.4 46.4 47.1 47.5 47.3 46.6 47 47.1 47.5 48.2 49.4 49.4 49.2 49.7 50 50.2 50.3 50.3 50.4 50.4 50.5 51.5 55.7 51.7 54.4 58.6 60.8 65 77.2 89.7 102.4 102.8 111.7 118.6 121.7 112.7 103.2 99 104.4 106.7 112.4 118.9 123.3 130.6 135 132.3 129.5 130.1 130.3 137.1 151.3 169.1 172.2 168.5 167.2 174.6 185.3 201.2 213 225.2 235.5 248.8 263.2 280.5 286.4 293.5 285.9 292.1 289.7 288.1 288.1 283.3 281.7 279.3 277.2 280.8 275.5 257.9 249.5 249.3 253 250.2 240.1 231.2 236.8 241 238.2 243.6 229.6 221.3 207.8 189.4 186.2 184 172.8 166.9 172.4 180.9 179 172.8 160.5 155.6 157.3 160.3 164.5 169.1 175.9 183.6 193.5 204.4 216.6 230.2 239.3 251.3 260.8 266.6 271.3 276.4 280.1 292 296.9 297.7 302.9 302.4 302.8 305.8 312.4 312.4 308.4 295.7 284.1 270.6 262.6 257.6 263.4 279.8 295.6 304.6 315.8 323.5 326 327 324.6 321 315.4 310.5 300.9 298.7 291.7 285.6 279.4 275.7 268.5 264.6 260.3 257.3 255.2 253.5 254.9 252.9 250.7 248.8 246.5 246.7 248.6 249.8 253.1 250.9 245.3 239.5 234.4
130 117.6 115 108.2 106.2 109.6 111.3 103.8 97.6 94.6 91.4 86 75.6 71.4 71.3 70.7 65.5 64.1 63.5 62.8 68.1 72.1 74.5 73 69.4 64.6 60 54.1 47.2 44.5 45.3 47.3 46.7 47 47 47.1 47.6 48 48.1 48.7 48.7 48.7 49.3 49.5 49.8 50.3 49.9 50.3 50.4 50.5 55 53.1 51.8 54.4 57.7 59.5 63.2 73.9 90.4 102.3 104 111.1 114.5 116.1 108.8 103.5 99 101.9 104.6 111 118.9 127.5 136.7 144.4 138.1 132 135.2 134.3 142.1 154.3 169.9 171 168.6 169.7 176.2 187.9 202.3 211.1 224.9 238.6 247.6 259.5 275.8 286.1 286.3 285.7 293.2 289.8 285.8 283.2 279.9 277.8 273.6 282.1 278.7 278.3 266.8 249.5 249 252.7 254.9 254.7 251.2 236.8 248.7 245.9 245.5 228.1 221.3 209.2 190.3 190.1 183.9 174.7 171.2 181.2 185.9 182 173.3 158.1 155.9 156.7 158.4 161.8 167.4 173.7 182.1 191.8 203.5 216.6 231.3 240.3 253.6 264.8 269.8 277.2 282.6 287.1 294.7 301.6 304 303.1 302.9 307.4 309.2 316.1 312.8 302.4 290.3 276.3 262.8 253.7 252.1 268.4 286.3 300.8 303.8 314.2 324.6 328.1 330.7 326.1 317 312.6 307.9 301.1 299.5 291.5 285.5 279 275.2 269.9 263.9 260 257.6 256.7 252.8 251.5 249.3 248.2 247.1 246 246.3 248.6 251.3 251.7 248.7 243 235.8 234.5
133.1 126 121 114.1 108.8 111 116.1 109.2 104.2 100.8 94.4 88.5 82.5 74.6 72.3 72.4 68 65.7 66.5 68.3 74.1 76.5 77.9 75.2 70 67.2 63 54.7 50.8 46 43.8 46.5 46.9 46.9 46.7 46.7 47.1 47.5 48.3 48.1 48.2 48.5 49.1 49.1 49.2 49.8 49.6 49.6 50.4 52.4 55.7 51.7 53.2 56.1 58 61.4 62.4 72.8 87.4 96.8 104.6 110.4 110.1 110.1 106 104.4 100.2 101.3 108.3 113.1 121.1 131.9 142.3 148.1 147.3 133.9 140.1 143.1 144.4 156.2 167.8 168.8 172.8 171.3 177 189.7 204.2 210.3 223.4 237.7 247.6 253.4 270.9 281.9 285.3 290.2 289.7 289.6 289.8 282.1 274.5 272.7 273.5 278.9 275.3 272.1 267.5 249.8 249.9 258.2 269.6 269.4 269.4 249.5 249.9 250.6 243.1 229.2 220 208.4 193.7 191.2 184.9 177.3 181.6 188.8 188 180.8 171.4 160 157.1 156.9 158.7 160.1 164.6 168.6 176.8 184.4 197 214.5 224.5 236.3 250.6 263.9 268.3 278.1 285 288 296.1 299.3 301.8 301.3 302 306.2 310.2 311.2 304.3 292.3 277.9 265.2 253.7 245.7 251.7 271.7 288.5 297.7 299.9 312.6 324.8 327.9 328.2 321.3 312.2 309.1 303.4 301 296.1 290.6 285.6 280 275.6 269.2 264.5 260.3 258.7 255.8 251.5 248.3 247.9 247.5 245.8 245.7 247.3 248.4 248 248.9 245 240.2 234.4 233.8
135.5 134.5 132.4 126.1 117.1 115.4 123.1 114.1 110.6 108.4 101.7 94 86.9 79.8 73.9 71.1 67.3 66.8 70.8 76.2 78.7 79.8 79.6 76 69.4 68.4 64.6 56.4 50.5 51.6 44.2 45.2 46.2 46.4 46.3 47.1 46.8 47.4 47.7 47.8 47.9 48.5 49.1 48.5 48.9 49.3 49.2 49.8 49.8 53.9 55.6 55.2 54.6 57 59.7 59.1 61.8 70.5 83.6 92.6 99.5 111.2 106.6 104.8 105.3 107 106 108.8 116.3 117.7 126.9 134.4 142.3 149.8 150.4 137.3 142.7 149.2 145.1 156.7 168.8 166.9 178.5 174.7 177.2 190.5 205.3 211.4 221.2 233.2 245.9 251.7 266.4 272.9 284 289.5 290.5 287.8 285.8 274.6 269.7 266.1 271.5 274.2 270.8 269 259.8 254.7 260.1 264.5 276.8 284 276.8 268.5 255.5 253.4 241.5 228.9 220.2 210.5 198.4 194.7 187 183.2 190.7 192.9 189.4 179.4 169.1 161 157.6 157.2 157.8 159.8 164.1 167.7 174.9 182.4 194.6 206.1 218.7 230.1 247.5 258.5 265.7 274.5 281.4 288.1 293.4 294.7 299 300.5 301 307.2 309 304.6 294.9 281.6 269 255.4 245.1 243.3 253 270.8 287.6 294.8 300.1 308.3 325.5 322.6 322 316.4 310.2 306.4 303.2 301.1 296.1 289 284 280 275.4 268.5 264.2 261.4 257.4 253.7 251.3 247.6 245.4 245.1 243.9 246.5 247.8 248.4 245.7 245.1 241.4 234.9 234.4 230.7
139.6 139.2 136.9 134.4 128 121.4 128.4 119.8 114.5 114 106.6 99.6 90.5 83 77.2 72.9 70.2 68.9 75.2 80.8 80.3 79.5 80.9 77.2 70 68 63.8 55.7 50.6 48.1 47.1 43.1 45 47 46.7 47.1 47.2 47.6 47.7 47.8 48.3 48.5 48.6 48.5 48.6 48.6 49 49.8 49.9 51.3 52 57.8 55.1 57.3 60.4 60.1 61.2 68 81 88.7 93.9 105.9 104.4 101.5 111.9 110.9 111.6 112.7 119.4 119.1 128.6 135.7 141.3 148.5 152.1 140.2 147 150.6 148.9 157.1 166.6 169.8 183.2 179 181.1 192.2 203.3 210.5 221.4 229 242.9 252.8 266.2 273.4 285.1 287 287.4 283.4 275.9 267.1 262.5 262 271.3 271.4 267.8 264.1 254.3 267 267.4 270.4 279.3 290.1 290.8 282.2 267.4 254.5 240.5 228.8 221.7 212.8 203.1 197.7 192 192.1 195.8 194.9 188.7 181.1 167.2 159.6 157.7 157.5 158.9 160 161.3 166.3 170.6 179.6 188.9 201.7 213.3 228.2 241.7 250 259.2 269.9 277.6 282.9 288.8 289.9 292.9 293.7 300.5 303.8 300.9 296.3 286 271.6 258.6 244.3 240 241 252.4 269.7 286.9 298.2 302.5 306.9 318.2 316.8 316.3 313.4 312.1 309.3 302.9 299.3 295.2 289.4 279.9 277.7 273.5 269.5 266.8 264.7 255.1 252 250.1 245.6 244.4 242.9 243.6 251 246 243.5 241 239.2 236.3 232.8 234.1 230.4
145 143.9 144.7 142.1 134.1 128.4 129.8 123.9 117.2 119.5 112.2 106 95.1 85.9 79.9 76.2 73.5 72.8 78.5 80 79.4 80.8 81 78.3 72.4 67.4 61.7 52.6 49.7 47.5 45.8 44.6 42.6 46.4 48.4 48.4 47.8 47.3 47.4 47.6 47.7 47.9 47.9 47.8 48.1 48.3 49 49.3 49.1 49.7 53.6 56.7 56.1 58.6 59.2 60.3 61.7 68.5 79.3 87.7 92.3 95.9 98 108.1 114 111.5 114 113.6 119.8 124.9 128.2 135.7 140.6 146.2 151 141.4 145.5 147.3 151.9 160.1 166.8 170.1 184.7 185.6 182.4 196.4 204.6 212.5 218.4 225.5 239.6 253.3 260.9 277.1 278.7 281.3 282.2 276.5 267.3 259.6 256.7 262.7 267.4 265.3 263.2 258.4 261.2 267.2 273.7 274.2 278.4 291.5 296.7 287.8 276.6 257.2 241.3 227.3 220.4 211.8 204.9 202 197 197.2 197.6 196.1 189.1 181 169.5 161.1 158.1 159.3 160.7 162 163 168.1 175.2 182.2 192.7 202.7 214.8 226.4 235.4 245.5 257.4 265.5 273.3 278.3 283 284.3 287.2 287.6 294 295 293.2 286.2 273.8 263.3 248.6 238.8 236.4 240.7 254 269.9 287.9 298.5 302.8 305.2 312.5 310.9 310.1 313.5 313.4 309.9 301.7 296.1 291.3 282.6 277.6 275.7 272.4 269.9 268.8 265 255 251.1 248.6 244.2 242.5 241.9 246.8 251.5 243.1 238.5 238.3 233.6 231.2 227.3 233.6 229.1
151.7 152 162 157.8 146.2 134.9 131.3 128.8 124.9 126.8 119.5 110 99.2 87.2 83.3 80.4 79.8 77.2 80.3 80.6 78.8 79.3 78 76.4 72.5 65.4 58 49.5 48.5 47 45.5 45.7 43 43.7 48.7 48.9 47.8 46.8 47.1 47.2 47.4 48.1 48.3 47.7 47.9 48.2 48.7 48.8 48.8 49.6 54 56.8 56.1 57.5 58.2 58.9 62.9 67.4 77.3 84.1 90.2 97 93.3 110.2 109 112.7 116.8 119.4 119.6 127.4 130.8 135.3 140.8 148.1 147.4 141.1 150 144.8 149.8 160.7 166.4 170.8 183.6 186.2 183 203.6 206.5 215.5 218.7 225.4 237.3 251.8 262.9 275.9 275.7 278.7 275.9 269.5 261 252.5 252.5 260.6 262.8 260.9 258.4 252.9 257.2 266.8 271.7 276.6 280.5 286.2 296.4 287.8 280.1 261.3 239 228 222.2 212.6 208.1 206.3 203.5 199.8 199 197.6 190.7 182.2 170 161.8 160.5 164.3 167 165.5 164.4 168.3 176.1 184.7 194.7 203.9 214 223.8 232 241.4 252.8 260.4 265.5 270 273.2 278.8 282.3 281.4 285.3 286.3 281.9 276.7 266.8 253.8 241.4 235 234.3 241.7 254.1 269.3 284.5 297.3 296.8 300.8 302.6 302 305.5 311.4 311.5 306.3 298.1 291.7 286 280.7 276.2 273.3 271.5 271.1 269.5 261.6 253 250.8 246.5 242.9 241 240.9 251.2 249.7 242.2 232.8 232 230.2 228.8 227.6 233.1 231.4
156.5 163.1 167.7 177 169.1 152.6 134.5 133.8 128.1 130.5 125.5 115.4 103.7 93.5 89.6 86.1 84.1 80.8 81.9 81.2 79.2 75.8 74.7 73.6 70.8 62.7 55.3 50.7 48.2 46.3 45.8 45.6 44.4 45.3 49.2 48.6 46.6 46.6 46.7 46.9 47.3 47.4 47.4 47.5 47.4 47.7 48.2 48.6 48.5 49.2 53.4 56.2 57.8 57.7 59 58.6 62.9 70 75.6 76.1 85 91.4 92.2 104.6 104.6 111.1 117.2 113.4 119.1 126.6 130.5 135.8 142.9 151.8 142.1 141.5 147.4 144.5 151.9 162 169.1 172.5 180.1 181.1 184.3 203.5 204.9 212.6 218.7 224.4 235.3 247.2 260.6 271 272.3 274.9 273 262.7 255 251.1 254 258.2 257.9 255.5 252.5 252.5 254.6 262.5 269.8 277.4 287.7 276.6 286.9 283.3 273.8 256.6 238.9 229.6 222.1 212.8 210.5 212.2 208.6 201.8 197.4 195.1 191.8 183.2 176.2 171.6 170.6 171.2 172.4 174.4 169.1 168.9 178.8 188.3 194.6 205.1 217.7 223.8 230.5 241.6 250.2 256.3 259.9 263.1 268 272 275.5 276.7 277.7 278.5 273.2 267.4 255.3 243.2 234.8 233.1 233.1 242.4 254.8 270.7 284.7 292.3 290.8 293.7 294.8 297.9 302 304.8 301.5 296.8 293.3 287.4 281.6 277.3 272.6 271.5 271.5 270.9 265.2 259.9 254.3 250.9 245.6 241.4 239.5 244.1 253.1 248 238 230.9 230.3 228.1 226.7 230.5 231.9 236.5
159.4 165.2 170.3 174.4 175.7 172 147.9 140.5 130.9 127.5 123.7 117.3 109.2 102.1 96.7 91.1 86.1 84.4 84.1 83.3 79.1 74.5 71.7 72.1 69.3 61.4 54.2 52.2 49.2 45.6 45.3 44.8 42.2 48 50.3 47.9 46.5 46.7 46.4 46.5 47 46.9 47.4 47.1 46.9 47.2 47.5 47.8 48.4 48.8 51.3 54.5 56.3 57.6 58.9 59.7 64.5 69.4 71.7 73.5 86.8 86.3 96.3 96.8 104.5 103.4 109.7 114.2 116.7 122.6 123.1 134.5 144.5 147.8 139.4 142.9 148.6 143.7 159.9 168.1 168 174.5 180.5 182 186.3 201.5 205.9 211.9 217.8 225.6 237.3 246.4 257.6 266.1 268.1 269.4 268.1 258.2 251 251.5 261 259.4 255.8 252.3 246 250.6 253.4 259.6 269.9 284 289 272.2 280.7 278.5 273.5 257.7 242.6 231.1 219.8 213.2 217.6 218.7 215 208.5 197.6 193.9 191.8 188.7 187.1 180.9 179.6 176.7 176.4 178.5 174.8 178.5 185.3 187.7 192.8 202.9 216.3 222.7 229.9 242.6 250.2 253.4 254.4 256.4 260.9 266 266.2 266.6 268.8 270.7 267 257.9 248.9 238.1 233.6 231.2 232.5 242 255.2 269.8 281.6 285 287.9 286.7 287.9 290.3 293.1 293.2 292.7 291.2 292.1 284.4 280.4 275.7 269.5 269.2 271 270.3 263.4 258.5 255.4 255 246.3 239 238.9 249.5 251.5 241.5 233.9 232.7 230.1 227.5 226.3 231 234.6 243.4
164.1 166.4 172.3 180.2 178.6 173.7 156.5 147.2 138 132 126.9 121.4 115.2 107.5 101.7 95.9 90.8 87.5 86.2 83.7 78.9 72.1 70.2 70.8 67.6 61.9 55.9 52.1 49 45.7 44.9 42.5 45.1 49.7 48.6 46.5 46.7 46.4 46.4 46.3 46.4 46.6 47.3 46.8 46.4 46.7 47 47.7 47.8 47.6 52.2 56.2 56.6 57.6 58.4 60.2 64.3 66.4 67.1 71.9 80.1 90.3 94.2 93.2 97.4 102.5 108.3 115.8 114.9 120.7 124.2 132.5 139.5 141.2 143.7 144.6 144.2 148.8 161.1 166.9 170 179 183.6 182.8 188.2 205.4 207.1 213.9 216.3 227.6 241.7 249 257.5 261.6 265.9 265.2 259.2 253.2 251.3 257.5 263.8 261.9 257 245.8 244.6 248.5 252.8 259.9 272.1 285.1 286.6 270.7 275.8 281.6 275.1 255.4 241.7 230 218.3 216.5 223.8 220.4 219.2 215 210.7 205 200 195.9 195.1 190.3 185.3 183.3 181.7 181.1 177.9 185.3 192.2 189.2 192.6 203.6 213 217.3 230.3 240.6 241.7 246.6 247.5 248.6 255.4 261.1 260 260.7 261.6 264 259.9 249.5 241.9 236.3 233.9 229.4 232.5 242.7 255.6 266.3 275.6 279.8 279.9 278.8 281.4 283.4 286.5 286.3 284.8 289.5 289.2 286.3 284 274.1 266.4 266.9 269.5 266.9 261 256.8 256.5 254.5 244.2 237.9 240.4 250.9 247.6 239.1 238.1 235.4 227.6 227 227.1 231.1 240 245.3
170 170 175.6 183.9 182.8 176.4 164.4 157.1 148.1 135.8 132.3 131.5 127.2 118.4 107.1 98.1 93.8 91.6 88.7 83.9 77 71.6 69.7 69.3 66.2 60.9 54.7 51.5 49 47.6 45.9 43 45.9 49.3 49 46.7 46.3 45.9 46 46.1 46.3 46.6 46.8 46.7 46.5 46.5 46.5 47 47.2 48.7 54.6 56.4 56.9 57.8 57.9 59.7 62.8 62.3 63.9 71.4 75 84 86.2 90.1 97.7 101.9 108 110.6 114.5 122.9 120.1 128.3 135.8 139 145.7 145.5 142.3 151.4 160.2 165.6 170 179.7 184.9 186.6 193.3 203.9 214.2 215.1 216 230.9 240.2 247 258.6 258.7 260.5 259.3 254.7 251.6 253.5 260.2 265.9 261.1 252.9 243.1 242.3 241.7 248.9 259.2 268.3 279.2 276.1 272.2 271.3 275.2 270.2 252.2 242.6 227.4 217.1 221 224.3 223.9 221.5 220.4 217.5 216.1 209.2 206.4 202.9 198.8 192.9 188.4 189.6 183.9 182.4 191.9 196.8 192 188.4 199.7 205.2 212.3 223.7 229.3 234.7 237.9 239.6 242 249 253.7 252.9 254.1 256.5 258.9 255 247.1 241.6 238.5 232.8 227.4 230.4 242.1 253.1 262.3 270.1 273 273.8 277 280.8 281.4 281.7 281 283.7 288.7 286.9 285.1 281.9 274 264 264.5 268.1 264 256.5 256.2 255.8 252.6 242.3 237.3 244.4 249.4 243.5 242.1 245.1 240.4 227.9 227.1 229.5 231.6 242.9 244.8
172.1 176.7 178.7 185.6 185.8 181.5 173.5 168.4 160.5 152.4 140.5 139.1 136.1 127.8 116 106.2 100.9 97.8 90.7 82.6 77.8 73.3 70.9 69.8 63.9 58.7 53.7 51 49.6 48.2 45.1 44.6 45.9 49.1 48.9 48.3 46 46 45.8 45.9 46.5 46.4 46.6 47.6 46.8 46.6 46.7 46.5 46.6 47.5 53.7 56.2 57.5 57.7 58 58.8 61.6 62.4 64.7 69 73.3 80.3 82.4 89.2 91.7 99.6 106.2 110 114 124.5 118.4 120.5 131 139.4 140.9 142.9 146.2 158 162.9 163.8 171.7 179.3 187.4 187.2 195.2 203.8 212.6 215.1 218.5 229 238.2 246 253.3 254.3 255.4 252.8 248.8 247.1 249.8 258.5 259.8 258.1 247.4 240.2 232.2 235.2 242.7 247.7 263.2 273.5 276.9 270.4 269.4 269.8 261.1 249.2 241.2 226.2 219.1 224.8 224.1 223.7 226.9 231.6 228.1 225.2 220.5 215.1 207 202.4 197.6 193.6 192.3 185.2 188.3 196.7 199.7 194.3 189.9 196.7 201.1 209 216.8 226 233.7 231.8 234.7 237.5 242.4 244.6 248.9 249 252.1 254.9 251.7 247.1 243.1 238.3 229.9 225.1 226.5 239.9 249.9 259.2 266.6 269.4 270.5 273.9 279.6 280 280.2 279.7 282.3 286.9 286.5 286 278.9 270.2 262.2 263.5 261.7 258.1 255.6 256 255.8 251.7 241.4 237.1 247.3 246.2 246.8 250.4 251.4 246.7 230.4 224.8 229.7 239.4 244.1 243.2
173.5 178 182.1 187 186.1 184.3 181.9 182.9 176.6 172 161.1 150.5 141.5 136.3 123.9 114.7 105.8 100.7 96.3 90.1 76.6 73.6 70.3 67.1 61.4 56.8 53.2 49.9 47.6 46.6 44.1 43.8 45.6 48.5 48.1 48 48.8 44.9 45.7 45.8 47 47 46.6 47.5 46.9 46.3 47 46.3 46.2 47.2 51.5 56 58.3 58.2 58.2 60.7 61.4 61.3 62.8 68.6 70.8 76.8 79 86.9 92.9 96.9 104.5 110.1 114.2 122.4 118.6 117.5 127.3 136.6 141.3 142.3 152.9 157.5 162.7 163.6 173.6 180.3 185.2 189.8 197.2 204.1 210.3 217.5 219.8 230.9 235.8 243.4 250.1 251.1 250 246.3 243.2 244.8 252.1 256.4 254.4 248.8 240.6 236.2 229.3 231.4 239.8 250.5 260 267.8 263.9 260.3 265.4 264.3 256.6 247.2 237.1 221.8 222.7 227.1 224 224 228.8 236.3 236.7 232.4 225.3 219.6 214.7 207.9 202.1 200.9 193.6 184.2 189.5 198.2 200.3 195.5 190.8 194.8 199.5 205.6 222.3 228.5 234.8 227.5 228.2 233.3 236.5 238.3 242.2 241.2 248.8 250.8 249.2 245.9 240.9 233.4 226.8 223.9 227.4 234.8 247.1 256.8 262.7 267.8 273.5 276.7 281 277.2 279.7 278.8 280 283.9 284.6 281.9 277 267.4 264.9 262.4 258.8 256.2 254.8 256.3 256.2 250.4 239.1 237.8 246.5 244.9 253.3 254 248.5 243.9 233.9 228.8 229.2 239.2 243.5 241.9
173.1 176.9 181.3 187.5 191.3 188.6 188.4 189.4 185.6 177.7 169.8 160.5 149.4 139.8 130.6 125.4 111.4 104.2 103.9 99.2 86.7 76.1 69.6 65.4 59.6 55 52.7 50.5 46.7 46.4 45.3 42.1 44.9 47.6 46.9 47.3 48 49.1 45.2 47.4 47 47.1 46.5 47 45.7 45.6 45.8 46.3 46 47.2 48.9 55.7 59.4 60 58 61.9 63.5 63.6 63.8 68.8 70.5 76.3 75.4 82.2 90.2 94.4 102.2 106.9 114.2 121.7 118.2 116 125.2 131.8 141.3 142.3 153.1 157.8 161 165.8 171.8 179 186.1 193.9 198.5 205.9 212 221.4 224.2 230.3 234.6 242.2 246 247.9 247.5 240.3 238.7 243.9 250.7 248.7 242.9 235.6 231 230.9 226.4 228.4 238.1 247.6 255.2 260.1 258 258.6 260.2 255.3 249.1 241.2 233 220.6 227.1 226.6 224.4 224.7 231.5 236.9 239.4 235.1 225.2 223.4 220.4 216.3 209.9 206.2 195.5 185.5 188.9 195.2 201.1 194.1 187.5 193.2 196.3 212.6 222.1 228.3 232.4 223.8 222.4 227.9 233.2 233.1 234.6 233.3 242.4 245.1 244.4 241.8 235.8 229.3 225 223.4 228.3 236.1 244 254.4 262 269 275 280.2 281.4 274.3 275.2 275.5 280.5 284.5 283.1 280.8 272.9 266.4 268 265.9 259.5 255.6 250.9 256.6 254.6 247.2 234.7 240.5 242.7 247.7 257.6 254.1 245.9 240.1 234.6 228.2 231.8 238.9 240.5 244.7
174.8 176.2 180.3 185.2 192.5 194.5 191.4 190.8 187.7 182.1 174.5 164.7 157.2 148 140.6 133.2 122.2 114.8 109.6 106.7 92.8 83.9 73.8 68 60.5 55.1 52.2 50.2 47.7 47 46 43.7 42.8 45.6 46.2 46.3 47.4 47.5 47 49.6 46.7 46.2 45.7 45.3 45.3 45.6 45.9 46 46.6 47.7 48.2 53.8 61 61.1 59.1 61.3 64 64.9 65.7 68.9 70 73 74 80.8 85.6 92.1 99.9 105.3 111.8 118.8 117.8 115.5 123.1 131.5 142.3 147.4 151.2 154.1 158.3 166 170.9 180.3 186.1 196.9 204.3 210.3 213.4 217.3 225.4 230.9 234.1 240.5 244.4 246.4 247.2 236.9 235.8 240.2 246.5 241.2 235.6 235.8 231 232 224.7 226.4 235.4 243.7 249.1 252.9 252.1 253.5 253.5 246 243.3 237.2 232 221.6 229.6 227.2 225.3 225.8 232.6 234.8 238.1 233.7 227.3 229.4 226.2 221.8 213.7 207.7 197.1 187.9 186 193.7 199.3 189.1 189.5 195.2 201.3 209.6 218 225.8 227.6 219.1 218.5 225.3 231.1 229.3 226.9 227.4 235.4 238.5 238 234.7 227.5 225.5 222.9 223.1 229.3 239.2 248 255.8 261.8 270.4 280.4 282.7 277.7 270.7 269.6 275.5 281.6 285.2 283.9 280.6 271.6 268 265.3 261.4 263.1 259.1 259 244.3 246.4 243.9 233.9 238.6 242.4 250 256.3 249.9 243.4 237.6 227.1 228.1 237.2 243.8 245.7 250.7
175.4 177.4 179.8 183.9 191.2 198 196.8 192.5 187.9 182.9 176.9 170.3 161.9 156.8 149.1 145.8 132.1 123.1 118.2 111.5 98.8 91 80.5 71.7 60.2 50.2 49.1 50.6 49.3 48 46.2 45 42.6 43.4 45.3 46.1 46.6 47.2 47.5 49.6 45.5 44.7 45 44.6 44.7 45.4 46.7 46.7 46.5 47.7 48.2 56.2 63.3 60.4 59.7 62 64.2 64.4 65.3 67.4 69.4 71.7 72.7 77.1 81.2 88.3 99.2 103.6 111.1 113.8 112.3 111.5 120.3 126.8 133.7 146.3 151 155.6 157 166.3 176.1 182.6 187.6 197.4 203.6 210.1 218 220.3 229.4 230.9 234 239.5 242 243.3 245.4 236.1 235.3 238.4 242.3 237.1 233.9 239.7 233.5 229.5 224.3 223.9 231.4 239.3 244.7 247.1 247.6 249 247.9 244.4 240.7 234.4 229 223.3 230.8 226.9 225.5 225.8 230.7 232.9 233 227.9 229.4 230.7 228.8 224.4 215.8 209.1 196.3 187.7 181.7 192.2 192.3 185.4 186.4 191.3 200.9 209.8 217.2 226.6 218 211.8 216.4 227.2 234.3 229.8 222.7 220 229.5 231.8 231.2 226.3 223.9 222 220.1 225.1 232 243.2 251.6 256.5 265.7 274.8 279.4 276.6 273.4 266.5 270.1 276 281.9 285 283.2 277.5 270.9 269.4 274.2 270.8 266.7 264.5 263.2 253 235.6 233.7 232.7 237.8 239.5 249.3 254.7 252 241.8 229.7 227.1 229.4 238.9 246.1 249.5 253.8
173.8 178.2 181.3 183.4 187.8 194 197.6 196.1 188.3 184.1 178.5 173.3 167.9 159.9 152.7 147.7 141.8 129 123.3 117.9 106.5 96.5 84.5 72.5 58.6 52.2 47.8 49.1 49.2 48.5 46.9 45.2 44.4 42.1 43 45 45.7 46.4 46.5 45.3 44.6 45.1 45.9 45.9 47.9 49.4 49.1 47.1 48.2 47.4 50.4 57.3 59.4 60.3 62.6 64.1 64.2 62.7 64.9 68.4 69.7 71 70.5 73.9 77.3 86.7 93.9 100.2 108.6 113.1 110.4 111.2 117.6 127.8 138.8 145.8 149.5 153 158.7 169.1 177.8 183 190.4 199.3 208.7 215.4 223.4 226.9 224.6 228.1 235.6 238.8 240.3 240.8 242.4 235.9 237.5 238.9 238.3 235.9 236.2 239 232.8 228.2 224.6 223.9 226.5 235.1 240.7 243.5 245.2 246.8 246.3 243.3 238.9 232.8 226.6 223.9 229.3 229.2 223.1 226.2 230.6 235 231 225.3 231.9 227 228.8 224.1 217.4 209.9 198.8 184.3 183.3 188.7 188.9 178.1 184 189.1 198 207.7 216.9 219.1 208.2 207.5 218 233.7 237.8 234.1 228.2 212.3 215.9 223.1 223.9 224 225 221.2 220.3 226 238.5 249.4 255.7 260.1 268.1 274.7 278.5 272.2 269.1 266 271.5 277.4 282.5 284.6 282.4 274.5 270.2 274.4 278 273.2 269.4 268.1 263 250.8 239.4 231.8 228.8 232.9 235.3 241.1 250.6 245.7 232.5 226.1 227.3 231.1 238.1 244.4 250.9 255.4
169.4 178.2 182 184.6 188.6 192.7 193.8 194.8 190.7 186.4 180.8 174.8 169.1 163.8 154.9 151 146.1 142.1 128.1 123.7 113.3 103.9 86.2 71.6 52.5 48.2 47.3 48.3 48.7 48.8 48.3 46.7 45.8 46.1 41.5 41.9 44.3 45 44.9 44.7 44.7 44.5 44.1 51.6 50.7 51.6 50.6 51.1 52.4 50.3 51.2 55.4 56.2 59.2 61.7 63.4 62.1 62.3 66.2 69.5 70.2 70.4 69.7 72.1 75.4 85.2 93.2 99.9 106.5 111.2 108.2 111.1 120.6 135.4 139 148.9 150.3 155.2 163.7 174.2 180.5 184 188.6 197.2 211 219.9 226.3 228.4 222.9 226.7 231.9 238 238.3 238.3 235.8 238.3 240.2 239.1 232.7 232.3 234.3 237.3 231 225.9 223.9 223.9 224.9 232.2 237.5 243.1 242.9 245.2 245 242.6 240.6 234.5 225 221.9 225.3 226.7 219.6 226.1 227.4 228.8 229.1 222.3 227.3 228.1 228 223.6 218.2 211.3 202.1 189.5 175.4 179.2 181.3 175.4 181.6 185.5 195.1 204 211.4 207.3 202.3 207.1 221.8 229.7 233.3 231.5 227.2 208.4 207.3 214.5 221 227.3 225.4 220.8 220.2 231.5 247.4 254.8 256.8 262.8 269.5 274.7 272.9 267.6 265 265.4 272.3 278.7 282.8 283.9 278.6 274.8 273.2 277.6 279 272.9 270.9 269.5 261.5 247.5 235.4 228.5 227.6 229.3 233.8 234.2 236.7 233.1 226.9 226.4 227.1 233.2 239.4 244.4 249.8 257.3
165.7 175.7 180.9 185.6 190.4 194 194.4 193 188.8 184.9 180.6 176.1 173.6 167 160.8 153.2 148.4 144.2 135.4 120.8 109.3 99 87.3 73 55.8 47.9 47.3 48.9 49.4 49 48.5 48 46.9 44.2 44 42.3 42.1 44.4 44.4 43.8 44.3 44.6 44.8 47.2 47.5 49.8 52.5 54.4 56.3 53.4 50.8 52.2 53.9 57.2 60.3 61.3 60.8 61.9 66.4 68.6 69.7 69.6 70.1 71.4 75.7 83.8 91.9 98.9 107 107.8 107.2 111.2 123.8 137.7 140.9 145.5 151.7 157 166.2 176.4 180 182.8 186.8 197.7 217.5 217 226.3 228.9 222.8 226.9 231.1 233.7 234.7 235.2 232.9 237.8 239.7 237 236.7 230.6 235.8 236.5 230.4 225.5 223.9 223.9 223.9 228.5 236.6 238.9 240.3 240.6 240.7 241.3 243.7 235.2 225.2 220.6 222.6 220.2 218 222.9 225.5 226.2 222.3 220.6 223.5 225 222.8 220.3 220.7 213.9 202.1 189.7 176.4 167.3 170.9 172 173 178.1 188.9 194.7 200.7 197.9 198.3 206 220.6 226.6 233.8 226.8 219.3 204.8 206 214.4 228.9 230 225.4 217.5 223.3 240.2 251 253.2 254.5 260 264.4 264.8 260.7 258.2 259.6 266.3 274 280.4 283.4 281.4 282.6 274.2 274.3 277.5 275.9 271.3 268.1 265.9 258.3 242.1 233.7 226.5 225.8 226.1 231.8 231.8 232 229.9 225.3 229.2 230.5 236.4 239 244.5 251.9 259.4
164.1 172.1 178.1 182.7 188.1 193.4 194.4 193.3 188.2 182.1 176.4 173.5 170.8 168.8 162.8 156.1 152.8 147.1 137.4 122.5 106.1 97.6 89 74.8 58.9 48.4 48.1 50 50.3 49.6 49.4 49.3 46.9 44.4 44 42.9 42 41.5 43.6 44 44.1 44.5 44.8 45.6 49.2 52.6 50.2 55.1 56 55.5 51.9 51.8 52.8 55.2 59.1 61.2 63.3 66.1 66.8 68.2 69.2 69.8 71.3 71.1 74.5 84.9 92.4 103.3 105.1 105.4 109 115.9 133.3 137.3 145.9 147.5 152.1 160.1 168.4 179.5 180 182.8 189.7 199 217.9 220.8 223 229.4 222.4 225.5 233.9 231.7 230.6 231.4 231.6 237.2 237.2 234.2 234.4 226.9 231.2 231.3 225.3 223.7 223.9 223.9 223.9 226.3 235.5 236.7 239.1 240.2 241.1 242.7 238.2 231.2 223.4 217.7 219.6 214.3 214.7 219.1 223.2 221.6 218.7 221 220.5 222.9 220.2 220.5 222.7 218.3 207 193.7 180 167.6 164.2 167.2 170.1 173.1 181.4 188.3 190 191.2 196.2 206.7 217.6 225.7 231.2 224.1 210.6 205.1 206.9 220.5 230.3 228.9 223.7 214.7 229.4 242.4 247.6 246.1 247.3 250.7 250.5 251.2 252.6 257.7 262 269.1 275 280.6 282.1 282.8 278.3 277.8 276.6 274.5 270.8 264.9 261.1 257.8 252.7 239.1 235.2 230.1 224 227.4 228.5 228 227.8 224.2 231.3 227.4 233.1 237 240.9 246.1 254.9 260.5
162.8 165.5 176.2 178.3 186.6 191.9 192.7 191.7 188.8 186.3 175.3 169.6 166 164.6 162 159.3 154.5 148.3 138.6 125 111.2 100.5 93.9 80.7 65.2 51.1 49.5 52.3 52.6 51.4 51.1 51.1 47.3 45.8 44.2 43.8 44.8 41.2 41 44 43.8 44.3 44.7 44.4 49.7 53.3 54.1 53.6 55.3 56.1 53.9 52.4 53.1 53.8 57.3 62.6 65.9 65.9 67.3 69.2 70.5 70.8 74.1 78.3 74.2 77.9 86.1 97.6 101.2 112.2 120.4 117.1 127.1 139.4 144.5 147.2 155.3 163.4 171 180.6 179.7 183.2 188 200 212.4 218 222.5 226.7 222.6 226.9 233.9 230.9 228.1 227.4 230.1 232 232.7 230.5 229.7 224.9 227.6 224.9 223.9 224 224 223.9 223.9 226 236 240.5 241.4 241.1 242.4 241.6 237.4 232.3 221.5 216.4 214.9 212.8 213.4 216.2 219.4 218.7 216.8 220.7 220.5 220 216.8 219.9 223.4 220.5 209.9 199.1 182.8 172.2 163.2 162.2 165 169.6 173.7 180.1 184.5 187.1 191.9 202.6 216.7 226 225.2 212.5 203.2 201.6 210.8 227.5 228.1 225.4 217.7 220.3 234.2 240.9 239.9 236.9 241 246.3 251.2 255.8 257.5 262 265.6 271.6 276.8 281.8 283.3 281.6 281.9 287.6 280.8 275 273.6 268.3 260.5 252 246.9 238.7 234.2 228.3 223 226.5 225.8 226.8 223.2 227.1 226.7 230.5 232.1 237.2 242.1 247.3 255.7 261.2
159.6 162.8 171.2 174 177.7 188.4 189.2 186.6 181.7 177.6 178.1 169.4 162.3 161.4 159.9 157.7 153.4 147.3 138.9 126.9 114.3 104.8 94.1 82.7 69.6 57.1 52.7 53.4 54.5 52.9 52.5 52.6 49.5 45.4 44.4 43.2 42.8 40.6 41.9 44.1 44.1 43.8 44.6 46 52.6 57.2 56.1 56.3 57.5 58.7 55 50.6 51 51.6 59.1 61.3 63.8 65.1 67.6 68.9 70.3 70.8 75.7 79.4 79.2 83.7 89.6 103.5 101.9 104.9 110.5 120.3 135.6 138.9 142.4 147.1 156.9 166 174.8 181 178.9 181 186.6 200.4 213.8 216.8 220.9 227.2 222.2 228.1 234 231.6 227 226.5 229.2 230.9 230.5 230.1 228 223.9 223.9 223.9 223.9 221.9 223.9 223.9 223.9 231.7 240.2 241.3 241 240.5 240.2 239.3 237.7 230.2 220.7 213.9 213.6 212.5 212.2 214.2 214.7 214.5 215.9 216.7 217.2 214.9 213.8 218.5 222.6 222.4 212 203.2 185.9 175.9 168.6 160.9 161.4 165.6 169 172.6 178.2 182.5 185.8 196.6 210.2 218 213.5 200.3 197.4 204.5 212.7 223.8 222 218.1 211.5 220.8 231.7 230.1 234.6 239.8 245.6 251.8 257.4 263.3 263.6 267.2 271.3 274.6 279.6 285.3 285.1 281.5 281.4 288.4 283.9 275.3 273.2 271.5 262.7 256 244.8 240.4 234.9 225 222.6 224.2 221.4 222.7 224.2 230.2 231 232.5 235 238.1 242.3 248.3 255.3 260.8
154.4 160.3 165 172.5 173 178.7 182.9 181.4 174.4 170.8 166.3 168.5 161.4 156.3 154.1 151 149 144.4 136.8 124.7 115.4 107.7 97.4 85.9 73 62.5 53.8 54.2 54.8 54.6 53.7 54.2 51.1 46.7 43.8 43.6 43.1 40.5 43.2 43.7 45.3 44.9 44.7 46.8 56.5 64.6 62.1 57.6 57.5 58.8 57 56 50.9 49.8 57.2 60.8 62.7 65 66.3 68 69.5 71.1 73.8 77.8 82.3 88.9 94.4 103.8 106.2 108.6 116.9 127.7 135.9 141 145.3 153.8 160.6 167.9 177.1 181.8 177.6 180 187.4 201.6 208.1 214.8 218.3 224.3 220.1 228.2 233.6 231.8 226.2 225.2 230.7 230.3 227 230.1 229.2 223.9 223.9 223.9 223.9 223.9 223.9 223.2 227.3 232.5 238.8 242.1 240.3 239.2 238.4 239.2 235.4 226.9 215 212.7 212.7 212.5 212.1 212.3 213.3 213.9 215 216.4 217.5 210.1 211.5 217.4 219.7 220.1 213.8 203.1 191.9 182.2 173 162.6 159.7 161.2 163.6 167.8 171.8 175.8 181.8 189.3 199.3 206.7 200.7 188.9 197.6 205.3 213.2 214.9 211 202.8 214.6 225.6 225.6 231.2 236.1 243.3 251.2 257.6 263.4 269.1 267.6 271.7 279.7 283.2 282.4 286.7 282.5 281.6 281.3 297.4 283.2 275.1 274.2 272.2 267.4 255.8 249.1 240.4 236.2 223.9 220.4 221.6 222.8 222.3 231.4 238.2 235.9 236.7 240.5 241.5 241.5 244.2 254 257.2
150.7 156.9 157.4 168.7 168.2 170.3 172.2 172.2 168.5 165.4 159.4 157.7 156.7 151.7 148.6 144.6 142.3 140.4 134.7 125 114 108.5 100.9 89.5 77.2 66.6 58.6 55.1 55.5 56.3 55.7 54.2 50.6 46.1 43.4 43 42.6 40.2 43.3 43.4 45.6 45.3 44.6 50.3 63.4 71.5 68.2 57.3 57.3 58.3 56.7 53.1 52.7 50.4 56.5 61 62.9 65.2 66.9 68 69.5 71.3 73.9 78.4 85.2 91.6 96.5 104.4 107.7 111.9 119.8 132 138.5 145.4 151.5 156.1 163.3 170.9 179.6 179.5 176.3 181.6 189.9 198.1 204.4 207.4 215 219.1 221.2 227.8 233.4 231.3 225.9 223.3 227.3 224.5 225.7 233.8 229.5 222.3 223.9 223.9 223.9 223.9 222.4 225.2 230.5 235 239.3 242.5 238.8 235.6 237.7 237.2 231.4 222.1 213 212.6 212.6 212.5 212.1 211.6 212.8 213.6 214.2 214.4 213 208.6 210.2 217.2 218.6 217.7 213.9 206.2 195.6 183.6 174.9 161.9 160 159.6 161.1 163.3 163.1 171.4 178.8 184 188.7 196.7 188.9 185.1 196.5 204.2 206.4 202.7 197.3 200.4 212.9 222 225.4 228.9 238.2 248.6 262.2 265.7 269.2 271.2 273.1 278.7 288.2 294.2 286.4 282.4 281.3 281.6 280.3 296.6 277.5 267.2 277.6 271.9 262.1 254.6 247.9 239.8 236.1 224.9 219.5 219.8 221.5 229 238.9 242.3 239.8 240.7 244.3 247.9 245.7 243.7 250.7 251.3
149.1 152.2 151.9 162.9 166.3 167.1 164.3 164 163.4 162 156.9 153.1 151.8 147.8 142.1 137.6 138.4 135.5 131.5 125.3 117.4 110.8 102.7 91 78.1 68.8 60.1 54.3 55.1 56 54.9 50.9 47.6 44.4 43.1 42.7 39.6 43.9 44.1 43.9 44.8 44.8 44.8 56.5 70.9 77 70.2 57.9 57.5 58.2 58.6 56.3 54.9 54.4 56.4 59.3 63.2 65.4 66.3 67.7 70.9 71.9 74.3 79.4 85.5 91.4 97.9 103.1 112 118.1 125 132.8 137.9 149.5 157.4 161.5 166 174.7 180.4 176.2 172.6 180.2 191 195.5 199.2 203.7 210.9 216.6 221 227.8 232.7 231.7 225 223 223.1 221.7 227.3 226.9 224.9 223.6 216.4 223.1 223.9 223.9 225.3 228.2 232.5 237.4 241.1 239.8 236.5 233.5 234.5 233.7 229.6 219.4 213.6 214.2 212.6 212.6 212.2 212 211.8 213.7 212.6 211.9 208.6 207.7 210.3 216.2 217.9 216.1 214.5 206.6 194.1 181.3 172.7 160 159.3 159.1 159.5 160.2 163.4 169.7 177.5 183.6 180.4 186.1 178.8 183.4 190.5 192.3 190 192 200.7 213.7 221.1 223.5 225.8 234.6 243.5 259.9 271.6 273.1 274.1 274.6 280.1 286.1 301 304 287 279.6 280.1 273.9 292.4 294.1 275.8 276.9 278.1 276.7 265.2 254 246.3 237.3 236.8 225.2 220.5 220 225.5 236.7 243.2 245.7 242.9 243.7 250.6 254.1 249.3 242.4 243.8 243.8
144.7 138.5 132.2 155.6 162.7 145.4 149.2 160 157.4 156.2 154.1 150.3 147.6 141.5 132.7 129.3 127.8 127.1 126 121.7 115.7 110.5 103.5 93.5 81.9 72 61.7 55.1 54.6 54.1 52.1 48.9 45.7 43.7 39.4 40.7 42.3 44.1 44.2 44.2 43.9 44.4 45.9 62.6 77.8 81.6 72.9 58.4 57.9 59.9 58.8 58.3 56.6 55.1 56.2 57.9 60.4 63 66.8 68.9 69.9 71.5 75.5 78.9 85.2 90 97.7 107.9 114.4 119.8 128.5 136.4 145.7 155 161.9 166.1 169 175.5 178.3 170.8 171.7 181.9 189 191.6 193.4 199.6 208.6 215.6 221.9 228.9 232.1 228.3 222.6 219.5 219.1 221.1 226 223.4 225 218.9 215.6 217.6 217.5 220.5 224.9 228.4 234 240.1 238.6 235.9 232.8 231.9 232.3 230.4 224.9 219.9 213.3 217.4 212.6 212.6 213.7 212.2 215.8 215.2 212.2 208.7 207.4 207.2 211 215.6 216.6 215.8 214 204.1 194.1 180 169.7 162 159.2 159.2 159.3 160 161.8 167.1 174.9 178.4 175.3 179.6 174.1 179.9 184 184.5 182.5 197.5 209.9 220.6 223.5 225.4 227.7 237.4 252.9 267.5 283.3 289.5 279.5 279.6 285.2 294.2 305.5 303.2 281 274.6 271.3 271.8 302.4 294.5 277.3 282.4 280.6 276.6 261.1 251.5 244.5 236.6 231.3 221.6 221.4 222.3 232.7 240.7 246.8 246.9 245.3 247.7 255.2 256.3 247.5 240.1 244.9 249.7
140.6 132.8 117.7 130.1 132.1 112 127.3 148.2 152.2 149.8 144.1 147.3 135.2 130.6 128.2 125.3 123.7 121.3 118.1 115.3 108.6 106.5 101.6 93.4 82.2 72.8 64.2 56.3 53.9 52.4 49.9 47.1 43.9 39.1 42.6 43.5 43.9 43.6 44.1 44.6 44.8 45.1 50.4 69.3 84.3 86.3 76.1 61.6 58.6 60.5 59.2 58.9 58.1 55.5 55.1 55.4 57.3 61 65.1 68.7 70 72.1 75.8 79.7 83.3 87 97 108.9 117.2 121 130.6 138.2 148.7 157.4 164.1 170.1 174.9 175.3 170.2 165 173.4 182.9 187.4 187.4 190.2 201.7 211 216.4 222.1 228.1 229.3 224.5 217.6 217.1 218.1 226.9 222.4 219.5 221.7 215.2 213.4 213.5 216 220.8 222.1 227 236.3 241.7 235.7 231.2 228.8 228 229.4 224.2 225.8 217.4 214 213.5 215 217.4 217.8 219.3 217.6 214.1 209.9 206.1 204.4 206.2 210.6 213.3 213.5 216.6 213.7 206.9 193.3 179.3 164.9 160.1 159.8 159.7 160.2 159.8 162.7 166 169 166.3 169.1 169.4 171.7 175.6 176.1 180.2 191.5 206 216.9 221.2 224 224.3 229.2 244.8 259.7 274.3 289.8 293.3 290.4 286.3 292 299.3 299.4 289.9 273 271.2 271.3 295.9 301.3 293.8 287.1 282 277.9 269.4 261.9 250.5 241.9 236 226.4 218.3 221.4 226 236.8 243.6 248 247.1 246.1 251.3 254.2 250.7 243.4 237.8 244.6 252.3
140.7 133.4 116.1 110 103.8 102.4 103.8 132.7 147.6 142.1 131.7 139.5 131.2 126.6 123.5 120 118 115.4 113.1 109.4 104.3 101 98.9 91 80.2 74.1 65.3 56.2 52.5 51 48.4 45.7 41.6 39.9 43.1 43.4 43.9 43.7 43.9 44.9 45.2 44.9 56.8 77.5 88 87.7 75.9 61 60 60.7 60.5 61.6 59 55.8 53.3 54.6 61 64.4 64.6 68.4 70.3 72.2 75.6 81.7 86.7 90.9 99.2 108.6 120.1 125.7 133.5 142.3 153 160.8 167 173.6 173.3 168.2 164.9 163.4 174.9 180.1 185.4 186.2 192.8 205.8 212.2 220.1 223.8 226.1 225.9 218.9 215.2 215.3 221.4 225.9 217.9 216.3 215.2 213 209.1 211.5 222.6 217.6 216.2 224 234.3 235.2 229.3 226.7 224.5 225 223.4 220.9 219.8 212.4 214 215.4 218 220.8 222.7 223.6 222.7 213.6 205.6 202.2 202.2 203.9 207.4 212 213.3 214 211.7 203.3 189.8 177.4 164.4 161.6 159.9 160 161.3 161.4 162.4 163.5 164.2 165.6 167.3 169 171.1 173.5 176.2 188.2 199.3 209 216.7 221.2 223.6 227.2 237.4 252.4 264.8 280.5 286.5 286 280.9 285.6 288.5 290.6 291.5 279.6 270.8 279.2 299.3 310.6 307.2 293.1 287.4 280.9 274.3 268.2 261.8 249.5 239.1 233 226.9 222.2 219.7 228.8 240.7 245.7 246.7 245 246.4 252.9 251.3 247.6 240.5 239.7 245.2 255.5
142.2 131.2 115.5 109.9 112.4 105 107.3 128.9 139.2 132.6 131.4 132.6 131.4 125.1 118.8 117 115.2 113.2 107.8 104.6 99.3 95.6 93.6 89.6 81.6 75.8 67.7 55.5 51.5 50.3 48 45.5 40.5 41.1 42.9 43.5 43.7 43.5 43.8 45.4 45.7 47.2 62.5 82.5 90.6 87.4 72.3 58.5 58.4 59.3 60.7 62.2 61.2 56.8 53.6 54 62.5 66.7 67.7 68.9 71 75.6 77 84.5 89.4 91.7 104 109.2 122.8 127 133 143.5 151.9 161.3 170.1 170.2 163.2 159.3 159.6 165.5 174.7 179.6 187.2 190.9 196.7 208.3 217.2 221.3 222.5 223.7 221.9 218.7 215.9 215.5 222.5 219.6 213.5 213.6 210.5 211 206.7 212.3 219.7 214.7 214.2 216.3 226.9 225 219.3 220.3 219.7 219 216.7 217.1 215.7 211.6 214.4 217.1 220.7 225 228.1 229.3 225.8 212.4 206 200.5 200.9 202 208.1 211.3 212.1 213.6 208.6 202.5 188.7 176.2 165.1 162.8 162.2 162 160.1 160.2 161.5 163 163.9 165 166 167.4 170.4 173.5 178.2 194 208.3 215.4 217.8 222.2 228.2 234.8 247.1 257.3 268.1 282.7 287.1 281.7 284.5 288.7 287.8 290.1 293.1 279.2 271.6 291.1 315.4 315.1 306.2 290.4 285 284.2 273.1 264.2 257.7 248 238.8 231.5 225.8 224.4 215.2 230.1 242.2 245.3 242.9 242 248.4 252.4 249 243.2 237.4 238.9 246.3 253.9
140.8 135.3 125.1 119.1 114 105.1 119.2 141.7 140.9 134.8 132.1 129.9 127.2 123.6 120.7 115.1 110.5 106.2 103 99.8 95.2 90.8 88.7 87.5 82.8 78.3 70.9 56.9 51.4 49.7 47.3 46.2 41.5 39.8 42.4 42.5 43 43.5 43.1 45.3 49.5 52.4 69.1 87.7 93 84.8 68.1 58.9 57.5 59.1 61.7 62.8 62.7 59.4 53.9 54.2 63.3 67.2 69.6 72.8 73.6 75.5 75.8 87.1 91.6 97.7 107.7 109.7 124.2 128.3 134.4 142.3 154.6 169.2 165.5 157.4 157.1 159.6 163.5 167.3 173.2 179.7 187.7 195.1 200.3 207.1 216.5 219.9 221.3 222.6 220.6 219.8 216.1 216.8 219.7 213.4 209.4 209.1 207.4 205.8 208.2 210.6 212.3 209.2 208.4 209.8 215.1 216 215.6 216.1 213.7 213.7 212.9 214.7 212.1 211.3 215.4 219.1 223.9 228.7 232.5 233.8 224.1 207 201.2 200.4 201.3 201.5 204 207.8 210 209.9 205.4 199.8 186 170.8 165.4 165.5 161.5 160 159.4 160.1 161.1 162.3 163.2 163.7 164.4 165.2 166.8 168.9 185.1 199.4 210.6 213.2 221.1 231 234.7 241 250.4 256.8 264.7 274.8 283.4 284.6 288.7 292.4 288.6 291.1 287.8 280.4 277.9 298.3 320 318.6 307 288.1 278.7 279.6 271.1 259.3 253.5 245.4 239.3 230.8 227.4 218.4 214.6 227.9 237.9 240 236.1 238.5 248.1 250.3 245 234.6 233.7 236.8 245.4 254.1
138.4 137 123.5 117 109.4 102.5 125.5 139.9 136.9 132 127.9 125.3 121.9 120.2 117.1 111.8 106.5 101.5 97.9 94.4 91.4 88.1 86.4 85.3 82.9 79.1 77.6 61.1 54.4 51.6 48.9 46.3 42.5 39.3 42.8 42.2 42.3 42.9 45.7 46.8 50 55.9 74.8 93.1 93.1 80 65.6 59.1 57.5 60.4 63.3 63 62.7 59.6 55.3 54.5 61 66.6 69.1 75.6 77.7 77.6 75.6 86.5 89 100.5 110.3 111.5 122.6 127.1 135.6 144.4 159.1 165.6 157.7 156.8 162.9 164.5 166.2 169 172.7 178.1 185.6 193.5 198.9 206.6 214.3 220.4 222.6 222.5 221 219.1 214.6 216.7 214.6 205.3 204.6 205.5 207.1 200.4 206.1 207 206.2 209 202.1 206 208.3 208 214 212.8 210.2 209.7 210.3 210.8 211.2 212.1 215.8 220 226.6 233.3 230.7 228.3 215.9 203.3 200 201.7 202.7 202.2 203.3 206.8 208.9 208.7 205.8 199.5 186.4 172.5 165.4 162.2 159.5 158.9 159.1 159.8 161 162.7 164.4 163.1 162.8 163.1 167.3 173.7 193.8 205 207.9 214.8 224.7 230.1 242.2 244.3 248.2 254 263 273.9 283.1 288.4 292.8 296 290.9 290.5 290.4 296.8 304.7 309.8 323.4 317.2 305.6 285.9 270 272.5 269.8 257.9 249.1 242.5 235.7 229 226.5 213.6 212.9 224.4 232.4 231.6 226.1 233.8 242.4 243.5 236.8 228.4 229.3 233 242.3 249.2
133.3 135.8 131 125.1 115.6 115.5 138.4 137.9 133.7 130.4 124.3 123 121.6 119.5 113.6 106.3 100.8 96 91.7 89 86 84.2 82.5 81.4 80.8 77.2 78.2 61.1 54.8 51.7 49 45.9 43 39.1 41.8 42.4 42.5 44 46.9 50.1 52.8 59 77.8 90.9 91.9 76.2 60.4 57.5 57.2 59.8 62.4 63.3 62.4 59.5 57.3 56.1 62 65.1 70.2 74.5 76.5 78.4 79.7 83.5 90.4 102.6 111.4 112.1 120 127 135.9 146.3 160.8 158.3 153.6 161.5 166.8 170 165.9 167.2 171.4 178 185.9 192.2 199 206.9 213 219.8 222.5 221.6 218.5 215.5 211.5 215 209.1 200.1 200.8 202.1 202.8 201.1 205.4 202.9 203.1 214.4 197.9 196.7 198.5 207.3 210.9 209.4 206.9 206.8 208 208.5 209.8 212.6 215.7 219.3 230.3 234.6 227.3 221.3 210.4 203.5 200.7 203.3 203.1 202.3 202.5 204 207.2 206.1 202 194.8 186.6 171.2 161.7 159.2 160 159 159 160 161.5 161.9 161 160.7 161.3 164.4 171.5 184.1 203.1 203.1 208.3 219.9 229.7 237.8 249.4 249.7 257.5 261.8 270 278.7 284.5 290.2 294.9 299 306 308.6 305.9 304.4 302.5 314 320.4 313.8 298.1 278.9 261 264 263.3 252.3 242.1 235.6 233.7 229.5 218.9 211.9 212.7 220.8 220.8 220.8 219.2 224 233.6 234.4 226.8 220.5 221.5 229 236.9 243
132.5 134.7 135.5 130.5 122.1 118.8 137.5 137.7 131 128 125 120.7 117.4 114.7 110.3 100.9 96.7 92.2 88.5 83.4 81.7 81 79.4 78.8 75.7 70.8 66.5 57.9 53.5 50.3 47.7 45.7 43.8 41.8 38.5 41.8 43.2 44.9 47.4 49.8 52.8 61 74.9 84.1 80.8 69.5 58 57.8 57.1 58.8 60.9 61.7 61.9 60.6 57.5 57.7 59.8 66.2 72.1 74.6 78.4 78.5 80.3 84.2 92 104.7 112.3 111.1 115.9 128.1 135.7 144.6 153.6 150.6 153.2 165.3 170 168.3 163.2 163.6 170.6 178.3 186.2 192.6 197.8 205.6 212.5 217.8 220.6 222.6 216.2 212.3 213.8 212.2 204 196 196.6 199.4 195.4 200.3 203.1 198.5 205.1 203.8 195.6 199.9 197.7 207.9 206.2 204.7 203.3 206.2 208.5 210.9 211.4 211.3 214.3 219.2 228.3 228.7 221.7 213.2 208.4 202.2 202.7 204.8 202.6 202.8 201.7 202.7 205.6 204.5 203.7 198.1 189 174.7 161.5 159.5 159.6 159.3 158.7 159.3 160.6 164.8 163.8 160.8 163.6 171.5 180.4 195.6 199.3 200.6 209 219.5 230.7 243.9 248.8 249.4 262 270.1 276.8 281.3 287 294.5 299.7 302.9 309.9 315.7 320 321.7 318.7 321.4 319.5 306.8 291.9 275.8 252.6 256.2 257.3 251.2 237.4 232.1 229 227.1 216 210.1 210.9 214.5 210.5 210.7 211.9 216.2 224.5 223.8 218.5 220.6 221.3 227.5 233.3 235.7
132.4 132 134.8 137.4 134.3 132.9 135.2 133.6 130.6 126.2 120.8 117.6 114.9 111.8 103.9 96.2 91.9 87.7 84.4 80.9 77.9 77.2 76.1 73.2 69.7 64.3 57.9 53.5 52.6 49 47.3 45.3 43.9 42.8 39.2 40.2 42.5 44.9 45.9 47 46.8 57.5 73.3 81.5 74.7 67.4 57.8 57.2 57.2 58.5 60.6 60.7 60.4 60.3 61.9 58 60.3 65.7 69.6 73.4 77.7 78.2 79.1 86.1 92.7 105.9 114.2 109.6 118.6 128.1 133.5 138.5 143.7 143.9 154.2 164 166.1 163.8 160.9 162.6 169.2 179 188.2 192.7 198.4 204.4 211.3 216 220.4 221.4 215.4 208.6 213.4 207.6 200.5 193.7 192.6 193.8 194.8 197.3 200.4 194.9 200.8 201.3 195.4 191.7 198.9 204.3 203 201.5 204.8 209.2 211.2 211.1 209.3 209.2 212.2 217.3 222.9 220.2 212.6 206.4 203.8 200.9 200.4 199.8 200.6 200.2 199 199.4 201.6 202.7 202.4 195.1 185.9 175.6 164.2 159.8 159.3 159.8 163.1 158.7 161.6 166.8 171.1 178.1 188.8 191.1 191.1 194.7 195.6 199 207.5 223.8 233.4 241.3 248 251.2 265.4 275.4 284.6 288.9 293.4 300.1 303.3 310.4 319.8 321.5 323 330.1 329.4 318.4 314.6 302.9 286.5 267.9 246.2 251.3 252.6 246.4 231.9 225.9 228.5 219.1 213.2 210 208.4 209.2 207.2 207.7 209.1 213.9 216.4 216.6 217.2 218.2 219.4 224 232.1 234.1
131 131.7 134.4 138.3 138.3 136.8 134.1 129.7 126.6 123.2 118.8 114.3 112.3 108.4 100.4 92.3 85.5 83.1 80.6 78 75.9 74.4 71.5 68.2 64.1 60.3 56.1 53.2 50.2 48.4 46.4 45.5 44.4 43.3 41.6 38.5 41.8 43.2 44.8 44.7 45.7 55 67.1 73.6 66 58.2 56.2 56 56.4 58 59.5 60.9 61.5 61.9 62.1 58.4 60.3 65.8 71.2 73.5 77.9 77.1 80 87.2 92.8 106.9 114.6 108.8 118.3 125.7 128 129.3 133.6 135.6 150.3 156.4 160.2 159.6 160.4 165.4 172.8 180.6 188.1 191.6 196.5 203.7 209.7 216.4 222.5 220.7 213.7 209 210.8 203.2 195.7 192.1 188.1 188.7 190.1 193.7 196.2 192 197.6 195.9 190.5 193 197.2 199.7 199.4 204.6 210.3 214.3 213.9 209.9 205 205 209.3 211.7 213.4 208.9 200.1 198 197 197.3 198.8 199.3 197.7 196.7 196.9 196.5 197.3 197.9 192.8 189.2 181.7 174.1 168.7 160.9 160 163.6 162.1 158.7 165 172.9 185.6 197.1 202 198.9 192.4 191.4 194 197.8 211.5 226.2 236.6 241.1 243.4 257.2 273 280.6 288.4 293.9 299.3 303.5 312.8 322.5 325 326.5 323.6 326.5 324.9 312.1 305.5 295.7 282.8 262.5 241.3 249.2 249 243.3 230 228.2 225.6 214 209 208.7 207.9 207.5 207.1 207.8 209.6 211.1 215.3 216 217.4 219.2 220.1 227.2 233 234.3
129.6 129.7 131.4 136.1 137.5 135.2 133.8 130.2 124.4 118.7 113.2 108.2 105.8 103.1 97.8 91.7 89.4 84.4 81.4 78.9 76.8 74.9 71.5 65.4 60.8 55.9 53.6 51.2 49.8 48.3 46.8 45.9 44.6 43 42.3 39.1 41.6 44 47.3 47.4 44.8 53.9 60.2 63.5 58.3 56 56.2 55.9 55.8 57.4 59.7 61.3 62.5 62.2 61.6 64.5 61.2 65.1 71.1 78.8 77.3 75.9 79.4 85.6 95 106 108.6 107.3 116.8 122.3 123.9 122.7 124.1 136.5 147.2 152.1 156.1 157.9 160.7 171.7 176.7 181.8 187 190.8 197.5 201.6 208.9 218.2 221.6 218.7 208.8 206.1 205.4 197.2 191.8 187.7 185.1 185.7 190.2 193.8 195.6 189.5 193.4 189 188 190.1 193.1 199.5 204.3 212.2 218.2 220 214.3 207.9 200.6 199.3 205.6 206.8 203.9 199.8 193.4 192.3 194.9 195.9 198.4 197.3 194.5 194 195.5 192.9 193.8 195.1 188.1 181 177.3 176.7 172.5 168.3 167 165.6 160.6 162.6 169.2 180.4 196.4 201.1 197.2 192.1 188 188.4 192.5 199 213.3 224.8 232.9 239.3 249.2 264 274.6 284.1 293.2 301.9 302.9 310.1 322.1 328.7 330.3 328.1 323.5 323.4 317.1 304.4 300 287.7 274.8 256.9 240.1 249.9 247.9 239.8 232 230.7 221.8 210.1 208.3 208.5 208.3 207.4 207 207.6 212.9 219.6 222 217.7 217.9 218.5 222.3 229 233.8 233.5
130.7 129.9 130.7 131.1 132.5 133 131.4 127.1 121.4 111.1 103 101.6 97.8 97.4 94.8 94.6 91.5 86.5 81.7 79.1 75.9 74.1 71.6 69.1 65 60.5 56.9 52.7 49.6 47.7 47.4 46.3 44.5 43.3 41.8 38 42.6 44.8 47 48.9 45.7 53.6 58.1 57.2 56.8 55.6 54.9 52.6 55.4 57.1 59.6 61.5 61.9 62.2 62.1 60.3 61.1 64.2 71.3 74.8 74.8 75.4 79 86.4 96.9 105.9 102.5 107.3 115.3 116.8 116.9 116.7 122.9 132.9 144.7 151.4 157.2 160 171.5 180.1 183 184.2 184.9 187.9 197.2 203 210.8 218.3 218 213.2 204.4 200.1 196.6 191.8 187.9 187.4 184.1 183.6 190.4 192.8 187.3 186.1 186.8 186.3 191 194.1 198.9 204.1 209.9 216.9 221.2 221.1 210.2 203.9 196.2 195.8 198.9 199 196.3 192.1 189 192.5 192.3 193.6 195.7 193.1 191.5 191.1 190.9 188.9 188.4 187.9 185.4 179.2 180.9 181.2 175.1 170.3 167 163 158.3 166.1 173.8 188 200.1 201.4 190.3 184.3 181.5 185.7 188.5 201.1 213.9 224.3 232.3 239.7 254.5 266.9 276.2 286.2 299.1 302.2 306.1 315.3 325 333.7 332 326.5 321.7 317.4 308.6 300.1 291.3 277.9 264.5 248.1 243.5 250.2 247 238.9 231.4 230 221.6 210.6 207.4 207.6 207.2 206.7 206.9 209.2 217.3 223.6 222.7 216.6 218.3 219.2 223.9 230.4 232.7 231.4
132 133.9 135 130.1 131.2 129.4 127.3 126.6 113.2 112.9 112 109.2 105.9 101.1 98.8 96.7 92.3 86.7 79.9 75.8 71.9 70.2 69.8 69.2 66.4 62.5 56.9 51.5 49.6 48 49.7 53.5 44.7 42.4 38.5 42.7 44.3 45.3 45 45.9 46.4 53.4 57.2 57 54.3 49.2 48.8 49.1 52.6 56 60.3 72.2 69.7 64.4 61.9 61.7 66.6 68.1 73 74 73.5 72.9 78.2 84.4 96 101.4 100.6 106.5 112.3 111 116.1 121.3 126.7 137.4 145.9 153.7 159.8 166.9 175.7 184.6 188.8 187.3 187 191.1 197.9 204.6 210.1 216.2 213.8 206.6 202.6 201 195.3 190 185.1 183.7 181 185.8 195.3 190.6 182.8 183.2 182.9 187.5 191.5 196.8 201.5 204.9 213.6 220.1 222.4 218.6 208 197.9 191.2 188.6 192.7 192.8 190.4 187.2 188.8 190.2 189.8 190.2 190.9 188.7 188.8 188.9 188.9 189.4 184.1 183.7 181.8 178.8 183.1 178.9 172.6 167 163.7 158.3 160.9 166.3 177.9 192.4 199.9 193.4 182.2 178.2 180.3 184.3 190.5 200 213.4 223.5 230.7 243.3 259.6 267.9 280.9 293.2 305.1 305.8 311.3 317.7 328.9 332.5 331 321.8 315.8 313.6 304.9 294.5 283.5 270.4 256.8 241.4 247.3 249.7 241.6 233.6 232.1 224 219.8 210.1 209.3 206.4 206.1 206.4 206.6 211.2 221.8 225.7 220.6 216.6 218.3 220.2 224.8 229.2 230 227.1
136.6 136.8 138.2 133.7 130.8 127.7 125.3 119.2 124.5 126.2 123 120 115.1 105.1 101.3 97.9 92.2 87.2 81.5 74.9 71.6 68.2 66.8 64.6 65.5 62.2 57 49.7 48.5 51.6 55 46.7 43 40.8 37.8 43.2 45.5 47.8 45.7 44 45 50.3 54.8 55 51.2 48.5 48.3 49.6 51.1 56.6 67.2 77.6 72.4 63.3 62.8 62.8 63.8 72.1 76.5 74.9 72.9 72.5 76.2 84.9 96.2 96 98.9 104.6 106.5 113.5 117.5 122.6 133.5 139.9 147 155 162.2 170.6 182.9 187.9 191.2 186.2 189.2 193.1 198 202.4 208.1 213.2 208.5 201.8 202.5 196.2 191.7 190 185.7 181.7 179 191.1 191.6 182.8 185 179 183 186.8 192 198.3 203.8 209 216.7 214.8 210.1 208.3 200.5 190.2 187.4 184.6 186.6 186.5 185.3 186.7 186 185.3 186.8 186.1 185.4 185.2 186.3 187.2 188.5 186.3 182.2 180.1 175.9 180.8 178.1 171.7 163.9 161.6 159.6 156.4 161 165.7 181.4 192.3 193.8 183.7 175.5 175.8 177.5 182.3 199.4 207.4 215.5 224.6 235.2 249.1 260.3 273.2 285.6 300.7 307.4 308.2 311.2 323.5 328.5 330 326.8 318.4 310.5 308.1 299.8 289.4 276 261.8 248.1 243.8 248.3 242.3 235 237.8 229.2 221.5 219.5 210.8 210.9 206.7 205.8 206.2 206.3 220.8 228 225.6 216.6 214.9 218.2 219.8 224.1 226.2 226.4 222.3
138.4 138.4 139.9 137.5 135.5 130.4 128 129.1 123.3 124.6 124.4 121 117.2 107.2 103.2 98.4 92.6 88.4 83.4 76.2 72.1 69.1 66 63.2 62.8 61 57.1 51.1 50.4 52.9 54.1 48.2 42.9 37.8 41.8 42.9 44 45.7 45.9 43.4 45.1 49.5 52.5 51.5 49.1 48.5 48 50.3 52.3 56.1 73.7 80.8 74.1 63.2 63.5 63.4 64.4 69.1 76.2 75.6 71.5 71 75.6 84.4 92.6 93.7 99.6 103.3 110.9 115 118.9 128.6 136.3 143.4 151.9 157.8 165 175.5 185.6 189.6 186.7 184.4 187.4 193.4 198.2 203.6 208.6 207.3 203.3 200.9 199.3 194.6 196.4 190.6 185.2 181.2 180.2 191 184.3 179.9 183.3 179.3 181.9 185.9 191.8 202.3 207.3 212.6 214.3 209.8 205.1 200.9 192.5 185.2 180.2 179.8 181.6 181.6 185.1 187.5 185.3 184.9 184.9 186.3 184.3 184.4 184.5 186 185.4 184.4 179.9 174.6 171.5 175.9 171.1 161.3 160.4 159.7 156.4 155.4 159.9 166 178.3 186.3 187.1 176 170.6 175.9 182.3 190.3 202.2 210.3 217.5 226.2 237.3 252.3 264.1 276.6 289.8 301.9 306.1 308.9 314.6 324.5 327.8 325.2 319.1 307.7 304.5 299.8 289.3 277.6 267.6 256.3 242.9 244.1 242.1 235.6 242.2 234.9 227 223.1 216.8 211.9 210.2 206.9 205.4 206.2 211.2 229.5 227.6 219.9 212.8 214.8 218.6 222.2 226.1 224.9 222.8 218.3
141 141.3 140.8 138.4 136.5 130.5 131.3 125.9 123.6 121.9 122.5 120.9 118.5 108.3 104.2 100.5 95.7 90.4 85 77.9 71.2 67.2 63.7 61.4 61.6 59.7 56.2 53.1 50.3 51.8 51 46.9 42.8 37.6 41.5 42.9 43 43.6 44.4 44.7 45.3 49 50.1 48.2 48.8 51.3 51.7 52.2 52.8 61.2 76.4 82.6 75.7 64.8 63.8 63.7 65.8 70 74.5 75.7 68.7 70 76.3 84.3 88.7 94.5 101.5 102.7 112.1 116.9 124.2 131.9 140 148 154.9 160 166.8 178.8 186.8 190.7 184.7 182.6 184.8 192.4 201 206.2 207.4 202.3 199.4 198.2 197.4 201.4 201.7 195.7 188.3 182.2 179.1 187.4 178.1 177 180 175.7 181.3 186.3 193.9 205.1 210.7 215.2 211.8 206.8 201.6 196.2 191 187.1 181.2 176.8 179.2 183.8 187 188.9 187.1 186.1 183.9 183.8 184.4 183.4 182.2 185.1 182.7 181 176.7 169.2 168.5 166.9 163.1 159.8 158.9 155.7 154.6 154.6 158.4 164.8 175.6 179.2 177.2 168.4 170.6 176.1 183.6 192.6 203.2 213.2 221.3 230.3 244.1 257.6 267.7 278.2 292.3 299.8 305.2 311.6 314.2 322.1 322.4 317.5 310.6 302.8 299.5 293.4 283.1 270.1 260.1 249 238.1 241.6 235.7 241.1 239.7 229.5 226.3 226.9 221.4 213.7 210 207.1 204.9 206.1 221.4 227 220.7 211.4 212.4 216.6 223.9 227.2 224.2 221.7 219.4 213.5
142.5 143.3 143.4 139.8 135.6 133 129.7 127.6 122.8 120.9 122.1 121.6 118.6 108.4 104.7 101.7 97.9 92.7 87 80.5 74.5 70.6 63.9 61 60.7 59.1 56 51.9 49.9 49.3 49.3 46.1 41.9 41.5 41.4 42.5 43.3 44 44.1 44.6 46.3 49.1 49.2 47.6 48.2 50.2 51.8 52.8 54.3 66.9 79.4 83.5 73.9 67.3 65.2 64.4 66.9 71.1 75.8 74.6 67.4 71.5 76.7 82.7 88.1 95 102.6 102.3 111.6 118.3 127.1 134.8 142.5 149.4 154.7 161.9 166.7 177.8 184.3 186.1 180.8 178.3 183.1 193.7 203.7 207 202.4 197 194.5 195.4 200.7 205.5 203.8 197.5 193.8 188.1 174.7 177.1 174.2 178.1 179.1 173.6 179.4 184.4 197 205.9 210.7 214.1 209.5 204.1 198.2 192.6 188.8 186.1 181.6 177 179.8 181.9 186.3 189.8 188.5 187 186.9 187.3 187.8 185.7 179 182.1 179.8 177.4 170.6 167.2 163.7 160 156.7 158.3 158.9 157 153.2 154.3 159.2 166.3 171.5 170.1 169 163.8 171.1 180.3 187.3 199 210.4 218.2 224.5 231.1 241.6 258 268 280.8 291.1 299.1 303.2 306.3 313.6 315.5 316.5 314.2 305.2 298.1 294.9 286.5 279.5 267.9 253.5 239.9 237 237.3 237.8 241.5 234.5 228.2 232.7 232 222.8 213.8 207.8 206.1 204.2 213.8 223.4 219.7 210.8 211.5 217.9 226.6 229.4 227.4 221.9 218.4 216.4 212.7
143.3 144.6 145.7 143.2 140.4 135.2 129.1 129.3 123.4 120.9 120 120.7 116.8 106.7 103.4 101.2 98.2 94.7 88.8 81 75.6 71 68.4 63.6 60.7 59.1 56 50.8 48.7 49.6 50 47.1 43.4 37.4 40.5 41.9 42.7 42.8 42.6 43.2 48.3 49.1 47.8 46.8 47.2 48.3 50 50.5 55.3 72.2 83.7 83.4 69.6 68.1 66.3 65.4 67.2 70.2 71.7 71.1 69.5 71.3 75.6 81.5 89.9 96 102.2 104 111.4 120.5 129.1 136.4 143.9 147.8 158.1 165.6 171.1 177.5 183.1 182 174.7 170.6 182.4 194.2 203.4 202.2 195.2 191.1 190.9 194.7 204.3 206.9 205.1 198.5 195.8 192 180 171.9 173 175.7 175.4 171.6 172.5 181.5 193.2 208 215.2 212.9 206.4 200.9 194.9 188.9 186.1 183.7 180.5 175.9 179.3 181.5 186.3 188.4 188.1 188.9 189.1 191.7 192.9 187.7 179.3 174.8 173.9 170.5 166.4 165 165.5 161.9 156.4 156.2 154.7 153.5 152.3 156.4 158.9 161.9 162.5 162.5 162.3 162.1 174.4 182.6 195.5 214.5 223.8 224 226.4 238 251.2 261.5 272.6 282.5 289.5 295.3 300.3 306.1 310.6 310.6 307.9 301.4 296.5 292.7 287.3 283.3 272.2 265.5 245 235.9 235.7 233.5 244 241.2 234.7 234.7 235.2 227.3 220.2 209.5 206 204.4 204.9 216.5 219.9 212.3 210.8 214.6 229.2 234 232.9 225.3 217 214.3 211.7 211.7
144.5 145.5 146.9 144.1 141.2 137.6 134 130.2 122.9 119.1 118.1 119 111.2 105.6 102.5 100.1 97.5 94.2 90.1 83.1 76.1 70.4 65.6 66.2 61.4 59.1 54.9 52 49.2 50.8 50.6 46.8 43.3 37.5 38.7 40.4 41.8 42.4 42.4 42.4 45.4 47.4 47 46.8 47.2 47.6 49.2 51.3 59.3 78.7 87.1 82.3 71.1 67.8 66.7 65.7 66.3 69.4 71.3 67.9 67.8 70.2 73.8 80.3 89.9 99.5 103.4 105.5 112 121.1 128.2 137.5 149 151.5 159.8 166 172.1 178.7 181.9 177.2 170.5 168.3 179.5 190.9 199.1 197.4 189.9 189.3 192.8 201.1 206.2 205.1 202.8 195.9 191.6 185 174.4 169.9 170.8 173 174 168.6 170 177.2 193.4 204.8 210 210.7 202.2 196.3 190.6 185.2 183.1 181 178.6 175.2 178.8 181.8 183 188.1 190 190.8 194 198.4 196.3 186.2 177.4 169.5 168.7 167.3 164.7 166.4 173.2 168.1 154.4 153.1 151.9 151.6 151.7 151.9 154.3 156.5 153.8 155.8 157.6 166.2 179.8 191.3 209.2 222.5 228.2 225.2 232.1 246.6 260 267 274.7 282 290.4 296.5 301.7 305.8 307.4 305.8 300.5 294.4 293.9 288.2 284 279.8 271.2 258.4 234.9 231.1 233.1 240.6 241.4 237 234.5 236.5 234.6 225.6 215.2 210.7 204.3 203 208.2 214.6 212.6 211.2 215.6 225 235.2 235.8 231.7 222.6 213.7 210.3 208.1 209.6
144.5 146.7 147.1 145.2 142.3 138.4 134.5 127.5 122.6 117.7 115.1 110.8 107.5 103.8 100.8 98.1 95 92.7 88.7 84.1 76.8 69.1 65.5 63.8 62.1 58.6 53.9 52.5 49.6 49.6 48.4 45.2 43 40.9 37.7 36.9 41.7 42.1 42.5 42.9 44.5 45.3 45.9 46.8 47.1 47.7 50.4 53.8 64.7 81.6 87.4 80.5 71.3 68.2 66.4 65.3 66.7 68.7 69.8 67.2 65.8 70 73.6 83.3 93 100.8 98.5 108.7 111.9 119.4 128 141.8 143.8 152.2 158.4 165.7 174.6 179.7 176.5 171.5 166.4 166.1 177.4 187.5 194.4 191.4 187.9 188.2 196.5 202.4 202.6 199.4 196.2 189.3 183.6 177 167.6 168.2 168.7 172.1 174 165.4 167.4 174.1 187.5 196.2 202.4 203 197.2 191.5 185.8 181.4 179.2 177.8 175 174 176.3 180.4 183.8 191.1 193.5 193.7 197.9 199.9 196.5 185.4 174.6 166.9 166.1 163.3 163.7 169.3 174 167.6 153.2 151.6 151.4 151 150.8 150.5 150.7 150.4 151.6 153.6 159.4 172.3 183.6 203 216.5 226.7 228.4 225.8 240.5 259.1 267 271.3 275.2 283.8 295.5 300 305.8 308.6 306.8 302.1 296.3 291.2 287.9 286.3 281.2 272.3 262.9 250.4 231.8 229.7 232.2 236.7 234.7 231 230.5 234.4 231 218.3 208.8 205.9 202.4 205 210.9 210.2 203.7 212.3 218.6 224.6 232.7 234.1 226.2 218.9 208.5 206.8 206.6 212.1
145.6 147.6 147.1 145 142.3 138.8 134.9 126.1 121.8 116.7 114.6 108.2 104.8 102.2 98.3 95.2 92.7 88.4 85 81.9 77.3 69.9 65.7 62.9 62.1 58 55.7 53.5 50.7 47.8 45.2 45.5 43.7 43.2 42.1 38.7 36.3 41.6 42.4 41.9 43.3 45.2 44 42.9 45.7 47.8 49.9 54.9 68.6 82.6 86.1 75.8 68.9 66.1 64.8 64.5 66.7 68.5 68.7 64.5 64.9 69.2 76.2 89.5 97.3 99 97.2 102 112.7 119.8 131.1 140.8 138.8 147.6 153.4 158.2 166.2 173.7 170.7 165.6 162.6 167 173.4 183 188.9 187.3 186.7 190 197.3 200 191.5 193.2 186.5 180.9 174.2 167.8 166.4 166.9 167.3 176 171.9 161.2 163.6 169.5 177.5 184.4 194.8 198 193.9 188.5 181.3 178.1 175.6 174.4 169.1 172.4 177.8 182.7 188.2 191.2 193.3 196.3 200.7 199.5 194.4 181.1 171.3 162.8 161.9 162.2 164.4 170.7 175 166.9 151.9 151.1 150.7 150.6 150.5 151.1 150.1 150 151 152 165.2 175.6 193 213.1 226.1 230.8 226.5 229.1 244.8 260.6 270.8 274.4 278.5 285.9 294.1 301.6 308.3 308.5 304.9 300 294.9 287.5 284.1 280.4 274.4 267.8 256.9 244.4 227.6 230.7 230.5 226 224.8 222.6 223.6 227.8 218 208.7 205.5 201.9 201.8 206 205.8 201.9 205.2 212.5 221.8 233.3 233.1 228.9 223 211.9 206.2 204.5 206 214.8
146 146.7 146.8 144.6 142.2 139.8 135.8 128.7 122.3 115.3 113.2 108.6 101.3 97 92.3 91.5 89.7 86.1 81.8 78.7 78.5 74.2 69.1 61.8 60.8 60.2 57.2 54.6 50.2 44.9 43.8 45 43.3 44 43.2 40.3 37 41.7 42.2 41.8 41.6 45.2 42.1 43 48.1 48.7 50.9 58.9 72.9 83.9 84.2 74.1 67.8 66.2 64.1 63.4 65.9 67.9 68.3 68.8 64.7 70.2 80.9 95.6 99.1 95.5 99.6 97.5 109.5 120.1 129.5 131.3 131.8 139.8 141.9 144.5 150.1 160.7 163.6 157.7 160.7 166.4 172.2 181.4 185.9 185.8 184.6 189.9 195.5 195.1 183.3 181.3 175.6 170.9 164.6 164.7 165.1 165.8 174 178.1 163.7 155.2 156.8 165.8 169.7 176.1 185.6 191 188.1 180.9 175.9 174 171.6 168.1 168.2 172.1 179.1 185.5 188.1 190.5 193.3 199.7 203 197.7 189.6 174.9 169.4 160.6 160.1 160.5 164.3 173 174.2 165.7 159.3 158.7 161.9 151.5 149.8 150 150.3 149.8 150 157.7 169.5 184.4 205.8 223.1 231.6 227.9 223.8 235.4 251.6 263.4 273.9 276.1 281.1 288.9 297.3 305.6 308.3 308.9 305.2 301.7 295.3 288.6 283.7 279.2 273.6 264.5 249.9 232.5 227 229.6 216.7 212.9 214 213.4 211.5 213.8 206.2 200.5 201.8 201.9 201.9 201.8 201.9 201.9 206.7 216 231.1 233.8 229.5 224.5 215.4 207.1 204.6 204.4 208.2 217.4
145 147.6 146.9 144.8 142.6 139.1 136.6 126.7 123.8 116 112.2 107.6 103.4 97.5 90.8 86.7 85.7 83.4 79.1 75.4 72.4 72.6 68.8 63.8 59.5 58 57.2 54.5 50.4 44.7 43.5 43.8 44.1 43.6 42.9 40.4 36.6 41.6 42 41.8 41.6 44.7 43.6 45.3 48 49.1 53 60.2 71.6 79.3 78.5 71.3 68.5 66.5 63.8 62.7 64.4 66.8 65.3 63.7 68.9 73 86.5 96.7 98.5 92.4 93.3 92.3 108.6 118.2 121.5 122.1 124 128.2 128.3 131.2 138.2 150.5 157.2 156.1 159.8 166.2 173.9 180.6 185.5 185.6 186 186.7 191.1 190.5 176.3 172.5 164.4 163.4 162.9 163.3 164.1 169.3 180 172.1 158.3 152.1 155.1 158.9 160.3 170.2 178.9 184.8 182.5 173.3 168.4 168.3 163.2 163.8 167.4 172.4 180.6 184.7 187.3 190 195.4 203.4 202.8 196.4 183.2 170.3 169.1 160.8 159.7 160.3 167.4 172.8 176.8 170.3 165.4 168.1 164.8 153.3 149.7 149.5 150.9 150 157.3 168.3 178.6 195.3 216.1 228 229.1 222.6 225.4 239.1 253.7 268 274.1 278.1 284.1 293.7 303.3 308.5 309.7 308.3 305.1 302.4 295.5 289.8 285.1 277.7 272.1 262 248.9 231.3 228.4 220.5 207.1 205.4 204.9 203.8 203.9 201.9 202.1 201.9 201.9 201.9 201.9 201.9 201.9 201.9 209.4 219.8 232.4 231.5 225.4 216.7 210.4 205.9 204.5 206.4 211.5 217.7
143 146.8 146.2 145.2 142.6 139.4 135 125.9 122.4 115.3 110.4 104.2 102.1 98.4 95.2 91.7 87.3 80.6 76.8 75.6 71.1 66.7 66 64.1 60.5 58.2 56.3 53.4 50 45.8 43.2 42.9 42.6 43.1 42.5 39.7 38.6 41.1 41.8 41.8 41.4 44.2 44.2 45.9 48 50.1 53.6 61.9 71.7 77.4 75 69.1 67.4 65.3 62.7 62.1 64.3 64.8 63.2 70 74.9 79.6 90 98.4 97.9 91.6 88.4 90.7 104.9 109.9 110 114.7 114 116.9 120.3 125.7 135.2 145.5 152.1 153.5 160.7 166.4 173.1 181.3 186.2 186.9 183.1 180.5 184.4 180 171.1 165.2 161.9 161.7 162.3 164.5 169 178.7 177 166.2 154.1 149.3 152.5 152.9 152.8 162.2 173.7 178.8 176.2 169.8 167.8 160.6 160.6 161.2 166.2 174.3 180.5 184.9 188.2 193.1 199 204.3 199.4 192.5 176.6 166.1 162.9 160 161.3 165.3 169.1 172.5 175.4 174.8 172 170.4 165.6 155.9 149.2 149.3 152.7 161.9 169.4 172.5 186.7 203.7 221.1 227.4 223.6 221.1 228.6 243.9 254.8 267.8 274.7 279.6 288.7 299.6 307.2 309 308.8 306.7 304.6 302.1 296.6 290.9 285.8 278.6 270.9 257.5 243.9 230.8 229.3 214.8 206.7 203.1 201.9 201.9 201.9 201.9 201.9 201.9 201.9 201.9 201.9 201.9 201.9 203.3 209.6 219.4 226.5 220.6 214.1 211.2 208 205.7 204.5 206.8 210.7 214.6
142.1 146.9 147 143.3 141.1 137.6 132.3 124.9 120.4 114.4 108.7 103.1 101.2 97 93.6 92.7 88.8 83.6 79.5 76.6 72.8 68.2 64 61.1 59 57.8 55.2 52.4 50.2 46.1 43.3 43.2 43 42.9 41.1 36.4 40.5 41.6 40.7 40.7 41.1 42.2 44.1 45.2 46.7 49.6 53.1 62.8 71.5 76.9 74.6 69.6 67 63.6 62.1 62.6 63.7 63.5 65.3 71 76.5 82.6 90.3 97.2 101.1 98.4 87.8 90.9 99 103 101 108.2 107.3 114.7 118.3 125.5 134.9 144.3 151.7 156.1 162.2 170.3 175.4 183.2 186.4 182.4 178.3 176.8 176.7 176.6 167.6 160.2 161.4 165.6 172 175 177.6 180 171.6 160.5 147.5 148 150.4 151.3 147.8 152.8 168 172.4 170.1 168 164.5 158.9 158.7 159.6 168.1 175.1 179.9 184.9 189.3 193.6 198.2 201.7 195.8 187 170.9 161.6 159.1 159.5 165.9 166.1 165.7 170.2 172.4 173.8 172.3 169.5 165.3 154.4 151.8 158.5 164.4 168.2 170.7 176.7 190.1 210.4 222.1 223.5 220.6 225.5 235.7 248.1 259.1 268.7 275 284.5 294.2 300.2 305.7 306.5 305.6 304.2 304.4 302.9 297.1 290.6 285.5 276.7 265.2 252.5 240.7 231.8 228.7 212 204.7 202.6 201.9 201.9 201.9 201.9 201.9 201.9 201.9 201.9 201.9 201.9 201.9 201.2 209.3 215.6 216.2 214.6 215.7 214.6 211 205.4 203.5 207.6 209 208.8
142.7 143.6 145.4 143.6 140 134.8 130.5 124.8 118.3 112.5 105.5 101 99 97.6 94.4 89.8 85.7 82.6 78.9 75.9 71.7 66.9 64 61.1 58.6 57.2 55.8 54 51.4 46 43.8 43.7 42.8 43 41.7 36.1 40.2 41.8 41 40.4 41.7 42.1 44.3 45 46.9 50.7 54.7 60.8 69.9 74.9 73.9 70.8 66.8 61.6 60.8 61.7 63 60.9 65.5 71 78 85.2 92.2 98.7 104.3 93.4 86.7 90.6 92.1 95 99.8 105.3 110.5 114.5 121.8 130.3 141.5 149.4 154.5 158.5 164.3 172.6 178.1 186.3 182.7 178.9 173.3 171.7 171.8 174.4 163.9 162.1 170.4 178.5 179 176.8 176.9 174 166.4 155.5 144.1 147.5 148.4 148.6 142.8 148.6 161.9 167 166.9 163.8 157.6 157.2 157.6 160.2 166.8 173.5 179 184 188.8 193.6 199.2 198.8 191.9 175.4 164.4 157.7 158.8 165.5 166.8 162.8 162.4 168.4 168 168.9 169.6 165.9 160.8 149.2 158.2 164.5 173 170.8 171.7 182.1 200 214.4 219.9 220.7 220.7 228.7 240 250.6 260.8 269 276.5 287.9 296.3 300.4 301.9 302.6 303.3 303.9 304.3 302.3 294.7 290.2 282.6 273 261.9 251.2 240.2 231.4 223.8 212.7 209.1 205.3 204.9 201.1 201.9 201.9 201.9 201.9 201.9 201.9 201.9 201.9 201.9 201.9 205.7 211.2 214.9 218.9 220.3 219.6 215.9 206.9 203.3 207.9 210.5 207.2
142.7 142.5 145.2 143.3 139.3 132.7 128.2 124 116.2 111.2 105.3 99.6 98.7 98.6 95.9 85.9 80.2 77.6 75.2 72.5 69.2 66.4 63.3 60.7 58.1 56.7 55.4 54.2 51.7 45.1 43 41.5 42 43.3 41.5 36.2 40.6 42.1 42 42.5 42.2 42.3 44.9 45.9 49 52.4 55.7 59.8 68.5 72.9 72.8 69.9 65.4 60.9 61.2 62.2 62.1 61.8 64.3 71.1 78 87.1 93.7 100.8 106.2 90.8 87.3 89.4 91.9 97.8 102.7 106.8 111.4 117.8 126.3 136.9 146.7 152.4 158 163.2 167.5 174.6 180.8 183.4 185.1 178.3 164.6 165.7 166.7 169.3 159.1 168.7 174.6 181.1 179.2 175.3 173.2 168.5 161.4 148.4 142.2 143.2 145.9 142.2 139.7 148.3 160.1 162.6 161.3 157.4 155.3 155.8 156.8 160.8 163.7 169.4 175.2 180.7 186.4 195.2 198.3 194.2 183 166.5 159 155.9 162.5 168.3 161.7 159.8 162.1 162.8 162.7 164.8 165.2 161.2 156.8 149.5 160.8 168.5 170.2 169.1 175.5 188.1 205.4 214.2 216.3 218.9 224.9 234 242.5 250.9 260.6 268.3 276.3 283.9 293 297.1 297.8 300.6 304 305 303.3 299.9 295.4 288.6 281.4 273.9 261.2 250.5 236.3 228.5 227.4 214.5 212.5 207.7 206.2 201.9 201.9 201.9 201.9 201.9 201.9 201.9 201.9 201.9 201.9 201.9 203.2 210.8 216.5 221.2 224.2 223.7 216.1 209.9 202.5 207.3 206.9 210.7
143.4 139.3 143.9 141.8 137.5 130.7 125.6 123.4 114.3 109.4 103.1 99.4 98 99.9 95.7 83.6 77.5 74.8 72.4 70.2 67.9 65.6 63.4 59.9 57.1 55.8 54.4 53.1 50.6 45.8 42.9 40.5 39.6 41.5 38.7 36.4 40.6 41.9 41.9 42.8 43.6 45 45.2 49 51.8 54.1 56.3 60.7 67.5 70.9 70.8 68.8 62.9 61.1 60.9 60.7 61.3 60.4 61.9 69.8 78 88.1 97 105.8 100 86.2 87.4 92.8 94.7 98.7 103 108.7 113.9 123.5 136.1 144.3 149.9 155.8 162.3 163.7 169.8 176.5 183.6 189.2 190.2 182.6 169.9 161.3 164.5 163.6 161.7 169.9 176.9 179.9 176.4 171.9 171.2 165.9 155.5 147.3 140.4 141.3 143.7 140.1 139 150.7 156.1 155.8 154.1 156.2 154.8 154.8 154.3 154.2 158.1 163 169 174.8 180.9 189.2 190.8 184.9 172.6 156.9 156 159.2 167.3 164 153.8 155.7 157.7 156.3 156.9 161.1 160 155.5 147.3 157.8 166.5 172.5 166.9 170.1 178.5 192.7 206.8 210.2 214.9 212.4 225.7 234.5 241.2 251.3 261 268.4 276.9 285.4 290.5 292 296.3 301.9 304.6 304.5 302.3 298.7 294.8 287.6 279.7 267.2 255.2 245.3 229.2 227.7 225.8 224.9 217.2 209.9 207.7 203.9 205.6 201.9 201.9 201.9 201.9 201.9 201.9 201.9 201.9 201.9 201.9 211.1 218.5 224.8 227 221.8 214.5 208.4 201.9 204.7 206.8 215.1
140.9 139.2 141.8 139.4 135 128.4 123.5 121.2 112.1 106.7 99.4 97.5 97.5 98.5 92.5 81.7 76.8 74.5 72.2 69.5 67.1 65.2 63.9 60.3 56.5 54.5 53.2 51.5 48.9 46.1 42.8 41.9 40.2 41 38.1 36.8 40.4 42.3 42.2 41.8 43.2 46.4 45.3 51.3 52.4 53.6 57.1 61.7 66.4 69 69.4 67.1 63.4 60.2 59 59.8 60.1 59.7 59.8 64.8 77 91.4 102.3 103.2 93.4 86.1 88.8 92.4 97 100.3 107.6 113.9 121.1 133.4 141.4 148 154.5 160 166.4 164.2 172.9 180.6 189.7 192.7 191.5 181.3 173.2 163 161.6 159.3 160.5 168.2 177.9 177.3 173.3 170 169.9 162.8 149.9 142.4 138.9 138.8 140.8 139.7 141.8 150.9 152.7 152.9 160.8 163.1 159 155.8 156.5 156 154.9 154.4 160.4 168.3 174 181.1 182.7 174.1 161.3 152.8 155.8 161 162.7 155.9 147.9 144.2 143.8 147.3 150 153.4 153.4 148.4 152.6 164.2 170.4 171.1 164 169.1 181.6 195 202.2 205.8 209.4 212 226.4 236.5 242.7 251.9 261.9 270.5 278.3 284 285.2 290.1 296.1 301.7 304.6 306 304.7 298.7 293.8 282.9 275.6 264.8 252.8 237 228 226.2 226.8 224.8 222.3 214.6 209.2 213.6 208.1 201.9 201.9 201.9 201.9 201.9 201.9 201.9 201.9 201.9 201.9 208.6 216.9 223 225.1 219.3 211.6 204.6 201.9 204.2 207.9 217.7
140 139.2 138.8 136.5 132.5 126.4 122.2 118.4 110.4 103.6 97.8 94.6 97.1 100.7 92.3 79.2 76 73.5 71.9 69.2 66.9 65.7 63.8 61.7 58.4 55 53.1 50.7 47.7 45.4 43 42.6 41.8 42.8 39.2 36.7 40 41.8 42.4 41.7 41.8 44.8 45 51.1 53.5 53.6 55 59.9 65.1 68.2 68 65.6 61.1 58.8 58.7 58.9 58.8 58.6 59.3 62.4 77.1 92.6 103.3 94.7 96.2 89.2 93 96.2 100.4 106.7 111.6 115.8 127.2 137.8 143.2 150.1 157.4 166.2 169.1 169.4 174.8 184.1 191.4 193.6 191.4 183.2 173.7 161.9 157.8 154.5 157.8 166.7 171.7 173.2 167 166.5 163.8 157.5 145.9 141.5 138.2 139.2 140.5 135.7 142.2 145.1 152.9 164.6 168.6 167.7 159.8 156.7 158.9 161.4 161.8 155.8 152.7 158.9 169.1 175.1 174.5 163.8 153.2 149.5 154.5 158.4 157.6 153.8 150.1 144.2 142.5 142.4 143 144 144.8 146 149.5 157.3 163.2 164.2 164.8 170.5 179.9 190.4 197.4 202.3 205.3 214 230.1 239.6 246.4 254.4 264.9 271.9 277 277.3 281.6 287 293.5 300.2 304.3 305.2 304.8 298.1 287.2 276.7 265 256.8 245.2 230.4 226.3 228.6 227.6 225.3 221 219.8 218 216.7 205.5 201.9 201.9 201.9 201.9 201.9 201.9 201.9 201.9 201.9 201.9 202.6 208.7 213.1 213 207.7 202.4 201.9 201.9 204.5 209.3 211.9
140 138.6 138 133.9 129.7 124.7 121.7 115.5 108.7 99.3 94.9 92.9 96.9 100.2 90.9 77 74.7 73 70.9 69.2 66.9 64.6 63.3 62.7 60.2 57 53.7 50 46.8 44.4 43.1 42 42.3 43.6 39.1 37.8 40.2 41.1 41.3 40.7 41.2 42.1 47.3 50.9 53.1 52.9 54.7 58.9 63.5 65.6 66 63.5 60.1 59.3 58.4 58 58.9 59.6 59.4 63.9 76.9 91.8 98.3 85.7 96.1 92.9 96 98.9 105.9 112.2 116.5 123.6 132.8 140.8 146.9 153.5 165.6 174.3 172.4 173.3 178.2 185.3 190.4 193.5 191.7 185.8 172.2 164.4 156.7 153.2 156.6 161.7 165.8 165.6 161.8 164.4 161.5 154.8 149.9 143.4 141.4 142 135.7 134 144.1 152.9 162.4 169.9 169.8 165.6 157.4 160.2 164.4 170.6 168.2 158.2 150.7 155.9 160.5 165.4 167.2 156.1 147 147.8 154.1 156.3 153.7 149.7 144.5 142.9 142.6 142.6 142.3 143.2 145.7 146.4 147.8 150.7 155.3 157.8 161.7 170.3 180 189.8 191.7 193.8 202.9 215.9 233.2 247 257.7 262 267.6 268.3 268.9 272.9 278.6 285.1 296 302.2 301.3 300.1 291.7 284.2 277.7 270.1 260.1 250.7 236.2 226.5 226.9 228.6 227.3 222.6 219.6 218.7 219.3 212.3 201.9 201.9 201.9 201.9 201.9 201.9 201.9 201.9 201.9 201.9 201.9 201.9 201.9 201.9 201.9 201.9 201.9 201.9 201.9 205.3 210.7 213.4
140.1 138.7 136.5 132.7 126.9 123.4 120.2 112.2 106.1 97 91.8 90.5 97.3 93 86.4 76.2 73.7 71.8 70.3 68.2 65.8 63 61.6 61.4 59.4 56.9 53.8 50 45.6 43.4 43.8 44.2 43.2 42.4 38.9 37.1 40.1 40.8 40.7 39.7 39.6 42.8 47.7 51 52.7 52.5 52.7 56.5 60.2 62.3 63.6 61 58.5 59.4 61.3 58.3 58.8 59.8 61.7 67.6 77.4 86.6 88 83.6 95 95.9 99.1 102.7 108.8 115.4 122.8 129.5 135.8 142.5 154.1 166.1 171.8 175 173.1 175.9 180.5 186.6 191 194 192.7 186.7 172.8 168.5 160 151.9 156.5 155.2 159.9 159 157.9 164.4 158.4 151.8 150.4 145.7 143.7 147.1 133.7 132.8 144.5 155.8 168.7 171.4 168.9 159.1 157.4 164.4 170.6 174.9 170.1 158.4 148.5 153.4 156.7 159.7 159.2 150.2 144.8 148.3 154.7 156.1 156.8 155.7 153.6 149.5 143.2 142.7 143 143.4 144.3 146 147.8 150.1 153.5 159.5 163.8 169.2 179.2 184.1 189.4 200.6 213.6 220.3 236.5 250 254.8 255.7 258.7 259.5 262.2 270.7 278.9 285.5 294.2 296.9 289.4 286.2 282.8 281.2 267.6 260.1 250.7 236.2 226.6 224.2 227 227 224.1 219.6 218.6 216.8 214.8 203.8 201.9 201.9 201.9 201.9 201.9 201.9 201.9 201.9 201.9 201.9 201.9 201.9 201.9 201.9 201.9 201.9 201.9 201.9 201.3 205.8 209 211.7
140.8 137.5 135.6 132 126.5 121.8 118.9 109.5 104 93.9 89 87.1 95.6 91.1 82.3 74.5 70.7 69.4 67.9 65.7 63.4 60.4 58.8 57.5 54.6 53.4 51.6 48.7 44.2 42.7 43.1 44.3 43.7 42.9 39.1 35.8 39.4 41.4 40.7 39.4 40.1 44 48.5 50.3 51.4 51.5 51.3 53.3 56.6 59.9 62.1 59.2 57.3 57.4 61.4 58.2 58.9 60 62.3 68.5 78.3 81.7 75.5 84.4 94.7 98.6 102.7 107.1 113 116.7 126.7 134.1 141.8 155.6 165.3 170.9 173.3 173.6 170.8 177.7 181.4 191.8 193.6 192.5 189 182.3 174.7 172.9 163.2 155.1 146 145.9 151.6 151.8 160.6 162.2 155.1 150.7 150.9 147.8 147.2 142.7 131.9 133.2 146.4 161.9 171.6 173.3 165.9 157.9 161.6 172.1 179.8 175.4 167.2 158.8 147.5 150.1 152.9 154.1 151 142.8 143 149.7 152.8 151.9 154.5 152.3 148.7 147.5 143.9 142.7 143.4 143.8 144.4 146.4 148.9 151.7 154.6 158.5 165.7 169.6 173.8 181.5 190 196.7 210.7 223.3 235.3 243.1 247.5 249 251.2 252.8 262.2 269.4 275.7 282 287 290.3 283.1 282.9 278.2 268.5 260.8 250.7 244.5 230.5 223.2 223.6 224.4 223.3 219.6 218.2 215.9 213.4 206.6 201.9 201.9 201.9 201.9 201.9 201.9 201.9 201.9 201.9 201.9 201.9 201.9 201.9 201.9 201.9 201.9 201.9 201.9 202.9 206.7 207.4 209.4 214.2
139.8 135 134 130.1 127.1 120.7 117.1 105.5 99.8 89.5 85.4 81.9 83.4 82.5 72 68.7 68.1 67 64.6 61.5 58.6 55.9 54 52.5 49.5 48.2 47.3 44.8 42.6 41.9 42.3 42.3 41.2 40.6 39.8 35.8 40.7 42.9 41.4 39.9 41.9 47.3 49.6 50.8 51.1 50.9 51 52.1 54.4 59.2 60.5 57.8 56.6 58.6 59.1 58.5 60.1 61.7 64 69 73.3 76.8 86 93.1 94.1 104.5 106.3 111.8 114.7 123.6 131.8 139.6 146.9 156 166.6 171.4 171.5 170.8 173.2 177.1 183.7 193.1 193.9 189.9 186.2 181.2 176.2 171.8 163.9 157.9 148.3 134.1 144 152.9 164.6 160.1 154.6 150.8 149.4 149.6 142.9 132.3 130.2 134.8 149.7 166.7 173.6 172.6 163.1 161.2 168.9 178.7 176.5 171.4 164 156.6 147 148 148.6 148.5 144.9 142 145.3 149.7 149 151 151.2 151.2 149.5 147.9 145.2 144.4 143.5 143.8 145 150.7 156.4 156 156 158.9 166.2 172.8 178.2 184.6 192.1 198.6 210.3 221.3 231.9 237.3 241 242.3 244 251.2 258 264.1 269.9 277.1 282.6 285.9 281.5 279.3 274.4 263.3 258 247 235.6 222.1 221.1 221 218.4 216.9 213.3 209.4 208.3 203.4 201.9 201.9 201.9 201.9 201.9 201.9 201.9 201.9 201.9 201.9 201.9 201.9 201.9 201.9 201.9 201.9 201.9 201.9 202.4 205.3 208.1 210.3 209.9 212.9
138 134.4 131.4 127.2 124.4 117.7 111.9 103.5 96.2 87.6 80.9 77.1 76.2 71.7 66.4 63.8 64 63.4 61.7 57.7 55.4 52.9 50.2 48.1 47.1 45.4 42 39 39.1 39.7 40.4 37.8 37.3 39.7 38.6 35.7 40.9 43.4 44.6 41.4 45.8 49.2 50.2 51.5 50.8 51.1 50.9 51.3 52.8 57.4 58 57.1 56.2 56.5 57.5 58.6 65.7 64.5 66 68.7 73.3 82.7 90.2 98.2 94.1 106.3 110.4 115.4 119.3 127.6 135.9 143.1 151.5 164.6 171.4 170.5 169.7 166.9 173.9 176.1 181.4 190.5 193 187.7 183 179.8 174.9 168.9 164.1 155.9 143.8 130.6 138.8 154.6 162.8 157.5 155.5 153.2 150.3 144.3 135.3 128.7 129.2 136.6 154.4 169.3 173.8 173.1 165.1 165.3 170.5 174.9 171.2 168.3 164.1 154.8 145.5 144 147.1 143.8 141.6 144.4 148.9 147.9 147.3 149.1 149 149.8 148.1 146.1 142.7 147.9 149.5 150 156.9 161 160.6 159.3 160 164.7 164 173.4 179.7 188.3 193.7 197.5 210.2 221.6 228.5 234 235 237.5 240.5 245.9 252.4 259.1 265.7 272.5 278.7 282.5 276.6 269.1 264.2 253 247.6 238.4 231.1 221 216.7 208.7 203.4 200.4 202.5 203 201.9 201.9 201.9 201.9 201.9 201.9 201.9 201.9 201.9 201.9 201.9 201.9 201.9 201.9 201.9 201.9 201.9 202.4 202.9 203.9 208 210.7 211.4 211.4 210.9 211.1
136.5 132.8 127.2 124.3 121.5 115.2 110.7 101.7 92.5 86.6 79.1 74.6 70.8 66.3 61.5 59.9 59.7 58.6 56.5 53.9 52.6 49.9 47.7 45 43.8 41.2 36.6 34.8 35 37.9 38.3 36.3 36.5 39.1 38.2 35.5 40.5 43.4 45 44.3 47.4 49.6 50.8 51.6 51 50.2 50.2 50.9 53.3 57.4 57.1 56.3 55.2 56.6 57.1 58.1 61.3 64.7 65.2 68.7 75.7 83.6 94.3 97.3 94 105.7 111.2 116.7 123.1 132.9 140.2 147.1 158.1 168.3 170.6 167.1 166.3 164.3 170.9 173.4 178.8 186.2 188.3 183.9 178.5 176 173.6 167.3 158.8 148.8 139.2 129.3 138.8 154.6 158.5 157.1 156.3 155.5 149.1 141.8 131.9 127.6 128.7 141.2 157.9 169.2 173.1 172.1 164.8 169.7 171.8 169.3 167.7 167.6 161.6 152 143.1 141.3 141.4 140.9 140.6 145.7 145.4 143.3 146 149.3 149.8 149.7 146.9 141.8 144 150.8 154.1 158.7 163.4 166.1 162.6 159.1 162.7 171.6 175.3 171.2 182.5 190.9 193.1 202.7 210.7 222.7 232.3 230.4 228.7 230.1 235.1 239.1 247 255.2 263 270.3 277.1 275.6 268.8 264.8 257.6 248.1 242.3 235.1 223 219.1 205 201.9 201.9 201.9 201.9 201.9 201.9 201.9 201.9 201.9 201.9 201.9 201.9 201.9 201.9 201.9 201.9 201.9 201.9 201.9 201.9 204.8 207.3 206.1 207 209.7 212.9 214.5 215.3 212.6 213.1 211.1
