ncols 200
nrows 82
xllcorner 320000
yllcorner 502200
cellsize 50
629.5 647.1 674 699.7 728.1 756.1 784.4 809.5 834.5 852.5 867.7 882.5 894.4 909.6 919.9 930 921.3 907.4 877.3 849.8 819.7 787.9 748.3 698.1 653.1 624.9 601.8 596.5 592.2 559.1 528.5 520.6 526.2 531.3 536.4 537.9 532.7 508.8 482.8 464.8 450.8 448.7 437 420.6 416.2 409.5 401.2 391.4 398.2 397.2 395.2 392.7 401.6 409.7 422.9 432.7 444.6 463.7 486.9 505.8 530.5 552.1 562.9 568.2 578.7 587.4 597.8 612.9 632.2 648.5 667.1 683.3 704.9 687.1 631.5 598.6 615.7 641.6 655.3 666.3 682.9 696.3 706.2 711 716.2 720.7 731.7 747.6 764.6 778.2 784.8 790.3 797.7 807.8 806 801.6 801 796.1 779.8 749.3 719.3 696.8 680.5 670.9 654.6 642.6 626.2 620.8 600.3 562.7 535.3 518.6 500.4 481.9 461.7 454.8 457.6 452.1 458.9 448.4 438.5 428.9 420.2 409 393.7 385.3 362.9 336.5 309.6 279.7 251.1 225.4 207.6 191.6 178.4 165.4 149.4 132.7 126.8 125.1 124 124.2 118.6 118.6 116.9 118.4 119.8 119.9 122.8 131.2 135.9 140.1 144.6 153.9 159.2 165.6 170.8 175.9 184 185.9 182.3 186 188 185.3 185.2 181.4 174.3 173.6 164 159.2 154.8 145.8 142.8 139.9 131.3 123.5 120.6 119.3 107 101.2 96.8 95.9 99.9 98.5 97.1 96.5 93.7 91.7 89.2 89 88.9 88.5 88.6 87.9 87.7 87.5 87 87.3 87.7 88.6
621.1 643.7 670.1 696.4 721.5 748.8 774.7 797.5 820.8 838.8 854.7 867.6 880.1 891.7 901 908.9 914.3 909.2 896.6 873 847.4 788.3 753 710.4 658.8 617.8 595.6 570.7 572.6 566.3 551.6 516.2 500.5 501.7 505.3 509.6 508.9 489.4 464.3 446.1 433.4 430.5 421.2 407.4 405.5 394.6 389.3 388.3 391.3 387.8 391.5 399.4 405.8 417.9 433.6 443.4 461.7 478.1 495.4 512.4 531.4 552 559.4 568.2 577.5 586.7 599.8 613.6 630.3 646.9 660.3 670.2 682.1 659.3 614.8 585.2 602.4 624.8 644.3 652.7 664.5 670.7 677.1 681 688.5 696 707.3 723 733.8 744.8 748.1 751.7 755.5 763 768.7 771.7 775.3 779.2 761.3 724.7 694.5 672.7 656.4 645.8 634.3 625.9 618 611.5 603.6 578.3 556.4 547 523.9 508 495.3 484.6 479.4 479.4 489.8 481.2 469.8 454.4 442.3 430.3 413.2 406.1 382.6 359.9 332.1 311 283 254.6 234.9 217.7 203.6 184.1 168.7 155.5 138.7 127 124.9 124.8 123.1 117.2 116.6 114.6 113.8 117.1 116.6 122 125.7 127.8 134.3 138.6 143.9 149.5 151.3 150.9 153.1 157.2 157.1 158.8 159.7 160.9 158.6 157.8 153.2 150.1 141.7 137.3 133.8 124.5 117.7 119.5 115.6 106.4 105.1 107 96.1 93.7 93.4 93.4 93.8 93.7 93.9 93.4 92.9 89.7 89.6 89.4 89.3 88.4 88.2 87.9 87.6 87.5 87.7 88.9 90.7 92.1
608.9 636.4 661.4 688.6 715.7 741.3 765.3 785.4 805.3 819.2 837.5 850.5 862.1 871.7 882.6 893.4 899.3 892.2 872.8 857.9 830.1 788.9 758.8 713.3 670.7 620.6 592.1 574.2 560.9 552.2 548.9 540.2 511.2 486.7 475 481.5 482.2 470.3 449.2 430.8 420.3 415.5 407.9 397.9 398.2 390.6 386.2 385.3 386.4 387.1 394.2 399.5 414 431.2 440.6 459.9 475.1 490 505.8 522.3 536.7 552 559.6 568.1 576.8 586.9 599.9 612.1 627.7 638.8 649.4 657.5 661.9 640.1 601.2 569.4 586.1 605.7 619.7 625.8 630.1 635.9 641.2 647.1 655.9 664.3 683.3 709.5 709.2 715.2 718.9 721.2 723.7 732.8 738.9 748.4 756.9 755.2 737 705.9 680.1 660 641.9 627.5 616.7 609.7 603.7 598 594.9 590.2 583.2 576.7 574.3 560.7 544.6 526 515.9 511.3 526.8 526.6 508.5 489.3 469 454.5 437.6 430.2 405.4 380.5 359.5 345.2 316.5 287.2 261.3 248.3 226.9 207.8 192.1 175.6 156.3 144.2 127.4 125.1 124 121 118.9 115.1 114.2 112.7 112.5 114.5 116.7 118.1 121.5 128.1 130.3 134 134.5 134.4 133.5 133.8 136.7 138.7 138.5 139.7 138.9 135.3 135.1 130.6 124.8 120.1 116.2 109.4 102.3 100.8 101.2 96.2 95.3 95 93.7 94.2 93.9 93.1 93.3 92.4 92 91.7 90.9 90 89.4 89.1 89.2 88.5 88.4 88.1 88 87.9 90.1 95.3 98.3 101.1
595.5 621.4 649.2 677.8 702.6 728 752.2 772.3 791.8 807.8 824.1 836.8 847.7 856.8 864.8 873.6 868.4 851.5 824 821.9 805.7 768.1 745 713.5 676.2 632 602.9 566.9 555.2 549.3 548 546.7 534.3 511.4 475.9 456.6 458.1 459.5 434.6 418.3 411 402.5 395.2 388.1 391.7 384.2 383.4 383.6 384.8 389.1 395.7 410.5 427.6 443.7 456.5 467.6 487 499.5 512.2 528.7 543.6 553.5 561.7 569.5 576.5 587 599.1 609.8 622.5 637.4 649.4 649.8 636.3 613.2 587.5 551.6 568.5 584.1 593 588.5 591.2 595.8 603 609 619.3 633.2 648.2 673.3 680.7 690.6 696.6 701.9 706.6 717.3 726.1 732.3 733.2 730 720.6 694.9 671.1 649.7 629.3 615.8 605.3 595.1 589.5 586.5 585.5 583.5 581.3 580.8 578.7 580.5 581.2 571 553.9 541.3 542.1 554.3 544.9 536.8 510.8 485.4 472 457.2 430 402.5 383.3 374.4 352 319.8 295.3 276.9 256 234.1 214 201.2 177 164.6 150.4 131.8 124.3 122.4 118.5 116.8 113.6 112.8 112.4 111.1 111.7 112.7 113.2 116.7 117.2 120.3 119.9 120.9 120.9 120.3 121.7 124.2 118.7 119.1 123.2 119.5 117.2 115.5 111.7 107.5 103.8 100.7 97 95.6 95.2 95.1 94.4 94.2 94.3 94 93.1 92.8 92.8 91.3 91 90.4 90.4 91 90 89.1 89.1 88.7 88.5 88.1 90 92.3 98 104.5 110.9 114
584.7 608.9 636.4 662.9 688 712.8 735.8 755.9 773.9 792.7 807 821.5 835.2 845.1 852.2 858.8 855.1 814.5 791.9 778.1 776.5 749.9 709.6 693.5 666.5 642.8 599.7 564.9 549.8 541.5 539.1 537.6 530.9 526.4 496.2 463.5 442.8 441.8 423.9 408.4 397.1 391.5 386.9 383 382.7 379.9 380.3 382.2 384.2 389 400.4 417.8 436.5 454 468.3 484.4 493.5 503.6 520.2 536.4 548.8 555.1 563.8 570 577.5 587.6 598 608.5 620.5 638.1 641.2 639.9 618.8 583.9 564.8 537.4 548.3 562.6 567 560.8 561 565.8 572.7 579.1 589.9 604.5 617.1 634.5 653.1 671.3 681.7 688.3 699.6 709.8 716.7 720.5 724.1 720.1 707.5 687.3 664.4 643.9 622.1 603.3 592.5 580.7 575.1 574.4 572.9 571 573 575.7 577.6 578.8 584.5 574.7 567.4 558 550.6 556.9 559.8 557.8 543.5 520.6 508.7 490.9 459.3 438.5 413.2 397.4 385.8 360.1 332.2 305.9 283.1 264.9 243.7 229 207.7 180.6 164.1 151 135.4 127.8 119.8 117.2 113.7 112 111.4 109.3 110.2 110.1 109.1 110.1 108.7 109.2 109.4 109 110.5 109.5 110.1 109.1 109.2 106.1 108.5 106.1 105.3 105.8 102.3 99.9 98.2 96.6 95.9 96.3 95.5 95.3 94.3 93.7 93.2 93.2 92.7 92.2 92.1 91.3 91.2 90.3 90.1 90.3 90 89.8 89.7 89.9 90.3 90.7 96.5 101.8 108.3 116.4 121 128.4
574.5 595.1 621.7 646.1 672.5 696.7 718.2 736.8 755 772.8 787.2 800.9 814.1 826.8 838.7 851.1 854.3 812.7 774.5 754.3 741.8 726 692 680.8 662.5 634.9 603.2 567.4 548.6 539.1 526.6 529.3 527.5 522.9 510.6 476.5 443.4 420.9 412.8 398.9 388.3 383.3 378.7 377.9 381.6 378.5 379.2 381.2 384 390.9 408.3 421.9 441.6 456.2 471.7 488.2 511.8 517.5 527.7 539.8 551.7 557.2 564.3 570.9 577.1 587.1 597.4 606.2 615.6 627.6 629 618.1 594.2 565.2 541.4 520.3 535 542.1 540.4 537 534.4 538.3 546.6 554.3 567.7 577.1 591.7 608.8 630 645.8 662.9 675.3 689.8 703.5 715.6 721 719.9 715.7 708.8 692.7 666.2 640.5 617.7 599.1 582.8 569.2 559.5 556.4 557.1 559 557.7 565.9 568.3 568.7 572.1 577.7 579.3 562.4 555 550.8 559.1 566.9 555.3 543.4 522.2 517.6 485.8 468.3 443.4 419.2 415.8 397.5 368.1 334.3 315.7 301.6 279.7 261.4 239.1 207.5 183 168 152.7 141.5 131.4 117.9 115.4 111.2 110.5 110 109.8 109 108.2 107.4 106.3 105.3 104.5 103.7 103.1 103.2 102.5 101.4 102.3 100.5 99.8 99 99.1 100.2 98.3 97.9 97.6 96.7 96.2 95.3 94.9 94.6 94.2 93.7 93.2 93.2 92.5 91.9 91.7 90.9 90.9 90.2 90.2 90 90.9 92.1 94.1 95.1 98.1 101.4 108 112.9 118.9 132.8 138.9 145.9
565.7 584.9 610.1 630.9 655.1 677.9 700.6 719.4 738.4 754.4 768.6 780.4 792.4 803.4 818.4 836 849.4 847.2 785.1 745.7 731.2 709.5 683.5 665.7 637.4 614.2 589.6 564.5 551.8 543.4 534.1 522.5 508.3 503.6 493.7 453.3 428.2 423.1 401.1 388.8 382.2 379.1 377 375.5 376.1 376.9 377.5 379.9 384.1 394.6 412.5 426.4 444 459.6 473.9 489.4 506.6 523.6 535.6 552.6 553.2 555.7 561.1 567.9 573.8 580 591.2 600 605.3 606.6 603.8 589.1 566.5 542.1 523.8 507.5 511.1 516.4 512.7 512.9 507.8 517.4 524.6 534.2 543.8 554.6 569.9 587.6 607.4 626.8 647.5 665.5 681.7 697.8 712.3 720.1 722.1 721.6 721 700.7 677.2 646.4 621 598.7 581.7 563.5 551.6 543 539.8 541 544.9 545.7 552.4 555.2 561.5 567.1 565.4 556.7 550.9 548.7 551.4 556.2 554.6 540.7 525.4 520.9 508.3 492.3 471.7 447.7 439 428.9 396.4 368.7 343 321 304.4 291 266.7 233.8 205.8 184 171.9 157 141.7 126.4 117.5 113.3 110.8 110 108.8 107.3 107.4 106.4 106 105.1 105.1 104.4 104.1 103.5 102.4 101.7 101.4 101 100.2 99.3 99.1 98.8 98.4 97.8 97.5 96.8 96.5 95.6 95 94.6 94.2 93.7 93.3 94.4 92.2 91.8 91.9 91.5 90.7 90.5 90.1 91.2 93.7 97.4 101.4 105.1 108.8 114 118.3 125.4 135.7 148.2 157.4 150.9
554.8 574.4 594.9 617.9 640.3 662.7 682.2 701.8 718.9 734.5 749.6 763 778.1 789.6 803 819.1 837.4 848.3 806.6 758.8 746.1 714.9 686.8 668.6 649.2 627.6 604.2 580 564.4 551.7 542.2 529.9 509.7 488.9 471.4 437.1 411.1 400 395.8 386.7 379.7 376 374.1 374.3 375.1 376.6 377.1 378.6 383.2 399.6 415.1 430.3 446 468.6 487.9 494.2 511.1 522.9 537.8 548.3 553.5 556.6 562.3 568.9 572.9 576.7 583.4 592.8 598.4 595.7 584.6 561.8 538.9 519.2 505.7 491.4 487.6 488.5 487.7 485.1 492.3 499.5 507.2 514.9 522.4 537.7 555.4 572.7 592.4 613 639.7 662.5 681.5 696.4 710.3 720.3 728.1 727 723.1 712.7 694.7 655.8 630.1 610.2 589 567.8 551 539.2 531.4 527 528.3 532.9 535.5 543.1 546.5 552.1 551.3 549 545.1 545.1 544.3 545.8 542.1 533 519.8 517.6 508.6 508.1 485.6 468.9 444.4 437.1 412.5 379.2 360.3 344.8 329.5 304.5 274.3 246.8 227.4 204.7 189 170.7 153.6 136.7 129.3 117.8 113.5 109.1 108.7 108.1 107.3 105.9 106.1 105.6 105.3 105 104.5 103.9 102.4 102.1 101.4 100.7 99.9 99.3 98.8 98.2 97.8 97.6 97.3 96.9 96.4 95.8 95 94.6 94.2 93.7 93.3 92.6 92.4 92.4 91.8 91.8 91.3 91.2 96.3 95.2 98.8 103.9 110.1 115.2 119.5 123.7 129.9 139.1 147.3 163.8 174.5 179.9
544.3 563.6 584.9 603.4 626.8 647.4 667.5 685 700.8 719.3 735 746.8 763.1 780.9 793.7 806.2 825.7 842.5 838.1 788.3 753.8 730.4 704.3 680 652.9 637.8 619.5 602.6 582.9 567.3 557.2 546.1 528.4 491.8 445.2 425.3 400.5 390.7 386.8 382.1 377 374.8 372.5 373.4 374.4 374.9 376.5 377.6 384.8 398.5 411.6 426.3 451.6 469.6 478.5 497 509.8 531.1 542.5 551.8 555 558.8 563 570.9 574.2 573.3 582 588.7 590 580.7 554.6 537.2 513 499.9 487.3 476 473.9 467.5 467.3 471.1 477.4 486.1 492.2 498.6 511.6 525.3 546.3 566.6 587.4 609.4 636.3 660 680.6 697.3 713.5 727.6 729.5 735.6 740.1 726.6 703.4 674.9 649 637 601.1 573.8 556 542.6 530.8 518.7 512.2 513.6 519.4 525.6 530.7 533.5 536.2 535.3 537.4 536.6 535.5 531.6 524.4 518.4 506.2 505.6 494.9 483.7 473.5 461.8 456.2 446 433.7 402.8 387.5 376.2 356.6 328.5 310.7 278 251.9 219.2 201.5 182.8 168.1 154.3 138.3 124.3 118.4 109.8 108 107.2 106.7 106.3 105.8 105.7 104.9 104.9 105 104 103.6 102.6 101.3 100.4 99.8 99.3 98.9 98.3 98.3 97.9 97.5 96.3 96 95.8 95.1 94.6 94.1 93.8 93.4 93 93.2 92.9 92 93.3 93.3 98.8 103.1 104.6 107.8 111.9 119.5 125.8 131.4 136.4 144.1 154.6 163.7 177 191.7 204.8
535.2 553.8 571.7 593.2 613.6 635.3 655.2 672.6 687.8 703.7 722.6 737.5 755.4 771.6 788.7 801.5 816.2 834.7 844.1 823.9 779.8 750.8 716.4 688.6 666.6 645.9 633.3 619.1 601.2 590.7 573.5 565.6 550.2 518.5 453.2 419.3 396.8 388.8 381.6 377.9 374.8 372.7 371.7 372.6 373.5 373.5 375.3 376.4 384.1 398.4 417.3 433.7 448.6 462 475.4 496.1 519.8 544.1 551.2 561.9 558.4 557.8 563.2 566.9 574.3 568 572.3 577.2 565.6 540.4 519.4 510.6 491.2 480.3 470.2 460.8 461.2 453.8 455.3 461.3 467.2 470.9 478.8 488.3 497.8 516.8 540.3 564.8 591.6 612 639.7 664.3 684.9 708.6 715.3 725.7 732 738.4 741.2 739.8 720.8 691.9 668.5 646.5 609.6 584.5 565.4 549.3 533.2 520.9 505.6 489.7 498.5 509.4 517.4 521.1 523.4 528 527 529.7 520.2 515.5 513.9 505.1 495.2 489.6 484 478.6 468.6 463.2 451 439.2 427.1 416.5 397.3 379.1 362.8 350.1 336.6 311.9 281.1 242.6 229.7 204.3 181.7 168 153.7 141 124.7 114.8 109.3 108.7 108.5 108.6 108.1 107.5 106.6 106.4 106.5 104.6 103.7 102.4 101.9 101.6 100.6 99.7 99.1 98.5 98.7 97.8 97.7 96.9 96.6 95.4 95.2 94.8 94.2 93.9 93.5 93.3 93.8 92.9 95.6 98.2 103.3 107.8 110.7 116 122.2 125.8 131 137 142.6 148.1 158.7 167.4 176.2 193.6 218.3 233.5
522.5 540.3 557.8 578.4 602.3 622.2 640.6 659.4 677.4 693.7 710.7 725.1 740.8 759.9 779.5 794.1 809 824.2 838.8 848.8 812 781.7 750.3 714.3 689.4 662.6 648.8 635 622.8 614.6 599.5 582.2 568.3 521.6 445.1 414.1 395.6 382.4 378.3 375.3 372.9 371.5 370.5 371.7 372.1 373 373.8 375.2 387.1 401.3 419.4 428 441 454.4 474.1 492 519.9 539.6 550.2 565.2 562.3 558 561.8 558.4 557.8 553.5 549.9 531.3 532.8 506 488.1 479.7 467.9 463 451.2 445.9 447.4 444.6 447.6 450.1 454.7 463.8 464 481.5 499 516.1 538.4 566.1 597.3 623.3 646.9 670.4 693.3 714.3 737.9 736 740.8 749.1 755.1 748 728.7 703.8 682.2 649.8 619.8 595.6 574.5 557.1 535.6 519.3 507.7 495.6 476.9 489.3 498.3 507.1 508.2 511.6 509 509.2 504.6 497.5 496.8 487.4 477.9 473.7 466 459.2 456.6 447 438.5 431.3 416.1 408.2 395.9 378.4 353.3 345.4 335.7 317.5 302 264.4 252.7 227.6 200.5 181.1 172.3 165.7 138.5 123.9 113.5 110 109.9 109.7 109.1 108.5 107.8 107.6 106.9 105.4 104.6 103.8 103.2 102.2 101.7 100.3 100 99.2 98.8 97.8 97.3 96.7 95.9 95.9 95.4 95.9 95.9 95.8 98.4 98.5 102.6 104 105.6 111.5 115.2 122.2 126.5 129.3 134.5 135.5 146.7 148.3 155.1 161.6 173.3 184.2 196.6 205.4 233.8 256.3
509.2 528.6 546.2 568.2 589 610.6 629.5 650.2 668.4 683.9 698.4 711.9 730.5 748.7 768.4 786.2 800.7 820.2 831.1 844 855 829.5 775.9 747.6 715.6 688.3 671.5 655.8 643.4 627.5 608 549.2 536.3 470.2 438.3 408.4 387 376.5 374.7 373 371.2 370.3 369.8 370.3 371.1 372.4 373.1 374 388 404.9 419.3 427.1 436.4 444 459.4 479.1 514.3 541 551 558.2 558 552.5 552 549 548.7 534.3 533.3 503.8 489.6 481.7 465.2 458.9 447.6 440.8 431.8 433.7 435.8 435 438 440.8 449.1 453.2 468.3 485 504.5 523.7 548 576.7 603.4 633.9 657.6 678.1 699.5 719.6 729.8 749.9 753.1 758.1 774.1 748.1 718.3 691.6 667.9 645.6 633.9 606.9 578.6 558.3 536.3 515.3 503.8 494.9 482 462.2 478.2 487 494 494 491.8 489.5 482.9 467.5 476.8 465.4 454.6 447.8 441.8 440.2 433.8 431.7 425.9 425 404.7 385.3 371.8 359.8 338.7 325.8 306 296.8 284.3 263.8 249.5 233.3 213.5 195.8 187.8 176.8 159.4 141.7 128.3 117 111.3 111.9 110.7 110.1 109.1 108 107.7 106.4 105.4 104.4 103.3 102.9 101.7 101.3 100.4 99.6 98.5 98 97.3 96.8 96.7 98.9 101.4 103.5 100.1 103.3 107 111.1 114.3 116.7 123.2 126.2 130.3 135.6 139.9 144 147.5 152 158.6 164.1 166.7 173.9 183.6 202.7 222.5 224.2 242.8 265.4
494.5 511.7 530.9 556.5 582.5 602.5 621.7 642.9 657.6 675 688.4 704.1 721.2 737.1 761 776 790.7 807.2 825.3 836.9 846.4 849.2 811.2 777.1 745.4 719.3 702.7 682.8 662.6 638.2 600.2 534.7 479.9 440.8 420.9 399.1 377 371.8 371.8 370.2 369.2 368.9 369.1 369.6 370.9 371.6 372.2 372.5 382.6 390.6 400.6 428 433.5 442.3 452 468.2 487.8 509 541.6 555.3 556.1 547.5 544.5 540.9 529.5 512.4 499.1 478.7 465.9 453.7 445.9 438.6 432.2 428.1 423.3 423.7 426.9 427.9 429 436 445.3 457 472.7 486.6 508.6 532 557.1 587.2 617.3 643.2 662.4 684.9 706.9 719 731.8 759.5 766.7 761.3 756.2 728.1 692.6 673 651.5 639.8 621 594.2 574.9 561.3 532.9 506.2 496 482.9 475.4 468 457.4 464.9 473.3 476.8 472.4 471.3 465.9 431.2 444 440.6 432.3 427.3 421.9 415.7 416.5 407.3 405.2 395.4 381 370.4 352.8 336 321.2 304.2 285.6 270.7 258 243.4 228.3 213.3 202.5 191.5 186.5 176.3 168.2 149.5 136 122.3 115.7 112.4 111.8 111.2 111.2 109.9 108.2 107 105.9 104.8 104.1 103 102.3 101.8 101 100 99.3 98.8 98.4 105 110.3 108.6 108.5 106.6 109.5 113 118.4 121.9 126.4 132 133.3 141.2 146.1 149.9 152.1 158 159.5 164.9 167.5 176.3 182.2 186 203.5 213.4 234.4 246.4 254.2 279.8
478.8 498 519.8 547.4 574.5 597.1 613.5 631.7 650.4 668.1 681.4 698.1 711.9 732.1 751.4 765.8 782.3 797.3 812.2 826.7 836.2 818.5 803.2 771.9 765.3 747.5 730.4 700.9 677.5 644.3 555.6 502.1 465.1 435.5 414.7 393.1 374.7 369.5 368.9 368.8 368.4 367.9 368.3 369.5 370.1 370.8 371.3 371.4 372.7 385.1 397.1 427.5 422.4 429.3 441.8 460.7 483.2 499.4 529 556 559.6 544.5 538.1 536.4 514.2 494.4 478.3 456.5 442.9 431.6 424.7 423.2 422.9 420.5 419.4 417.6 420.7 421.5 427.6 437 449 463.4 477.4 497.4 519.1 541.7 564.9 596.2 626.9 654 671.1 689.4 709.9 721.2 731.7 757.7 773.8 777.8 767.3 726.4 686.7 665.3 639.1 614.1 582.3 557.7 541.2 527.5 517.8 500.6 483.1 476.7 465.1 461.6 457.6 452.5 455.8 457.5 456.1 450.2 444.4 416.3 409.6 414.1 410.4 410.2 409.7 394.7 395.6 385 380.3 369.9 362.3 340.6 334.2 316.4 301.7 280.8 261.6 246.2 231.7 217.8 204.6 188.2 178.8 166.7 162.1 161.1 158.9 150.2 134.1 125.5 117.4 113.9 113.5 112.6 111.5 110.5 108.9 107.9 106.6 104.9 104.6 103.9 103.2 102.8 102.6 101.8 101 100.1 101.2 107.5 112.9 111.5 112.8 114.7 117.7 122.3 128.2 133.4 139.1 146.8 152.4 160.4 164.8 168.4 174.1 174.7 177.1 183.3 189.5 191.1 197.9 195.4 214.9 235 245.7 264.5 270.6 295.5
476.5 498.2 520.4 543.5 568.3 590.7 609.3 626.7 644.7 662.3 678 690.9 705.3 724.9 740.7 754.8 770.7 784.5 798.9 813 822.5 814.6 761.5 735.8 730.1 718.5 721.6 705.7 666.3 617.5 533.1 487.4 454.6 423.3 399 384.7 371.4 367.1 367.1 367.2 367.2 366.4 368.1 368.8 369.5 370 370.5 370.6 370.6 375.7 389.3 399.8 405.3 419.5 436.8 453.4 468.6 489.3 521.6 531.5 545.6 540.8 532.5 523.5 507.6 486.9 467.2 448.3 435.3 428.2 424.8 423 422.5 417.5 414.2 413.1 413.2 419.5 428 440.8 457.1 473.2 488.5 503.9 530 555.9 579.1 613.6 643.5 662.3 682.5 698.6 710.9 723.9 742.2 757.3 779.7 788.6 775 750.6 693.3 666.7 647.8 625.5 595.5 577 547.7 517.2 497.3 483 471.8 465.4 458.2 453.6 449.5 440.8 442.7 439.6 442.2 434.6 423.9 400.9 382.1 387.9 387.2 394 380.9 368.2 365.9 361.2 358.1 344.3 332.1 324.3 310.5 300.9 288.6 275.5 242.2 225.8 210 196.2 181.9 167 155.4 145.7 141.6 139.4 139.9 133.2 127.7 123 117.9 115.8 114.4 113.1 112.3 110.8 109.4 108.4 107.2 105.7 104.9 104.3 104.6 105.1 104.8 104.7 103.3 103.5 108.1 110.3 118.1 116.9 121.2 124.1 129.6 134 142 148.8 156.4 166.4 174.6 182.5 188.8 194.4 198.8 196.9 200 203.1 212 210.4 218.1 220.6 219.2 242.6 264.1 279.8 288.2 298.8
481.9 501.7 523.6 543.5 568.7 589.6 607.6 624.2 641.4 656 671.5 689.7 702.6 716.4 733.7 747.2 758.9 774 786.4 796 801.6 794.6 740.9 710.4 687.7 679.4 686.1 680.9 623.6 573.6 515.3 481.9 445.7 413.7 390.4 373.8 366.8 365.9 366.2 366.1 366 366.8 367.5 368.1 368.7 369.2 369.8 369.2 369.8 370.6 375 381.2 398.3 416.2 439.7 453 467 484.6 506.5 528.5 534.7 542.9 531.1 520.2 503.6 485.6 467.7 448.5 436.5 432.1 432.5 429.8 423 415 407.3 407.3 412.8 418.9 428.7 441.7 458.5 476.9 495 514.9 526 557.4 590.4 624.4 648 670 686.3 700.7 718.4 731.3 756 771.5 786.6 804.6 795.2 782.3 726.7 697 686.8 650.8 615.8 591.8 547.5 519.6 499.9 482.7 466.5 459.7 455 450.1 444.1 441.8 434.7 401.4 416.4 416.3 410.5 381.7 348.5 362.4 361.7 365.3 354.8 347.7 335.8 334.4 336.7 327 317.8 293.4 285.6 276.3 266.7 238.3 217.9 207.1 188.5 177.4 166.9 152.8 139.9 130.8 128.7 127.8 128.8 126.5 126.3 123.7 118.9 114.4 115.2 114.2 113.1 111.6 109.9 108.6 107.9 106.6 106.5 105.8 106.7 107.6 107.5 107.9 106.8 106.6 112.6 119.9 124.6 128.9 136.6 139.2 143.6 150 158.5 169.3 178.6 188.8 198 208.9 220.6 244.6 226.6 223.5 226.2 227.7 235.7 231.9 251 256.8 244.9 249.4 279.3 296.6 301.8 306.9
489.6 508.6 527.5 545.7 567.4 585.1 603.9 623.6 637.6 653.6 669.9 686.5 701.7 712.5 726.1 739.1 753.1 765.9 775.7 782.1 775.7 759.1 712.6 686.4 662.1 644.1 650.1 675.3 630.9 603.4 494 465 435 405.2 383.2 369.6 365.3 365.3 365.5 364.9 365.5 366.5 366.1 367 368.1 368.2 368.6 368.4 369.8 371.6 375 388.3 402 418 435.7 455.2 468.6 488.8 510.2 527.6 534.3 535.2 530.8 517 501.2 482.4 462 448.1 441.4 444.4 441.7 437.5 425.8 409.3 404.4 408.9 411.7 416.8 430 449.5 465.7 480 498.4 521.1 547.7 547.5 583.9 621.3 649.1 671.3 686.3 708.8 728.3 741.7 753.4 769.9 791.5 801.3 804.3 803.3 785.8 738.3 713 659.3 628.1 596.6 547.8 520.5 501.6 484.8 468.2 458.5 450.1 446.4 438.8 429.2 420.9 412.4 393.7 392.4 382.3 371.1 332.7 330.9 331 338.1 332.3 322.9 310.8 308.7 306.2 297.6 279.4 267.7 254.2 243.1 240 220.2 200.7 188.6 177.3 167.9 158.4 148.8 137.4 131.9 129.6 128 125.7 123.2 121.5 119.4 119 117.4 116.4 114.7 113.5 112.3 110.5 109.4 108.1 107.7 107 107.7 108.6 110 109.9 111.2 116.8 117.8 121.4 128.5 136.2 141.8 148.6 155.6 161.3 165.9 177.3 189 206.9 215.2 228.4 251.1 264.3 268.1 266.8 267.9 249.5 257.6 260.2 255 281.3 289.5 273.1 252.5 288.7 304.5 320.5 321.8
499.5 513.4 530.1 546.8 566.1 584.2 600.7 618.9 634.3 652.6 668.4 683.9 697.3 713.1 723.3 734.5 747.7 759.7 769 775.4 774.6 731 698.5 665.2 641.5 620.7 616.5 639.7 594.7 530.6 485.1 452.8 426.6 403.6 383.2 372.6 366.2 364.7 365 365.2 365.7 365 366.2 368.7 369.3 369.1 369.4 368.2 369.1 371.1 377.4 396.1 412.2 429.2 444 460.4 473.1 494.2 523.5 535.9 543 538.9 531.8 510.6 497.1 483.8 463.1 450.8 448.4 442.3 441 435.7 416.1 403.5 402.9 413.4 416.7 426.4 443.7 458 467 482 500.3 529.1 561.8 591 596.8 606.7 646.4 669.9 688 707.1 731.4 743.5 759.4 767.8 780.1 796.2 808.9 812.6 796.1 763.5 722.4 671.9 634.6 600.5 555.9 527 503.6 485.3 469.5 456.2 444.7 427.5 422.4 409.5 392.5 386 372 361.2 357.7 351 329.8 295.6 306.4 313.6 312.1 301.8 291.6 278.8 273.9 268.5 254.4 239.5 225.3 214.6 204.9 195.2 187.1 179.3 170.4 163.9 156 145 135.2 132.4 131 128.8 127 124.4 122 121.5 120.1 118.8 117 114.7 113.2 111.8 111.3 110.1 109.5 108.9 108.4 108.5 110.1 112.2 112.6 115.9 118 125.2 128.3 137.5 144 154.2 160.7 173.7 182.3 187.3 199.5 229.7 239.7 253.6 280.9 285.7 304.6 319.2 324.6 305.2 272 282.1 284.5 281.3 304.9 321.1 299.1 289.4 289.7 314.3 326.4 328.2
499.1 513.4 530.7 546.1 562.5 580.6 595.9 611.6 629.5 645.2 662.5 679.4 694.3 706.8 719.8 731.5 740.9 753.4 764.3 770.5 769.7 741 676.5 655.2 644.2 600.9 582.8 576.8 555.7 507.8 474.5 445.8 416.5 394 383.1 375.9 370.2 363.9 364.4 364.6 364.5 366.2 365.3 367.8 371 372.6 377.1 369.6 368.9 370 378.2 392.8 406.1 424.2 454.2 459.5 466.6 500.9 513.5 524.3 528 531.9 531.4 507 493.6 480 466.4 455.3 445.3 434.3 436.6 427.4 415 399.7 407.1 414 417 437 447.8 451.3 462 485.8 508.2 540 571 606.3 634.2 630.9 636.2 671.4 688 710.4 723.3 737.5 763.4 768.1 772.9 792.4 804.6 803.8 792.8 760.7 729.7 670.2 631.9 599.1 565.5 538.5 513.6 494.8 479.3 463.1 447 432 419.4 401.6 381.3 363.4 356.3 345.9 328.8 322.1 300.3 272.5 279.2 297.7 287 275.5 262.1 250.9 249.1 244 231 217.2 205.9 194.8 182.4 175.4 170.8 169.2 165.3 159.3 151.2 138.5 136 134.7 132.3 129.4 127 126.6 127 124 121.2 119.5 117.8 115.5 114.8 113.6 112.7 112.3 111.2 111 110.1 110.3 112.2 115.8 117.8 118.7 121.9 132.5 135.6 145.6 152.3 164.8 172.5 186.2 199.9 210.1 227.6 255.3 274.2 293.5 314.3 323.4 330.3 353.4 356.6 313.4 300.3 303.4 300.5 307.4 320.5 341 316.1 322.3 310 331.6 339.6 345.7
501.3 514.2 528.8 543.7 557.6 576.6 589.9 606.7 621.1 637.3 655.2 674.7 685.9 697.1 710.9 726.1 738.8 747.4 757.4 764.8 764.1 732.1 685 640 632.6 606.2 562.6 540 520.2 492.5 459.6 431.9 408.6 386.5 377.4 377.9 376.4 363.7 363.6 366.3 365.8 367 367.7 368.9 371.9 375.1 377.8 375.2 369.5 373.9 380.5 385.7 401.7 411 424.4 448.6 453.2 478.2 499.8 508.6 501.7 511.7 514.3 498.3 489.6 474.6 467.5 453.6 436.2 433.2 432.7 421.8 412 396.7 396.7 403.3 417.1 439.8 441.5 444 464 488.3 514.4 549.9 585 641.6 663.7 670.4 668.3 669.3 687.7 705.4 717.8 732.6 748.8 755.8 766.7 787.9 802.6 808.9 788.6 755.4 710.5 666.6 632.8 609.1 572.8 549.6 526.7 510.7 492.8 474.5 455.5 438 425.3 411.2 392.1 379.9 371.6 358.5 348.5 333.1 307.4 281.7 257.5 271.7 258.5 247.2 240.4 235.6 229.8 222.8 215.9 204 193.9 179.2 169.2 165.1 164.9 159.4 155.3 149.7 142.9 139.4 137.3 134.1 131.9 130.6 130 132.1 133.4 132.4 127.3 124.3 125.8 122 120.3 119.7 118.9 116.1 114.8 113.5 113.3 118.8 115.6 117.9 122.5 126.2 126.4 134.9 141.9 149.3 162 171.7 184.2 200.1 216.5 226.3 248.4 269 292.5 315.9 322.6 313.1 323.6 338.4 349 308.9 309.9 314.2 318.3 322.4 337.4 350.2 340.2 352.2 344 343.9 358.7 368.4
499.8 512.4 526.4 540.8 552.9 568.3 583.9 597.1 613 626.8 645.1 661.2 677 688.7 701.7 719.3 730.8 742.1 749.9 757.8 760.8 749.1 689.9 639.3 617.1 595.6 552.3 521.4 495.6 470.9 440.3 419.4 399.9 381.3 367.3 367.7 364.7 363.6 363.7 365.2 365.2 368.4 368.4 369.7 374.1 377.9 380.8 380.8 375.5 379.5 387.9 392 393.5 402.5 412 447.4 442.4 443.2 466.3 476.8 481.3 486.3 488.9 492.1 485.9 473.9 464.9 446.3 432.2 426.3 422 412.3 406.7 394.1 392.8 397.3 407.4 426.1 425.8 441.1 464.8 491 519.7 553.9 598.2 640.3 665.9 691.9 688.8 692.7 698.6 697 713.9 729.4 737.8 752.8 764.4 771.1 786.8 785.5 763.5 723.9 694 663.7 628.7 602.7 578.9 559.8 539.2 513.2 494.3 477.7 459 441.5 427 415 404.1 393.3 382.6 374.3 359.5 342.5 322.3 295.7 263.8 248.1 239.9 226.4 219.9 214.7 211.6 204.6 197.4 189.6 182.3 171.2 166.1 161.9 159.6 150.9 149.2 144.9 141.5 138.9 137.4 135.4 137.5 137.7 140.2 146 144.7 144.3 146.7 141.3 138.1 136.1 132.4 129.9 126.9 125.7 124.4 121.1 119.9 122.5 122.7 127.1 127.1 131.3 133.7 137.3 149.4 158 162.2 179.2 190.6 198.1 214.5 226.3 250.8 265.4 290 307 307.6 299.8 286.8 300.6 296.8 287.4 301.3 315.2 324.3 330.9 342.1 354.7 355.6 364.4 371 361.2 376.9 377.1
498.4 508.2 520.5 535.7 548.8 562.5 576.7 589.1 604.8 620.9 635.8 651.3 664.4 677.5 690.8 705.5 721.5 734.7 746 751.3 751.9 746 708.2 649.3 613.7 578 546.4 514.3 484.6 458.2 435.9 412 392.5 378.7 365.7 363.4 363.1 363.2 363.6 365.1 364.4 366.5 370.7 371.4 376.9 377.4 380.2 384.3 387.1 388.5 390 394.5 398.7 403.8 408.4 421 434.6 434.1 446.5 461.8 469.3 476.5 485.5 487.1 481.7 470.6 463.5 447.6 432.9 426.6 419.4 401.9 395.2 392.7 390.6 391 394.6 406.7 413.5 438.7 460.5 489.1 523.6 557.4 617.1 644 672.7 706.2 721.5 717.8 714.6 717 714.5 723.4 739.8 751.8 758.6 769.1 777.8 786.5 764.7 716 684.5 658.7 633.4 609.6 592.1 576.5 558.5 531.2 508.5 484.6 465.7 451 442.4 420.7 408.5 397.8 392.6 381 364 340.4 316.4 292.5 270 246 229.2 226.3 216.5 200.2 196.9 190.2 182.1 176.3 175.3 170.7 164.9 160.8 155.1 150.9 148.7 146.1 144.5 142.4 146.6 149.1 152.4 151.9 157.2 160.5 157.5 160.5 160.7 159.4 156.3 153.8 150.4 148.5 144.7 139.7 134.8 133.2 130.8 134.1 133.9 133.9 136.4 136.9 141.2 144.4 149.7 167.6 175 179.6 193.2 196.6 207.3 228.1 238.5 261.9 272.8 280 286.9 278.8 264.7 258.7 260.8 269.7 280.3 302.1 318.8 323.8 343 358.3 371 383.4 385.2 378.2 382.3 385.9
495.6 503.1 515.4 528.4 543.1 557 568.7 582.2 595.6 610.6 627.5 642.8 653.6 668.4 681.5 697 713.8 729.2 743.9 747.8 746.2 740.3 723.3 682.9 623.7 585.5 547.3 512.9 481.2 454 431.3 410.5 392.7 378.8 369.5 363 362.7 362.4 362.9 369.6 363.5 365.4 371.3 371.3 375.7 377.2 379.3 384.5 389.9 398.6 396.8 401.9 407.3 409.9 410.2 413.9 424.2 428.7 442.6 457.3 462.8 476.6 483 485.4 480.7 471.3 457 445.3 438.8 432.7 418.3 401.2 396.7 392.9 390.2 387 390.1 397.6 412.6 436.2 463.6 492.4 526.6 566.2 615.6 660.5 677.3 696.5 716.1 727.5 733 736.3 738.7 735.5 737.4 750.2 760.6 772.3 791.7 807.9 790.5 725.7 690.4 667.6 653.3 634.4 600.6 585.4 580.1 558.6 515 490.7 476.2 461.6 443 421.2 410.5 400.6 395.3 384.3 363.8 342.4 311.3 283.9 260.2 243.4 231 219.2 212.9 213.4 209.7 201 190.3 182 170.4 167.9 163.9 159.6 155.3 153.3 151.1 155.8 156.5 154.1 162.4 166.1 170.5 174 175.8 177.5 168.9 178.8 178 177.3 176.5 178.1 176.1 173.2 166.3 156.6 152.3 149 146.1 143.6 143.6 144.9 146.5 147.5 147.7 152 150.5 167.9 178.7 182.8 189.3 198 208.4 218.1 229.7 239.9 258.4 261.5 277.4 266.3 259.2 238.8 244.2 255.5 261.8 282.1 297.2 313.1 335.9 367.3 387.1 393.9 393.8 388.5 397.1 391
489.4 498.3 510.9 523.2 534.2 548.9 564 575.4 587.2 601.8 617.8 633.3 646 658.7 672.2 689.7 707.8 729.7 744.4 749.3 743.5 733.7 719.4 688.4 633.6 578.6 553.5 515.6 486.1 457.1 427.8 405.7 392.2 381.3 372.8 364.3 362.1 362.3 362.6 366.7 362.7 363.3 364.6 370.9 375.7 379.2 380.9 384.3 389.1 397.6 404.2 409.6 415 416.7 410.9 418.4 417.4 420.9 433.4 458.2 467.3 475.8 483.5 483.7 480.1 471.8 456.1 444.1 440.6 435 418.5 405.8 399.8 393.4 390.5 385 387.3 395.4 410.1 435.1 465 503.3 537.3 585.7 629.2 653.6 680.1 710.3 737.4 755.3 760.7 761.1 763.5 761 760.7 766.2 779.2 788.5 800.6 810.4 785.1 745.3 714.9 697.4 684.6 652 624.2 600.3 583.9 552.5 524.9 500.9 480.1 463 444.8 428.7 412.2 394.5 378.2 361.7 345.5 326.5 299.6 273.8 258.2 246.3 243.1 246.6 229.4 229.1 237.9 220.9 196.9 186.1 176 169.1 164.3 162.9 164.7 163.6 170.6 175.3 174.8 183.6 182.8 182.3 189.2 190.1 194.2 194.4 187.1 195.6 201.1 203.4 201.5 202.3 201.1 196.6 190.4 181.7 177 168.5 164.4 161.7 161.7 161.4 159.8 161.1 164.7 161.3 162 176.4 182.8 190.9 200.9 212.2 217.2 220.7 223.4 225.3 236 239.9 241.5 237.1 237.4 219.4 224.7 235.5 243.4 260.9 280.2 299 332.4 363.9 388 395.4 401 410.4 404.4 403.2
486.5 495.3 504.2 517.2 528.2 541.9 555.9 568.4 581.2 593.6 607.7 622.3 637.2 650.5 663.8 678.5 699.8 732.3 752.7 749.2 742.3 732 712.6 672.1 627.3 573.9 543.4 512.2 486.7 460.4 433.9 413.6 397.1 384.5 375.5 365.7 362.2 361.4 361.4 362.3 362 362.8 366.2 372.2 376.3 381.4 383.4 385.1 390.3 400.7 411.1 416.7 420.7 419 400.9 412.9 415.4 407.7 436.6 458.5 466 473 481.9 482 476.3 468.8 453.8 447.2 442.4 431.7 417.5 409.7 401.4 395.3 390.2 383.1 394.2 401.8 410.9 435.1 458.4 512.7 561.9 621.9 639.7 657.1 689 722.3 764.2 786 787.7 788.5 788.1 787.2 786.3 790 793.7 801.7 814.9 831.7 788.2 758.2 732.2 708.5 686.8 663.1 633.8 604.8 576.1 548.9 520.9 498.2 477.7 458.9 442.6 423.9 390.3 359.5 343.5 327 317.4 302.4 285.3 271.2 271.5 271.3 261.3 241 240.5 237.7 252.5 249.2 221.6 201.1 188 181.6 176 178.6 181.3 184.8 193.8 196.9 201.5 202.4 203.8 206 208.6 212.5 216.1 218.2 218 214.6 224.7 228.7 232 234.7 232.7 230 229.7 219.8 210 195.4 191 183.7 183.2 179.8 179.2 177.7 178.3 172.4 168.9 186.1 194.6 205.1 216.1 227.1 237 231.3 223 217.1 216.6 222.1 221.1 217.2 213.2 202.4 203.8 213.7 223.9 243.9 260 287.4 322.9 355.3 381.6 399 409.4 419 418.6 407
484.8 491.3 499.2 507.9 523.9 535 547.6 561.3 573.3 585.7 599.2 612.5 625.5 639.6 654.2 668.5 683.8 707.1 741.7 758 741.1 726.3 708.4 688.1 618.1 575.8 541.3 510.3 484.8 464.4 444 425.6 409.3 396.9 389 380.5 370.2 365.4 361.2 361.5 361.5 361.9 367.1 371.6 378.3 385.2 387.2 387.5 389.9 400.6 418.9 423.8 423.4 416.2 388.1 380.8 386.1 393.2 401 414.4 460.1 480 487.3 485.6 470.9 457.6 448.9 443.6 439.7 426.6 417.6 411.2 399.7 399.6 396.4 379.8 392.9 400.6 412.9 434.7 450.4 480.5 545.9 613.7 625.7 654.1 689.1 723.2 762.6 783.9 796.4 806.2 810.9 804.9 806.6 807.6 809 815 821.8 828.6 814.2 781.7 752.2 725.2 698 674.3 630.9 595.6 569.6 540.3 522.4 501.7 485 454.7 431 415.1 394 359.1 349.9 341.8 334.2 321.8 311.3 306.1 300.6 282.2 258.1 252.6 253.9 248.2 255.9 254.8 237.3 222.6 208 199.5 190.1 196.2 203.2 208.5 215.2 219.8 222.8 223.7 229.2 230.4 235.7 243 247.8 250.4 246.6 223.6 262.5 265 267 270 278.4 302.9 305.7 295.1 261.9 230.4 223.9 210.2 205.2 200.8 203.7 205.8 193 179.9 181.9 196.3 209.8 222.7 233.6 240.4 243.8 246 239.9 216.4 206.4 206.8 208.4 206.7 202 196.2 195.8 199.2 210.8 228 247.6 280.4 304.7 335 367.1 389 412.6 429.9 429.8 425.5
478.1 486.6 493 502.8 516.7 528.8 540.5 553.2 566.4 579.1 589.6 603.9 614.3 626 640.2 655.1 671.4 687.6 710.7 740.8 736 724.9 701.9 666.4 621.1 590 540.6 505.7 482.6 468.4 448.2 432.8 417.5 404.5 399.7 390 383.1 374.8 370.9 362.7 361.2 367.8 369.8 375.8 383.1 388.9 392 388.8 393.1 403.8 418.6 429.4 431 396.9 373.8 361.9 366.9 374.9 381.5 402.7 415.9 454.2 483.1 481.2 463.8 449.4 445.5 442.3 434.9 425.1 418.5 408.1 396.7 387.3 380.6 379.7 392.3 400.3 416.2 423.6 449 479 531.3 587.8 609.2 647.7 686.8 721.6 750.2 776.6 801.7 815 819.5 825.3 827.5 828.6 827.8 824.9 825.9 828.8 831.2 794.9 744.2 704.8 687 641.1 604.5 577.2 551.2 534.5 516.8 498.2 477 446.8 427.4 409.6 383.1 374.2 376.2 374.3 368.2 357 345 329.6 310 280.7 271.5 273.2 243.7 260.4 278.3 278.4 277.7 273.4 253.9 229.5 220.7 221.9 226.7 233.6 240.6 245 249.1 252.8 255.7 252.8 264.5 274.9 282.8 285.2 272.8 241.4 267.3 305.8 319.8 323.1 328.3 357.7 358.5 339 312.9 299.5 269.1 250.5 228.6 223.6 220.6 219.7 199.4 191.8 191.7 203.3 221.1 237.9 247.6 257.6 266.9 263.2 245 214.7 205.8 200.2 198.5 197.7 195.2 192.5 192.6 192.8 200.6 212.6 238.9 272.1 294.7 322.4 354.2 375.9 396.2 413.9 432 433.9
472.1 478.8 488.9 497.7 508.9 516.8 533.8 547.1 560.5 570.6 581.4 590.8 602.8 614.4 627.4 641 654.4 672.2 695.8 708.9 721.6 721.4 709 682.3 608.8 581.2 547.3 512.4 481.3 462.2 448.3 433.5 421.8 415.1 405.3 400.2 390.4 382 377.8 368.6 360.7 371.3 370.8 380.3 390.4 392.1 393.2 389.1 382.3 403.9 427.8 435.5 433.5 384 363.6 354.5 358 366.2 369.8 386.1 399 406.5 437.3 471.7 457.6 442.8 441.4 438.8 432.4 422 412.1 403.4 386.9 378.3 374.1 376.5 387.8 401.3 414.9 431.5 456 486.5 523.7 563.1 601.4 650.1 687.3 714.9 731.1 748.6 772.4 794.6 826.4 845.5 847.5 844.8 852.3 850.4 831 785.1 791.2 762.5 714.6 664.5 642 613.3 583.1 559.7 537.5 512.6 496.6 475.9 453.5 422.3 398.2 395.3 402.5 404.9 401.3 396 385.4 373.3 359.3 341.1 306.2 303.6 294.2 285.2 256.6 284.5 315.2 313.9 299.9 299.6 278.6 257 246.3 246.8 254.4 262.9 274.3 281.6 281.8 284.2 283.3 281.2 283.6 300.1 310.6 314 287.9 274.2 280.2 315.2 363.5 369.4 354.2 381.4 376.5 365.8 343.6 330.2 300.6 280 261.7 250.3 238.8 215.7 206.9 201.2 202.9 214.4 232.7 247.3 266.1 274.5 279.4 277.5 240.9 210.7 206 201.9 195.6 193.6 193 191.8 191.5 192.1 194.4 206.2 227.7 255.3 286.5 308.3 335.8 359.5 382.5 407.7 431.7 440.2
467.1 472.4 480 493.7 504 512 527.5 539.7 552.1 563.8 574.7 584.8 592.9 604.1 615.1 628.8 642.8 656.6 673.4 691.5 707.4 707.9 695.1 668.9 607.1 562.6 552.4 515.7 489.4 466.3 454.2 441.6 427.9 417 410.9 405 395.6 389.4 384.9 372.9 355.4 361.6 361.3 372.1 378.8 375.6 376.1 369.9 366.6 363.6 376.1 409.1 394.5 369.6 354.8 351.6 354.4 358.7 365.2 389.6 387.2 389.5 403.6 430.3 451.1 440.2 441.5 436.6 428.9 418.7 413.1 400.9 382.1 375 373 375.1 385.7 402.6 408 433.9 459.5 491.4 526.7 565.2 610.4 658 679.4 697.5 716.4 729.8 747.8 774.3 808.9 830.5 843.3 844.3 850.9 855.5 845.5 808.1 736.9 706.9 676.3 650.3 620.1 593.1 567.1 537.9 506 480.1 465.2 443.2 466.8 463.8 454.8 444.3 441.7 439.6 431 424.7 411 393.5 372.7 349.8 338.9 328.1 315.1 294.9 263.1 309 322.7 321.9 311.7 299.8 298.9 286.2 274 275.6 282.4 294.8 311.7 322.1 321.3 321 321.5 308.8 294.6 321.6 333.1 336.2 310.2 281.9 320.4 322.3 352.3 379 380.1 382 378.9 371.4 357.4 331.9 316.4 300.8 275.3 257.7 236.9 218.6 219.1 218.5 224.3 229.7 240.9 258.3 279.4 285.9 296.8 282.8 228.9 213 209.1 198.7 194 193.2 192.7 192.4 192.2 192.5 194.9 199.8 217.1 242 266.6 285.3 312.6 342.4 367.6 396.4 416.4 438.2
463.6 467.7 474.4 489.3 501.5 510.3 519.1 530 543.1 554.4 564.5 574.5 581.5 592.4 601.8 616.1 631.6 643.5 657 675.3 690.3 683.1 669.2 628 594.8 550.8 521.2 509.6 490.5 471.9 455.2 443.5 435.8 427.9 420.1 411.9 402.6 398.3 390.6 375.4 360.3 351.7 351.1 352.9 360.7 362.3 358.4 353.5 348.8 349.3 351.4 371.6 375.5 358.3 349.7 351.3 355.1 359.4 364.2 366.5 374.5 383.2 401.4 412.2 420.8 437.2 440.9 433.5 423.3 414.7 407.5 393.4 377.3 372.9 371.4 373.9 384.5 402 421.1 439.2 456.3 484.9 535.8 575 608.9 646 671.5 689.3 701.4 716.2 731.2 753.9 797 812.2 820.7 828 829 853.1 842.5 797.2 716.2 694.3 677.2 661.3 623.9 592.2 559.3 531.6 533.1 517.3 502.7 501.5 504.4 503.3 496.1 477.4 466.2 464.1 469.5 443.6 427.3 402.3 384.9 374.1 361.6 347.1 330.8 303 277.4 322 343.4 334.8 326.7 316.7 318.4 306.4 300.9 305.4 311.2 325.4 345.6 358.4 361.1 358.6 352.6 336.5 332.6 335.3 351 352.9 331 301.5 332.9 356.5 371.5 383.3 385.5 394.5 398.5 386.5 373.9 346.3 321.7 301.3 278.8 256.6 236.9 234.9 235.5 239.2 243 247.1 251.1 268.8 282.5 295.9 299.8 260 226.1 212.9 207.6 201.1 193.2 190.5 191.8 191.6 190.8 193.3 196 200.3 208.9 228.6 249 268.6 293.5 323 350.9 377.2 405.6 422.2
460.2 463.9 467.7 482.5 496.3 505.8 514.8 523.9 534.9 545 553.9 564 573.6 581.1 591.6 604.4 619.2 630.2 639.5 654.4 662.4 651.9 628.8 586.8 564.1 540.8 521 503.9 487.3 470.8 460.2 451.4 444.6 437.6 428.8 419.5 407.3 396.3 386 377 363.2 348.9 344.9 344 344.4 347.5 345.3 342.3 341.5 340.2 340.6 346.2 354.3 349.3 347.5 351.3 357.1 363.8 365.4 366.6 376.1 385.6 391.9 402.1 418.7 432 437.7 432.2 420.7 412.1 400.5 383.6 374.2 371.7 370.2 373.7 387.3 396.5 418.4 437.3 457.4 483.2 519.6 565.1 599.2 640.4 662.6 678.4 692.5 705.4 719.9 735.9 758.2 793.3 793.7 799.4 799.3 820.2 807 754.1 720.7 695 677.9 665.1 638.7 602.9 588.2 561.9 575.4 545 525.6 521.3 519.7 519.7 517.7 512.6 489.8 481.3 461.2 441.5 428.9 421 412.3 402.7 386.9 368.8 349.2 329.3 295.8 297.9 339.7 352.2 340 335 328.2 323.6 326.3 332.9 339.5 356.5 373.1 383.3 389.1 392.3 386.2 367.2 357.7 369.9 378.4 377.5 369.3 332.4 360.2 373.2 394.7 412.2 398.2 393.5 393.1 395 369.9 341.9 320.2 297.2 277.1 252.9 249.1 248.6 256.5 260.9 264 264.1 273.1 279.4 295.1 302.9 290.3 255.8 228 215.2 209 201.1 192.6 189.7 189.1 189.2 190.7 193.2 196.7 200.4 207.9 215.9 234.9 260.3 284.5 307.7 334.7 362 389.8 415
457.3 462.2 464.8 478.2 490.6 499.8 509.6 521.5 528.2 536.3 546.3 555 563 571.7 582.6 593.8 605.7 617.3 626.1 629.4 629.7 617.6 597.1 569 541.6 521 509 497.6 485.6 475.8 465.3 457.6 450.3 443.2 434.6 424.8 414.2 405.2 394.2 382.1 370.4 360.5 347.4 344.8 344 342.6 340.8 340.1 339 338.8 338.6 339 339.5 341.1 345.6 351.7 360.7 363.3 365.1 372.2 386.3 382.4 388.7 403.1 408.9 429.6 427.8 428.7 419.7 408.1 393.5 379.2 374.6 369.5 370.1 383.5 390.4 397.6 421.1 438.7 461 487.6 519.3 551 590.9 627.7 656 671.5 682.1 701.1 721 727 734.9 748.2 763.1 771.1 780.2 792.3 805 766.9 733.1 702.8 691.5 661.9 639 625.2 607.2 582.8 604.4 591.3 558.5 542.5 539.6 535.1 531.8 519.5 499.3 481.3 468.1 469.4 452.4 443.3 434.2 420.3 412.6 394 374.2 357.7 326.7 318.2 327.7 366.1 370.7 354.6 345.6 347.3 352.9 359.3 368.7 383.9 402.3 406.6 419.1 416.3 420.4 392.7 393.2 399.4 405.7 405.1 393.8 356.3 376.4 389.7 400.3 414.8 401.3 387.7 384.4 369.8 342.9 329.7 297.9 288.5 272.8 269.6 262.1 272 279 280.9 278.9 282.7 291.8 296.4 290.3 294.1 278.9 253.8 230.8 219.8 210.7 201.1 193.3 189.5 187.8 188.4 190.6 192.6 197.3 202.5 208.3 221 231.4 249.9 274 296.4 321.3 350.7 384.7 402.8
457 462.9 466.1 471.4 484.7 493.3 504.3 512.4 521 527.7 535.6 545.4 554.3 561 570.7 581.9 593.3 603.2 607.1 603 598.8 589.7 568.1 543.6 522.2 512.2 503.1 494.1 483.9 476.8 468.8 460.3 453.3 445.7 439.2 430.2 420.5 410.3 400.5 390.5 377 364.7 352.5 347.5 344.1 342.8 344.3 345 341.3 338.9 337.9 338.1 340.3 347.1 349.1 361.2 367.7 363.3 368.8 379.8 387.8 381.6 384.6 396 389.5 403.8 400.6 414.5 416.6 401.8 386.1 373.5 371.8 365.1 372.4 384.5 388.6 410.7 427.7 437.5 460.9 490.6 519.1 553.7 590.2 634 651.8 661.6 672.9 683.1 700.6 711.4 715.3 725.3 737.8 759.7 776.2 795.3 809 804.1 766.1 728.3 695.9 679.5 650.3 634.6 633 617.5 621.8 623.6 605.1 570.6 564.1 560.7 551.5 525.4 509 506.6 509.8 489.3 475.9 466.2 459.6 443.1 433.5 426.3 401.5 380.1 357.8 342.3 328.3 363.9 397.3 380.2 371.3 374 381.2 388.9 399.9 414.6 425.7 436.4 442.6 441.9 442.1 424.1 432 428.8 433.4 431.8 420.1 399.9 402.5 408.4 410.6 403.8 394.4 390.8 375.4 372.9 360 343.6 326.6 311.9 296.8 289.1 283.7 296.1 301.8 297.6 294.5 302.6 309.4 311.2 305.6 296.2 273.4 254.7 239.8 227.5 213.8 202.8 195.3 190.4 187.6 187.9 189.6 190.9 193.9 202.1 206.7 219.7 235.9 259.1 273.2 281.9 312.5 339.7 369.1 397.3
458.7 462.3 466.3 470.2 476.7 486.5 495 506.4 512.5 521.4 528.9 538.8 545.3 552.8 560.6 570.6 579.7 584.1 585.6 584.5 573.9 565.7 544.2 524.6 517.3 515.3 508 494.2 487.5 477.9 470.3 460.7 455.1 449.8 442.6 433.1 425.2 415.9 406.8 397.5 384.9 371.3 359.6 350.6 348.2 347.3 349.6 351.2 351.6 347.5 337 338.8 345.1 355.3 356.8 360 366.3 371.1 374.2 375.5 379 378.8 378.8 377.1 374.6 385.1 392.8 427.7 413.8 396 378 367.3 363.5 366.7 376.8 385.5 395 418 430.4 441.2 459 486.9 512.9 563.1 590.4 618 636.8 652.1 665.6 674.5 689.4 696 703.1 712.8 730.2 742.2 770.4 791.4 805.1 825.7 792.8 746.7 710.7 698.7 682.7 651.1 637.5 635 636.7 641.7 637.4 631.1 596.4 582.2 570.3 546.2 540.6 530.3 523.2 511.7 501.1 492.2 481.3 469.5 461.2 443.1 423.2 396.8 379.1 361.4 318.5 366.7 389.1 389 389.9 396.5 407.2 416.4 429.6 439.5 451.8 460.9 466.4 474.1 469.3 457.7 458.5 453.2 457.2 449.2 441.2 431.5 426.6 423.9 422.5 418.1 410.8 403.5 395.3 385 368.7 360.3 344 329.9 319 299.8 308.7 324.6 318.1 308.2 311.2 321.3 324.1 329.5 317.2 305.8 287.9 267.2 248.7 237.6 215.3 203.8 196.3 191.5 187.5 187.4 187.8 189.4 192.5 198.4 204.1 215.3 238.9 261.1 285.6 302.5 302.5 318.7 351.6 386.7
460.1 464.5 467.1 468.6 474.2 480 487.8 496.2 504.3 512.4 521.9 529.6 536.4 542.8 548.9 556.7 564.3 566.5 563.2 553.5 542.9 532.4 519.4 510.1 493.1 503.1 489.7 491.5 483.2 477.1 467.2 461.1 463.6 455.5 447.3 433.5 426.8 421.1 413.1 399.8 385.1 373.2 363.8 353.9 349 347.6 350.4 354.8 357.6 345.4 340 349.2 358.8 361.2 365.6 363 367.9 370 380.2 367.2 365.9 366.8 372.8 369.3 369 375 383.6 410.9 401.6 386.2 372.2 361.5 367.5 373.7 377.8 387.6 398.1 414.4 431.1 440.5 461.9 483 503.7 547.9 590.7 611.3 631.1 644.8 656.3 666.7 675.8 684.9 700.2 708.7 723.3 740.8 750.2 771.7 807.7 823.2 825.2 761.3 720.9 707.1 689.7 674.7 657.3 641.7 643.8 656 672.9 663.6 643.9 606.5 585.8 582.3 576.9 557.4 541.4 537.3 521.9 506.1 495.6 480 467.1 452.2 437.7 417.2 394 377 353.8 348.1 383.6 396 405.1 417.1 429.9 444.4 460.9 470 482.3 490.2 496.5 497.2 489.9 477.4 474.7 475.3 468.4 465.1 456.1 453.8 450.5 448.8 446.4 436.9 436.1 422.7 409.4 400.6 390.9 378 359.9 346.5 323.2 326.3 351.1 351.5 333.4 331.1 330.4 327.9 337.3 344.4 348.5 336.3 306.8 281.5 259.3 242.7 225.7 212.3 198.1 190.4 187.5 186.8 186.6 188.5 190.9 197.4 202.5 214.7 236.3 259.7 280.4 307.6 332.7 338.9 336.2 367.4
461.9 466.3 469.7 471.3 472.7 477.2 483.2 488.4 496.6 505.3 514.8 520.6 525.4 530.9 538.1 544.7 549.1 548.6 539.8 531.9 516.5 508.5 493 484 474.4 469.9 476.4 484.6 469.9 461.4 462.5 466.8 462.2 457 450.2 437.4 437.3 429.2 424.2 410 383.9 371.4 366.8 358.9 350 348 351.7 356.3 361.7 344 342 351.6 366.1 368.6 371.9 372.9 370.1 360.2 365.3 362.7 354.5 357.9 357.5 356.3 357.7 359.6 373.3 386.1 381.8 375.6 367.2 358.6 365.8 376 381 388.2 395.8 407.8 422.6 440.7 458.9 482.2 510.3 543.1 576.6 595.5 624.3 639.8 650.4 659.5 671.4 682 694.1 706.1 719.4 729.1 742.8 767.2 797 810.1 825.6 790.8 743 739.2 733 716.7 678.3 661.9 660 676.4 709.1 695.8 673 646.4 630.8 607.6 587.9 575.7 569.5 564.9 544.8 526.7 520 508.3 482.4 460.4 443.7 423.6 405.5 383.4 347.4 368.5 392.7 406.6 417.9 436.2 456.2 474.1 489.6 507.3 518.3 526.5 532.6 537 519.2 507.3 494.8 491 487 478 478.2 470.7 469.1 463.7 463.3 450.9 447.4 447.7 440.5 419.4 411.7 393.4 373.2 349.4 346.5 352 377 360 348.2 353.4 353 349.3 352.6 354.1 356.6 355.2 328.9 309.8 277.1 257.5 232.9 212.8 198 189 186.7 186.6 186.6 187.2 189.8 193.9 198.9 212.9 230.8 253.4 279.3 306.7 335.5 351.3 367.2 368.4
462 465.8 469.4 473.3 475.6 479.6 483.3 486.9 492.8 500.2 505.6 512.2 515.8 519.8 524.4 528.2 532.9 527.4 519.7 511.7 496 478.7 466.2 461.6 458.3 454.8 455.5 454.3 451.4 457.1 469.3 467.6 468.2 463.9 451.9 445.2 451.4 432.4 420.9 408.2 381.3 367.7 363.2 357.8 351.3 349.9 353.2 359.9 366.4 351.7 335.8 356.3 368.3 375.2 380 379.1 372.4 357 346.3 351.9 350.8 339.4 341 339.3 338.8 343.4 353 360.5 365.9 366.8 364.4 356.3 368.6 378.5 382.7 389.7 398.6 411.3 423.8 440.2 460.3 484.6 511.5 540.8 577.2 604.3 623.5 634.2 647.9 656.1 668.5 678.6 694.8 703 716 727.4 751.1 769.8 792.8 798.5 804.7 817.2 809.3 775 767 755.8 714.7 691.4 688.3 704.6 718.8 704.4 693 678.3 662.9 630.1 611 601.5 598.3 594.9 579.3 560.3 540.6 536 514.8 482.8 456.1 434.1 410.7 386.8 356.4 381.9 401.4 420.9 437.1 462.4 486.8 507.7 528.6 542.1 552.7 560.3 559.7 559.2 549.3 540.4 517.7 506 498.9 496.1 490.4 491.6 482.8 474.2 480.5 474.1 459.5 461.8 456.6 436.9 428.4 410.9 385.3 358.8 377.2 387.7 383.1 370.7 368.5 375 367.7 362 364.7 366.1 366.8 366.2 349.4 322.6 293.2 268.2 247.1 224.6 202.2 188.3 186.6 186.6 186.6 186.6 190.4 194.6 199.1 214 229.6 248.5 275 296.9 325.9 342.4 364.2 382.4
461.3 465.6 469.6 473.2 476.7 479.7 482.9 485.9 488.7 492.9 497.1 503.4 507.4 509.8 512.5 515.1 512.1 504.9 492.2 484.4 473.1 460.9 450.8 448.1 444.9 440.2 439.9 438.6 444.3 464.5 476 471.3 468.5 465.4 451.8 446.7 444.2 423 406.4 392.9 381.1 363.9 356.7 354.8 351.1 351.2 360.4 366.6 375.3 344.8 336.6 359.5 372.2 382.4 384.9 387.7 374.6 361.3 348.6 339.6 336.7 331.4 335.3 327.9 327.7 333.4 339.2 347.2 352.1 357.7 360.2 354.2 362.4 377.3 392.4 398.7 407.4 416.4 428.7 443.3 461.5 485.6 510.7 539.2 573.4 595.4 615.6 627.3 644 655.9 666.3 674.2 685.7 696.5 708.7 723.1 762.2 779.9 784.9 786.6 785.7 788.8 796.7 779.8 774.8 771.9 751.6 728.7 719.8 722.2 718.6 708.4 695.9 689.9 676.3 664 645.6 636.4 626.2 613.3 592.2 574.3 560.2 546.6 534.3 508.1 470.4 442.4 417.7 389.9 365.9 389.1 413.5 436.4 461.4 498.2 526.9 560.7 567.7 578.2 585.4 588.1 584.8 582.7 578.3 558.4 538.6 530.6 516.9 511.3 506.2 508.6 494.6 487.4 489.6 482.7 476.2 467 469.2 465.7 443 420.8 391.8 387.4 408.1 414.7 407.9 388.1 387.1 390.4 377.6 381.2 380.4 389 373.4 362.8 330.7 315 289.3 276.5 258.7 233.8 202.1 189.2 185.9 186.6 186.6 186.6 187.6 193.6 200.2 214.4 226.5 245.2 269 294.2 314.2 339.2 363.2 381.3
462.3 465.9 468.6 472 474.9 477 480 482.5 484.9 485.4 490.1 494.5 497.8 501 501.9 498.6 491 484.1 474.9 463.3 450.6 441 434.1 431.7 433.6 431 428.5 428.5 444.6 466.4 483.7 474.4 467.4 460.4 458.1 449.4 442.2 419.4 407.5 380.8 369.1 358.9 355.3 353.9 352 353.1 365.2 373 378.5 337 336.7 356.1 377.9 382.4 396.6 384.7 370.7 362.9 351.5 339.4 326.9 322.9 326 321.5 318.1 321.1 330.9 337.2 345.6 349.9 351.5 355.2 366 377.7 390.8 399.8 404.7 414.5 427.8 444.5 464.6 485.3 509.2 533.6 568.6 580.2 604.6 624.3 641.7 659.6 671.8 680.7 690.4 697.9 709.4 731.6 761.3 770.1 772.4 772.9 768.8 770.1 776 768.9 767.1 764.8 757.1 745.3 734.9 730.3 720.5 710.2 700.1 693.2 689.7 677 663.6 659.2 654.9 639.9 613.2 591.3 571.9 553.7 537.8 520.3 485.8 455.2 427.4 400.3 376.5 401.1 428.6 453.2 482.7 511.8 562.5 585.8 593.7 602.1 617 618.3 612.4 606 594.1 581.8 561.4 545.8 535.6 534.9 521.8 513.9 506.1 495.9 498.3 495.3 486.9 485.4 475.4 477.5 452.7 425.1 425.1 421.4 435.3 432.5 425 407.5 403.7 392.3 395.8 397.9 393.3 396.4 375 340.9 315.6 300.1 280.8 266.4 254 224.1 201.7 194.2 186.5 186.6 186.6 186.6 188.6 195 200.7 209.9 223.1 242.5 263.2 286 310.5 335.2 360.8 378.6
465.2 467.1 469.2 470.4 472.5 474.2 475.1 478.4 480.4 483.2 483.8 486.6 489.6 492.8 491.1 482.5 472.9 464 454.5 441.3 431 424.1 422.4 416 419.1 422.4 416.9 426.2 437 458.7 473.3 473.7 463.5 463.1 462.8 444.7 428.3 413.6 409.9 379 367.4 358.2 353.9 353.1 353.3 356.1 367.5 376.9 360.3 323.6 334.3 347 370.9 383.1 391.3 361.8 349.8 353.9 348.8 336.5 323.6 315.5 315.3 313.5 318.5 326.2 336.8 343.2 347.6 349.4 355.3 365.4 365.4 375.8 384.8 390.1 400.3 412.4 425.4 442.7 464.4 476.9 494.9 515.6 540 570.6 596.4 625.3 637.5 657.3 669.4 676.9 689.4 700.8 718.1 734.7 751.6 758.8 761.1 764.2 764.3 766.3 768.8 765 763.5 759.2 753.9 748.3 738.3 732.2 720.2 712 701.6 695.1 687.6 680.6 679.4 679.4 681.2 678.7 647.4 618.8 589 561.3 545.1 530.2 505.7 461.3 431.7 407.1 390.4 416.1 446.4 474.9 507.8 539.6 582.4 612.9 620.5 636.8 649.9 648.8 639 624.8 613.8 602.4 587.8 567 558.4 544.6 537.6 528.6 520.7 507.8 505.3 507.3 500.5 493.1 488.3 483.7 463 464.1 466.2 463.3 458.8 446.2 453 437.3 420.6 412.1 410.5 404 405.2 400.7 361.4 331.2 305.4 286.7 271.9 255.3 227.6 218 203.8 195.2 187.8 186.6 186.6 186.6 193.5 196.7 199.9 206.7 221.9 238.3 260.5 282.7 303.4 326.3 353.2 371.9
467.1 469.5 469.7 470.4 471 471.8 472.4 474.9 478.5 478.8 479.4 481.3 484.3 485.5 480.4 469.3 461.2 449 437.8 425.2 418.5 411.1 407.8 402.8 403.4 403.5 416 425.3 435 458.7 453.2 464 456 463.9 461.8 445 433 409.5 389 372.7 364.2 357.4 355.5 354.5 355.3 366.2 372.9 385 350.4 318.2 325.3 343.2 334.9 332.7 333.9 333.4 335.5 338.2 332.5 332.5 314.6 308.2 307.3 315.8 321.6 338.7 351.4 355.5 355.6 360.2 358 363.7 370 373.5 380.2 388 397.2 409 421.2 436.8 458 478.4 498.8 528 552.8 581.1 606.6 626.8 643.7 656.3 669.6 676.7 686.6 710.5 726.6 740.4 751.8 755.2 759.8 760.8 764.7 766.3 766.5 761.5 759.9 758.7 754.5 747.4 739.5 731.8 720.4 711.9 703.2 692.9 688.4 680.8 682.5 684.8 687.6 692.7 684.4 670.9 643.5 590.9 559.7 527.4 512.1 466.8 435.6 412 413.9 430.8 459.2 517 540.7 565 592.5 619.4 643.2 655 667.5 667.1 652.2 638.9 631 619.7 615.3 592.1 571.6 559.7 551.7 541 530.8 522.4 516.3 510.4 506.5 501.5 501 497.3 495.2 500.6 497.4 481.8 473 468.6 475.7 468.1 445.9 438.2 425.8 416.4 414.9 398.2 360.2 337.8 301.4 269.4 255.7 240.9 226.1 215.2 204.4 194.5 187.8 187.4 191.8 193.3 196.9 194.8 197.8 205 216.8 230.2 250.9 274.2 294.5 319.7 344.1 363.3
468.3 470 470.2 470 470.4 470.3 471 471.3 473.2 474.4 474.9 477.1 478.5 476 466.9 459.8 447.4 435.7 425.5 414.9 406.6 400.2 396 393.1 393.5 395.2 411.7 426.4 434.8 442.9 438.4 442.5 443.5 447.4 449.4 453.6 442 416 386.5 373.1 364.4 359.5 357.1 357.4 358.4 362.1 367.4 366.8 338.8 313.1 314.7 318.7 314.4 320.5 326.2 319.4 324.6 326.9 318.4 317.2 305.6 304.9 312 324.1 338.7 354.1 366.6 367.6 366.9 369 369.7 372.4 376.1 374.9 379.7 385.3 399.5 412.6 422 433.8 451.3 471.3 503.8 523.7 546.3 581.8 602 639.3 651.8 661.4 674 682.3 692.9 712.8 724.9 744.9 755.5 760.7 761.6 763.3 762.9 763 765.4 760.1 760.7 757.1 752.9 748.4 735.8 732.8 716.6 707.4 699.5 691.3 683 679.8 678 678.8 676.7 677.2 674.3 672.6 659.3 631.6 577.2 533.7 500 467.2 442.1 430.4 430.7 447.2 471.2 529 556.4 570.3 589.2 616.2 639.7 661.1 675.4 680.9 696.3 680.6 655.4 641.1 628.9 622.7 590.5 574.5 561.6 556.8 542.4 533.9 526.4 522.4 510.7 508.3 508.2 512.9 509.4 512.6 507 499.2 486 490.6 501.6 485.5 469.4 458.3 451.3 437.6 416.7 388.4 350 336.6 304 274.2 249.8 234.5 223.3 213 204 193.3 186.2 193.2 198.8 198.2 190.9 188.6 194.1 200.7 216.9 235.1 257.6 283 303 318.4 333 358.9
469.3 470.3 470.1 469.5 470.6 470.4 469.8 468.6 469.6 470.4 470.8 471.1 469 464.8 455.9 445.8 434.2 426.1 416.7 406.8 396.8 390.5 386.8 384.4 379.2 385.6 400.9 411.8 418.5 436.2 434 436.1 432.7 423.7 426.4 436.1 439.1 416.6 380.1 368.6 363.3 364.7 362.5 365.4 367.2 370.3 368.5 347.7 330.8 306.2 298.2 305.8 302.2 302.4 301.6 305.7 308.4 318 306.6 306.4 301.7 307.5 324.4 339.4 358.1 366.1 373.8 378.2 377.8 379.5 378.4 378.4 384.3 376.9 377.8 385.3 400 411 419.3 433.7 447.6 468.3 492.1 514.8 535.8 565.6 591.9 633.4 659 671.4 682.8 688.4 696.4 714.8 727.9 740.7 748.6 753.8 757.5 762.5 763.4 763.3 763.3 757 754.4 753.8 751.9 744.8 733.4 732.3 714.4 699.3 693.5 684.4 677.1 673.8 671.9 669.6 667.4 663.3 660.1 656.2 641.5 615.9 576.9 531.6 497.4 462.2 454.9 459.5 460.9 458.1 481.8 511.3 549.1 573 588.2 613.4 636.9 648.7 666.7 682.9 691.3 694.5 678 660.8 644.5 626.6 610.1 586.6 574.3 562.1 549.5 544.2 534 530 524.5 514.2 517.3 525.5 523.1 517.1 514.4 505.5 505.1 502.9 507.6 513.7 505.3 478.2 478.9 474.6 435.2 388.7 347.2 325.7 309.9 281.5 249.3 231.8 218 210.7 198.8 187.9 184.9 198.7 204.2 197.3 185.2 186 186.9 192.7 209.2 228.7 251.6 280.4 315.2 336.4 339 347.2
469.7 469.2 469.1 469.1 469.8 468 468.9 467.8 466.2 466.4 464.7 461.2 455.4 450.5 441.3 431.2 422.1 414.6 408.6 397.3 387.5 381.8 375.2 372.5 369.5 376.8 380.3 386.9 395.8 408 440.5 439.1 426.5 414 411.4 414 418.9 400.6 375.7 362.3 361.8 365.3 366.3 368 373.3 377.4 368.4 348.3 324.9 298.8 281.2 291.3 290.8 291.2 291.1 295.1 298.3 296.7 295.4 295.2 303.8 320.9 341.2 362.1 371.5 377 382 385.8 386.3 385.7 385.5 382.2 381.2 379.4 378.5 385 396.8 406.7 420.9 434.4 444.9 462 483 504.6 526.2 550.1 579.2 606.9 647.3 667.4 674.2 681.5 699.8 705.8 719.8 731 742.4 752.7 762.7 763.3 760.9 766.4 764.7 760 753.4 747.1 743.5 743 728.9 725.7 704.5 691.4 683 678.2 673.4 670.4 665 662.9 659.1 651.4 642.6 632.2 621.3 600.7 564.4 513.3 490.4 488 488 486.9 485 483.5 491.7 513.6 541.3 562.9 581.4 603 622.3 638.8 654.7 664.4 678.6 690.8 675.5 669.8 649.9 629.3 613.4 601.6 582.8 569.6 557.6 552.4 543 535.7 528.7 525.5 527.8 529.9 529.7 526.5 519.7 511 514.5 511.4 520.9 522.1 513.3 492.4 491.2 483.5 446.9 391.6 353.3 322 293.7 269.8 250.2 228.4 215.4 203.9 193.2 185.4 179.5 192.1 215.8 191.2 181.4 175 174.3 183.2 200.4 222.6 244.3 276.2 290.3 312.2 318.1 334.3
469.8 469 469.3 468.4 467.4 465.7 465.4 465.2 463.8 461.9 457.7 451.8 444.1 437.7 428.2 415.9 409.7 404.4 396.4 388.7 379.6 372.8 365.6 361.6 362.2 366 367.9 372.2 382.4 406.1 438 436.7 417.7 401.4 400.5 404.6 409.1 385.7 365.6 361 361.5 363.3 376.1 370.5 379.5 373 357.5 341.9 314.3 294.3 269.5 279.5 276.8 280 283.6 286.1 288.8 288.8 286.3 291.4 309.5 330.6 351.8 368 378.4 383.5 389.8 394.6 394.3 395.3 391.4 387.6 386.8 385.7 384.7 392.9 398.6 409.1 426.2 433.3 442.1 454.9 473.1 494.4 514.1 532.7 559 589.1 619.2 652.3 655.6 665.6 680.1 691.9 707.1 722.2 736.5 753.8 760.8 761.6 760.2 763.9 764.9 760.1 747.6 743.2 735.1 732.8 721.1 704.1 693.6 681.2 674.9 673.9 669.4 666.7 664.7 658.8 655.9 644.6 634.2 627 601.3 569 544.3 532.3 528.6 526.7 517.1 517.2 506.1 498.7 501.2 511.7 535.1 557.2 574.6 592.1 611.3 627.1 641.1 652.1 661 667.7 667.8 667.1 655.3 632.7 615.8 602.3 585.1 572.3 559.4 551.4 547.2 538.1 529.5 532.1 535.1 537.8 535.9 535.7 526.4 513 515 516 514.1 520.9 522.8 500.3 499.7 496.6 482.6 439.5 355.8 322.4 303.2 278 249.7 230.8 214.6 203.1 193.2 188.4 176.8 179.8 176.3 175.6 173 165.6 163 170.7 184.4 206.2 224 254.3 271.2 280.8 293.1 314.9
469.6 468.2 468.8 468.2 466.6 463.7 462.9 461.2 458.3 455.2 448.7 440.7 432.2 423 413.3 404.8 399.2 392.2 385.6 374.8 368.9 363.2 357.9 351.6 355.2 355.3 358.9 362.3 374.1 398 438.2 424.2 402.7 386.7 372.5 368.9 376 364.6 361.8 360.3 361.6 366.6 372.4 373.1 369.3 377.5 340.2 319.4 303.8 289 265.2 263 270.6 277.4 281.2 280 276.3 279.4 285.7 297.2 315.2 336.3 354.3 369.7 381.3 390.9 394.2 399.6 400.1 398.4 396.4 393.6 392.6 394.1 390.6 401.8 410 410.5 420 430 438.6 453.6 468.2 483.1 497.8 512.2 534.1 559.2 586.1 611 630.9 646.5 662.6 675.1 691.7 706.5 733 753 753.5 758.9 758.5 763.1 764.3 757.2 744.2 738.4 728.6 715.4 708.4 695.8 682.6 670.5 667.7 666.7 663.1 662.3 661.7 657.5 647.6 638.7 629.5 626.1 617.7 596.7 573.1 569.8 559 556.6 551.9 538.7 518.4 508.9 504.7 516.5 531.9 553.4 573.5 587.7 601.4 618.9 628.4 638 648.3 652.5 652.9 654.8 642.9 633.8 614.5 603.1 583.7 571.2 562.1 552.3 545.6 538.3 533 533.9 532.3 534.9 536.7 533.2 520.7 512.1 510 517.7 510.1 513.2 515.5 508.7 508.7 507.7 505.3 457 364.1 335.5 314.3 289.2 261.1 239 222.5 208.6 194.9 183 171.6 172 165.5 166.7 164.8 160.3 153.6 159.8 171.1 184.5 204.9 227.8 246.5 263.9 273.1 294.4
469.4 467.3 466.6 468.1 465.4 462.6 458.6 456.1 452.6 448.2 440.5 432.2 420.9 412.2 402.9 396.8 388.1 382 376.3 367.9 360.4 353.1 348.4 345.6 344.6 348.3 350.1 354.6 365.1 377.2 410.1 417 400 382.3 367.8 354.1 351.6 352.6 358.7 358.7 361.7 379 383.7 376.7 365.7 357.3 340.3 315.9 301.8 282.6 258.5 246 267.1 275.4 280 274.7 264.9 280.9 285.2 302.1 318.2 343.2 366.3 380 390.6 398.7 403.8 403.9 402.9 400.9 398.8 398.6 398.1 392.8 393.5 402.5 415 421.4 421.9 423.1 435.4 450 456.5 463.5 477.3 493.4 511.7 535.5 562 585.5 611.5 632.9 647.5 659.1 675.6 690.2 708.1 729.6 747 755.8 756.4 757.2 760.1 753.7 742.4 733.2 723.1 709.7 694.2 685 671.3 663.5 661.8 661.8 660.9 661.3 660 656.2 646.5 639.6 632.3 626.7 620.1 610 601.5 589.9 580.5 573.1 560.9 545.6 525.2 518.2 515.6 519.2 528 548.6 565.4 580.3 590.9 618.7 622.8 628.9 634.1 644.8 640.6 639 633.3 622.4 610.3 593.4 580.1 572.7 562.5 553.2 542.1 535.9 535 533.8 529 537 525.8 517.1 508.6 504.6 500.2 516.7 505.5 507.7 512.8 517.3 519.7 517.5 499.5 458.4 377.1 349.4 325.6 293 271.6 249.9 231.8 215.3 206.6 194 181.9 170.9 160.7 153 151.7 150.3 146.4 147.8 158.9 172.3 190.8 212.7 227.2 244.3 257.7 274.3
467.1 466.2 464.9 463.7 463.4 459.7 454.7 449.8 446 440.2 431.7 423.2 411.4 404.3 396.3 387.8 379.9 373.1 367 358.9 352.8 346 342.1 341.5 340.4 342.2 345.2 352.9 356 363.1 373.6 388.5 386.2 375 363.3 350.6 346.9 346.6 350.1 352 366.4 386.7 388 390.7 371.4 351.8 332.4 318.3 301.1 280.1 256.1 243.5 264.5 267.2 267.3 267.5 263.4 280.7 288.2 298.1 323.5 350.9 373.4 391.3 401 405 409.7 410 406.7 401.5 394.1 390.6 385.9 379.1 379.8 380.8 388.2 397.3 398.6 406.4 428.6 435.3 432.6 440.4 455.5 473.7 490.7 514.2 539.2 564.2 594.6 615.5 632.7 647 662.1 671.9 688.7 705.4 729.6 744.8 743 754.3 762.8 754.5 743.5 728.9 712.8 700.8 682.3 669.4 661.2 657.3 657.8 656.3 658.7 659.4 659.4 656.5 650.2 640.4 634 630.1 625.9 620.2 617.1 608.8 599 586.3 572.7 554.3 537.3 526.8 524 519.5 528.3 539.5 552.7 574.6 585.8 601.9 616 621.9 624.9 630.5 630.4 628.6 624.3 615.4 606 592.8 578.7 568.5 559.5 549.3 536.5 535.4 531.2 528.8 522.6 524.1 529.3 508.2 504.7 498.3 490.8 498.1 499.1 502.7 519.8 525.6 529.2 519.6 504.4 461.2 388.8 361.4 336.7 309.5 284.7 256.4 242 223.8 218.9 204 185.6 171.5 160.3 150.6 141.3 144.4 141.9 140.9 146.9 162 178.2 188.9 212 226.9 244.3 260.2
468.1 465.9 464.5 460.4 458.6 457 452.2 445.4 439.4 431.5 421.5 412.7 403.9 396.1 388.7 380.7 371.7 365.5 359.3 350 343.6 340 338.2 336.3 336.4 338 344.6 349.8 353.6 358.7 367.4 378.6 384.3 371.8 359.4 346.8 341 341.7 345.5 350.3 359.6 380.2 382.9 384.6 372.9 355.1 335.6 325.2 304.7 278.1 246.6 234.8 258.7 254.4 258.2 270.8 251.1 265.4 282.1 298.6 329.4 366.9 384.2 399.3 404.8 411.6 416.6 415.3 412.6 406 392.9 381.4 371.9 369 367.2 366 367.9 376 378 381.8 395.3 402 410 420.6 437.1 453 473.2 495.9 522.7 549.2 573.2 599.6 620.9 636.8 650 660.4 673 683.6 700.5 721.6 730.2 745.3 754 749 744.6 724.3 701.2 685.4 669.7 661.3 654.3 650.6 652.1 654.4 655.1 655.7 658.1 654.6 648.6 641.6 638.7 634.9 634.7 632.6 631.3 628.7 619 603.2 592.1 569.5 546.1 534 526.3 522 523.2 528.8 540.1 558.6 578.1 581.4 598.8 618.8 619.3 619.9 622 618.3 613.2 608.5 598.5 586.3 573.4 562.2 550.2 545 541.1 534.9 527.8 524.3 515.5 514.8 515.8 500 491.9 490.9 483.5 478.9 486.8 499.5 504.8 515.3 527.4 520.9 508 468.7 402.7 368.4 348.5 315.4 285.2 262.5 249.9 239 229.1 213.7 200.3 187.9 167.1 154 142.9 137.2 138.8 133.4 136.1 151 163.6 174.5 193.8 205 231.1 245.1
463.3 464.9 463.4 458.2 454.9 452 446.7 443.6 432.7 421.9 413.5 405.1 396.8 389.7 382.1 372 365.5 358.4 350.3 342.2 336.3 332.3 331.5 331.4 333.1 336 344.6 352.1 354.7 357.3 364.3 370.9 382.5 369.7 355.2 345.8 336.4 334.8 343.1 351.4 350.8 369 375.7 373 358.1 336.4 324.5 317.2 302.8 275.3 243.8 225.3 244.9 236.9 251.3 255.4 240.7 273.5 281.7 297.7 322.7 374.6 387.9 398.5 411.7 419.7 421.7 421.7 416.6 407.4 392.1 377.4 370 366.4 360.3 352.4 352.4 353.6 357.5 364.2 373.1 377.5 391.2 402.4 420.5 436.1 461.5 488.7 510.1 531.4 563 590.2 610.5 626.3 641.9 649.4 661.4 671.5 684.9 701.4 719.2 727.8 740.5 744.2 731.2 708.3 690.2 674.5 663 653.6 646 647.4 651.5 650.9 651.2 652.4 655 652.1 649.4 645.7 643.8 645.8 645.3 646.2 648.5 645.3 635.9 623.3 606.7 583.9 557.8 540.4 527 522.4 522.2 524.8 532 545.9 553 566.2 572.7 587.9 598.9 607.1 611.7 613.5 607.4 603.5 597.8 588.6 570.9 561 550.2 543 540 534.9 527.2 526.8 511.1 501.3 508.7 491.7 477.7 476 473.1 468.6 479.8 487.3 495.5 498 504.8 513 510.2 486.4 415.1 389.4 354.7 327.8 295.5 273.1 262.4 253.9 241 229 209.8 190.2 175 161.8 150.9 142.8 131.1 130.5 129.7 143.5 152.7 163.3 177.1 197 218.3 229.4
460.8 460.1 457.5 452.6 448.4 445 442 438.9 432.6 421.7 410.3 399.6 391.2 384.1 375.4 366.4 357.1 351.1 343 336.8 331.8 328.2 326.3 329.8 332.5 335.8 342.4 353.6 356.4 358.2 361.4 370.7 379 376.2 350.4 343.9 334.4 331.9 336.5 344.7 342.3 349.7 364.4 371.6 358.2 335.9 324.8 316.2 303.7 283.4 246.7 217 224.2 222.6 229.1 229.7 235.1 254.5 274.7 298.3 321.1 353.2 390.9 406.6 417.3 425.9 425.8 425.4 419.4 409.8 390 375.1 367.5 365.9 358.9 347.2 342.6 341.7 343 347.9 357.5 363.1 380.8 396.3 407.7 429.6 454.1 468.1 494.4 524.4 555.5 580.7 597.6 616.2 630.3 642.3 653.2 664.3 674.8 688.3 703 714.1 720.6 730.6 717.5 698 679.4 669.9 658.9 646.8 639.1 645.4 650.3 651.3 650 652.6 654.9 653.4 651.8 651.9 649.5 652.2 656.7 658.4 657.8 660 647.7 634.7 612.6 589.2 565.8 542.7 529.4 525.7 524.6 522.5 525.1 537.4 548.4 558.5 565 575.7 588.3 595.8 600 602.6 602.8 603.6 596.1 584.2 569.5 559.6 543 541.9 536.3 533.4 522.7 516.8 500.2 491.6 486.5 478.8 464.4 461.9 457.5 460.2 465.7 476.4 478.6 483.7 495.1 502.1 498.7 472.6 426.6 398.9 378.8 339.8 308.3 291.9 279.1 262.4 246.7 229.9 208.7 195.6 181.3 167.4 159.4 143.9 130.2 128.5 127.6 136.9 143.6 156 165.7 183.1 200.5 220
459.3 458.2 460 452.9 446.3 439.2 435.8 431 426.7 421.2 409.2 397.4 387.6 379.5 368.1 360.2 351.4 344 337.3 331.6 328.6 325.5 322.9 324.4 334.5 341.4 345.1 349.7 360.1 366.9 365.3 365.9 375.1 357.8 342.4 336 332.3 329.6 328.9 330.9 332.2 342.1 348 358.5 338.2 324.6 317.9 313.6 305.3 299.9 259.9 230.1 209.1 211.4 210.4 204.9 227.5 246.7 272.1 298.3 322.6 360.9 390.2 409.9 422.2 427.6 429.6 428.1 420.9 409.5 395.9 375.3 361.8 358.5 358.1 345.4 339.1 341 342.5 346.3 351 361.1 373.5 388.2 405 423.2 444.3 465.7 491.3 514.8 538.4 563.7 586.3 600.2 620 634.3 646.2 660.9 673 684.5 697.6 707 712.1 716.2 710.7 686.9 670.4 661.4 651.5 638.9 637.3 645.3 667.3 652.6 653.6 659.6 657.3 657.4 657.7 659.1 657.7 660.9 663.6 665.4 666.4 663.4 655.7 640.5 621.8 594.7 571.2 548.6 535.7 531.1 526.9 522.5 522.5 531.4 544.3 547.5 552.4 562.4 574.8 584.7 587.9 590.7 592.1 610 604.9 588.1 573.1 558.8 543.5 541.9 539 533.6 518.6 511.3 492.6 478.1 469.2 459.6 453.6 445.5 447.3 448 453.1 458.7 461.7 470.2 479.2 483.7 482.9 467.4 439.9 418.7 396.4 357.6 324.8 316 306.6 284 255.1 233.8 217.1 201.9 187 168.5 154.9 140.7 130.2 126.3 126 132.8 141.4 148.9 156.6 167.5 190.1 201.4
459.4 454.2 456 449.2 443.7 435.3 429.8 423.1 417.9 416.2 406 395 384.2 378.8 366.8 355.4 347.7 339.8 332.6 328.1 324.3 322.4 320.5 326.4 338.8 351.1 352.4 352.6 362.3 373.5 372.1 373 375 352.4 338.6 333.5 331.8 328.4 325.5 323.1 325.4 337.5 345.5 342.5 331.2 324.9 320.7 318.1 297.6 283.3 262.9 233.7 209.2 199.3 198.3 201.5 221 243.9 268.9 295.3 328.1 363.7 397.1 416.2 427.2 433 434.6 430.8 423.7 412.8 396.1 374.6 356.5 353.1 349.7 343.8 338.2 340.2 342.4 345.6 351.4 359.3 370.3 384 399.3 419.7 442.5 462.7 479.9 491.7 519.3 541 557.9 588.5 612.1 631.7 646 662 678.8 691 697.5 704.3 709 716.5 710.2 682 664.4 651.6 642.6 633.6 625.2 634.8 638.9 638 657.5 663.6 664.8 663.8 665.2 664.9 662.6 662.3 669.9 671.9 672 673.8 668.4 648 627 603.1 579.7 558.7 543.4 534.5 529.9 525.4 522.5 527.1 535.7 537.6 541.6 547.7 557.6 572.1 580.2 581.9 578.8 578.2 579.7 570.5 558.6 556.5 546.8 544.8 543.7 532.9 518 505 485.7 473.5 464.1 450.1 442.7 436.7 432.7 432.9 438.4 443.9 446.6 453.7 462.6 464.4 465.3 457 449.1 428.7 404.5 372.2 352.2 348.7 322.6 291.1 265.3 237.9 215.9 194 180.6 167.6 151.2 139.2 128.1 124.9 124.7 130.7 137 144.5 146 154.8 170.8 184.9
458 453.6 447.3 446.1 441.1 432.8 425.7 420.1 412.5 406 398.3 389.2 381.3 374 362.1 353.6 346.5 338.9 329.9 325.6 322.1 320.7 318.4 325.4 342.6 352.2 351.4 356.4 356.6 373.4 367.5 370.6 372 342 335.1 332.5 331.3 326.8 322.9 321.6 322.7 341.9 346 344.3 337.8 325.7 331.1 323.6 312.1 279.7 256.2 233.4 210.9 194 188.1 195.2 215.8 241.5 269.6 305.7 328.4 363.6 398.6 420.9 431.1 438.7 439 435.8 429.7 414.8 393.4 374.9 360.2 352 344.4 338.8 338.2 338.2 341.6 344.4 349.2 356.7 369.4 383.3 399.8 416.3 432.4 449.3 474.4 503.9 530.3 556.6 584.8 607.1 625.6 640.1 651.1 673.3 697.8 704.1 714.4 710.2 710.7 718.5 714.1 676.9 657.2 644.5 635.3 625.4 614.5 631.3 632.3 630.5 636.3 661.5 667.4 672.6 674 666.7 663.4 658.8 664.8 675.6 678.8 693.3 685.9 665.6 636.2 613 589.2 567.3 554 541.4 533.2 526.9 522.8 527.3 528.8 530.5 532.4 534.9 544.5 547.4 564.2 577 570 566.7 561.4 562.4 557.8 550 548.6 548.9 543.3 534.6 520.1 504.6 485.3 472 454.1 445.5 431.1 425 417.6 415.2 422.7 438.6 432 438.8 445.8 447.4 450.8 452.4 447.7 438.1 424.8 401 385.3 366.7 344 298.5 267.4 233 205.8 187.4 171.7 154.1 144.4 133.4 127.1 124.6 122.5 123.6 126.8 136.9 140.9 145.8 154.3 166.4
454.6 446.2 445 440.8 436 427.7 422.4 416.9 410.4 402.5 394.4 385.4 376.4 367 357.9 351.3 345.2 339.5 332.9 323 319.1 318.2 315.9 317 320 330.6 333.4 340.5 344.3 344.8 354.3 366.6 354.2 336.4 332.3 331.8 333.4 324.6 321.7 322 328.4 354.7 338.4 325.3 321.7 324.8 323.1 310.4 297.3 282.9 258.5 233.9 208.8 191.2 184.7 199.4 215.9 240.2 266.6 301.7 327.1 364.5 401.4 422.6 437.1 441.2 445.1 443.2 434.7 417 397 381.6 364.4 350.9 342.4 338.2 337.4 337.8 340.5 343.3 346.5 355.2 366.4 378.5 395 411.4 429.2 449.3 479.2 512.7 540.8 566.6 592.6 619.2 632.4 652.2 664.4 698.1 708.4 718.8 723.9 719 719.8 717.3 710.8 674.3 652.7 637.2 625.1 618 604.9 609.5 612.3 616.6 620.5 643.3 670.8 679.8 673.8 668 661 656.4 663.9 677.6 682.9 698.3 690.3 683.3 653.9 625.1 600.5 580.2 561.2 548.6 537.3 529.6 525.2 525.3 526.4 526.9 528 525.8 529 533.6 534.1 545.6 566.5 562.8 558 555.2 550.1 543.1 543.7 546.3 546 535.2 521.6 509.1 491.7 468 452.6 434.4 422.2 405.3 403.5 398 401.5 407.6 412.3 419.9 426.1 427.3 431 443.7 443.7 436.9 429.4 420.5 396 377.2 346 302.4 267.5 237.6 203.6 181.3 163.4 147.8 133.9 128.1 126.6 124.1 121.7 121.6 124 128.1 132.2 136.9 147.6 153
443 437.9 436.2 434.1 430.9 424.2 420.2 415.8 406.9 397.8 390 385 371.3 363.2 356.6 349.4 343 336.4 330.5 322.7 316.9 314.7 314.1 314 314.5 315.6 314.6 326.1 339.2 342.1 340.9 347.6 341.3 334.1 331.2 325.7 324.9 322.1 320.5 324.7 344.5 335.6 328.6 322.1 314 318.7 316.6 309.5 295.6 283.1 259.5 227.4 201.7 187.5 181.6 200.9 222.1 241.6 270.3 298.6 331 365.7 414.6 430.1 440.7 449 449.5 446.3 436.1 424.6 403.9 389.1 371.4 357.2 347.8 341.1 337 338 338 338.9 342.6 350 359.7 374 392.9 407.8 428.3 447.1 477 510.5 538.9 574.9 594.9 623.2 642.2 659.3 675.8 692 704.6 723 724.2 731.9 726.3 721 704 672.1 647.6 631.6 619.1 607.5 596.3 598 603.2 604.2 610 633.3 654.8 661.9 667.6 667.3 658.8 655.7 656.4 677.1 684.4 683.1 679.5 683.2 663.8 639.9 619.4 586 570.4 553.5 542.9 536.6 530.1 527.2 526.2 525 522.4 520.8 521.8 524.2 522.4 528.9 540.4 543.2 555.2 546 540.2 539.5 538.2 540.2 536.9 536.8 526.5 514.1 494.7 474.5 449.4 431.4 417.5 394.6 379.6 371 375.4 383.2 391.9 409 412.3 407.1 407.9 411.4 420.8 422.9 423.3 413.9 388.4 378.4 342 303.4 270 241.2 207.9 176.1 156.6 141.2 131.7 128.7 126.7 124.1 124 118.1 123 123.6 125 131 136.9 142
431.4 431.2 429.8 429.6 427.2 419 413.6 410.1 404.2 394.6 387.9 378.3 366.6 359.2 355.8 354.3 345.9 338.4 329.3 321 316.9 312.7 311.4 311.9 312.8 313.2 314.9 322.2 336.5 340.2 335.2 336.8 335 338 328.3 321.9 320.9 320.7 321.2 337.1 352.1 341.7 326 315.4 312.1 317.2 309.1 305.7 294.9 279.9 263.6 227.7 187.4 173.9 189.4 206.3 227.3 250.5 278.2 305.9 336.9 369.7 402.9 433.8 444 450.4 452.5 451.5 441.7 430 414.9 399.4 382.1 367.2 356.6 347.7 338.4 336.9 333.7 335.5 338.5 342.5 351.9 366 382.7 401.3 421.8 442.9 471.7 503 540.2 577.7 595.7 622.1 642.6 660.9 682.7 692.2 705.9 719.2 730.1 731.9 726.9 728.9 712.9 669.5 641.9 624 610.6 596.9 589.8 593.1 596.8 603.9 603.2 615 627.9 637 640.1 644.2 652.2 648.9 651 666.7 686.6 675 669.2 667.2 662.9 645.2 627.1 604.8 575.7 559 549.9 541.3 536.6 530.4 528.7 524.3 519.6 516.5 517.4 514 514.5 518.2 523.3 530.6 538.9 529 531 530.9 530.8 529.7 530.8 529.8 522 518.6 489.7 461.5 442.1 423.1 407.8 388.3 367.7 348.6 349.8 357.1 358.9 361.2 370.4 365.8 372.7 380.3 389.8 399 401.4 397.2 384 376.8 358 324.7 277.8 242.9 211.1 178.2 152.3 137.2 132.9 129.5 126.8 125.9 127.4 121.7 114 114.7 120.5 125 125.2 128.7
423 423 426.7 425.4 422.1 416 408 400.5 399.2 391.7 381.5 372.2 360.3 356.3 354.9 356.2 356.2 339.1 328.7 321.7 314.8 312.2 310.3 309.8 309.7 314 320.7 323.3 338.4 329.2 331.5 327.7 338.5 341 325.1 320.4 320.3 320.8 325.6 356.3 340.6 327.2 316.2 310.8 307.8 321.7 303.8 286.3 276 255.5 220.5 201 176.9 179.5 193.1 212.1 231.7 257.6 283.1 311 342.6 373 407.2 426.5 444.1 452.4 457.7 458.1 449.4 438.9 423.9 408.5 394.7 379.1 362.4 352.9 344.5 339.3 333.4 332.1 334.5 337.1 343.1 358.1 372.2 389.6 413.2 439.6 471.3 497.4 538.2 574.6 591.8 623.7 640.6 656.8 686.1 699.3 711.4 725.7 736.7 732.9 728.2 726 712.5 670.4 636.9 617.9 604.8 592.9 585.6 589.5 594.8 587.2 593.1 604.2 610 614.1 619.9 626.2 632.5 644.2 639.2 646.3 662.5 662.2 659 660.3 653.7 644.7 630.6 611.4 587 566.9 555.1 544.2 539.4 533.5 527.9 523.8 517.8 514.3 513.5 510.8 506.6 503.6 506.1 510.7 516.2 516 524.6 524.6 522.8 523.4 524.7 524.9 519.5 509 492.8 458.7 435.8 417 396.6 384.3 360.3 343.6 321.4 323 327.4 328.7 331.2 332.4 340.5 347.8 356.3 361.5 373.1 378 364.9 353.1 331.6 298.9 265.3 233.9 199.7 174.4 155.1 140.2 134.5 130.2 130.2 128.8 127.5 121.2 117 113.9 112.5 113.4 118.2 123.6
418 418.3 422.7 426.7 414.9 407.4 401.8 393.4 391.1 386.3 375.4 368.2 354.7 351.3 353.4 352.6 349 337.8 329 325.1 315.1 311.6 309.8 309 308.7 311.8 314.8 320.2 326.1 319.9 329.4 322.8 339.7 333.8 328 320.3 321.4 323.3 343 342.8 333.9 317 310.1 308 304.7 307 306.5 281.5 264.3 235.7 205.1 185.4 170.6 181.2 197.6 217.2 237.4 263.5 287.1 313.8 348.2 380.5 416.3 434.8 460.5 463 464.8 463.4 457.8 446.6 431.6 417.8 402.5 384.7 368.1 356.2 350.7 340.3 334.4 331.3 331.6 334.6 340.3 351 365.9 381.9 407.8 435.6 468 494.1 526.3 554.9 579.2 617.2 635.6 654.7 684.3 701.6 711.9 730.1 735.2 729.9 732.1 722.3 711.9 686.2 633.5 612.1 599.6 588.6 575.6 583.5 580.9 580.9 588.2 597.3 595.6 596.4 600.8 610.3 621.1 627.2 631.2 630.2 642 649.3 645.5 645.4 641.2 637.3 630.1 615.9 594.5 573.5 559.1 547.6 539.2 535.3 527 520.3 516.7 510.2 504.6 505.2 499.4 498.8 496.5 497 503.5 509.6 517.6 516.3 515.3 515.6 517.8 521.3 522.7 504.4 482.5 454.3 427.7 408.2 388.4 370.8 351.8 334.8 321.8 305.1 306.9 308.9 305.2 307.8 312.7 315.6 321.7 325.7 344.1 345.7 335.5 306.4 288.8 253.7 225.9 204.6 184.9 167.9 152.8 144.5 137.7 132.9 135.1 134.7 139.1 139.2 129.5 115.8 111.6 111.4 110.3 123.1
416.3 416.1 416.1 419 409 399.8 393.4 385.9 383.3 374.6 368 362.4 350.4 348.7 348.4 346 341.5 335.4 330.2 329.3 317.4 311 308.7 307.9 306.9 309.6 312.7 314.2 317.8 316.6 317.2 318.7 321.3 319.6 326.1 319.7 322.9 325.1 335.9 351.5 329.6 312 309.2 308.9 311.8 299 296.6 283.5 252.5 219.1 190.4 176.4 170.9 182.3 199.8 222.8 245.7 270.8 296.7 324.1 350.9 391.3 423.7 440.4 466.4 472.7 473.4 471.9 468 453.7 438.2 424.7 410.4 388.6 375.4 356.7 352.4 343.1 334.4 330.4 327.4 329.6 335.4 346.1 362.1 380.3 402.5 428.9 461.6 486.5 513.2 541.4 574.8 605.4 624 640.5 657.5 689.5 694.2 720.3 733 727.5 733.9 724.2 705.5 682.1 656.2 608.1 591.3 585.5 574.3 567.7 566.4 569.2 573.2 586.6 590.5 587.8 592.2 594 602 620.4 623.6 617.1 622.3 623.5 634.4 627.4 626.4 624.7 620.5 613.4 598 577.5 564.1 552.5 542 534.8 529.8 520.4 518.2 511.2 499 492.6 490.7 487.8 489.5 492.8 493.4 502.9 507.3 509.2 507.7 510.9 513 510.2 505.4 505 469.6 444.4 429.5 405.1 380.8 360 342.9 329.7 314 305.9 294.9 293.8 289 286.6 288.2 286.6 289 295.3 320.6 326.1 307.3 278.9 250.5 230.9 207.6 189.5 174.5 163.1 154.7 150.1 146.9 145.3 143.7 142.2 152.3 150.8 142.2 131.1 120.3 110.9 110.1 112.9
415.5 413.4 410.7 404.6 401.8 389.5 385.8 379.2 375.5 371 364.2 358.2 349 344.8 345.6 341.8 337.4 336.1 335.1 332.5 321.3 313.6 307.7 306.7 306.2 308.1 313.9 318.3 314.6 315.2 316 317 318.3 318.8 320.9 319.4 320.5 325.6 329.6 349.2 327.4 309.7 309.3 313.6 309.2 293.3 290.7 269.6 233.3 198.9 174.8 170.8 172.9 188.1 208.1 232 255.7 278.3 305.1 332.7 364.5 400.9 432.7 446.2 458.3 466.2 473.2 474.1 469.9 457.4 440.9 426.2 414.4 395.6 377.5 360.5 354.2 343.7 334 327.6 325.5 326.2 331.2 345.7 365.6 381.2 397.3 418.7 452.3 482.8 503.6 527.8 553.6 600.8 607 623.6 644.8 663.6 670.7 693.6 717.4 711.8 718.4 721.8 703.1 672.4 656.3 609 586.8 578.1 567.3 556.3 556.1 556.4 561 576.7 588.3 585.4 585.3 584.9 594 606.1 608.5 606.1 605.4 607.5 616.2 617.9 615.6 617.2 621 619.5 602.6 584.8 566.3 559 542.8 538.2 531.1 522.4 513.1 509.2 498.4 486.6 478.2 478.2 479.5 482.4 487.3 494.7 500.8 501.6 500.7 505.3 507.2 500.9 496.5 483.8 460.9 446.8 426.2 396.3 371.9 357.1 334.3 320.8 309.8 299.2 290.4 280.2 274.5 268.7 262 262 259.3 263.5 277 287.8 286.9 271.5 234.1 210 194.6 180.6 173 166.3 159.2 161.4 159.1 157 152.2 148.8 147.4 150.1 168.1 139.6 120.9 111.1 109.8 109.1
407.6 408.6 410.4 401.4 393.6 385.9 381.3 371.6 370.1 367.3 364.2 362.2 348.3 343.4 343.6 341.9 341.3 341.2 342.8 337.5 329.5 316 307.7 305.4 306.2 308.1 321.3 323.3 315.5 315.3 314.9 316.6 317.1 317.4 317.8 320.4 322 323.7 338.9 336.2 332.5 311.9 311.9 318.3 304.4 294.9 273.6 247.3 216.6 183.4 169.2 167.2 177 193.7 215.9 236.3 258.4 284.1 312.7 343.8 375.1 431.5 444 453.5 463.9 470.5 475.1 475.8 467.8 459.4 447.1 434 419.5 400.7 384.2 368.2 356.2 340.7 331.2 325.6 325 324.7 329.9 341.7 361.6 379 392.8 409.8 437.2 464.1 491.8 517.8 540.8 569.4 601 608.8 625.4 640.2 655.6 662.3 687.6 695.6 719.1 717.5 695.6 671.1 647.3 609.9 581.9 566.9 556.6 545.8 541.4 545.7 547.7 550.9 558.7 572 574.6 578.1 591.1 591.7 595.2 593.9 593.9 597.1 602 607.2 608.2 613.1 616 612.4 609.7 588.2 573 563.8 551.1 540.7 529.3 518.3 507.9 502.3 496 483 474.8 469 471.5 472.9 478.1 483.9 485.7 490.4 494.1 494.1 489.3 488.3 484.7 472.2 457.5 442.1 423.9 407.9 378.7 352 337 319.7 309.6 300 291.7 272.4 255.7 252.3 241.3 233.7 234 235.8 238.4 242 245.7 233.5 211.4 198.7 186.1 177.2 171.5 170.3 169.4 168.9 169.5 167.6 170.4 161 143.1 135.5 133.6 124.7 116.6 112.1 109.7 109.4
404.3 403.4 405.3 391.5 385.3 379.6 375 368.4 367.1 366.5 370.2 363.8 355.7 342.6 341.4 345.6 360.1 355.8 346.8 340 333.2 323.7 309 304.3 305.9 319.2 328.9 327 315.9 315.8 317.1 319.5 319.3 319.4 318.9 320.3 323.7 330.7 343.7 340.6 332.4 316.9 317.4 311.2 297 278.6 255.8 227.1 203.7 175.5 165.3 166.7 180.7 199.9 220.8 239.3 264.6 291.4 319.6 350.1 390 443.7 460.2 476.6 476.4 478.8 479.6 476.3 470.5 461.5 451.6 440.6 428.2 410.5 390 372 358.3 345.9 336.2 325 324.8 323.8 327.2 337.1 356.2 372.9 389.2 406.5 427 455.9 482.9 508 532.5 555.6 579.9 598.2 611.6 624.3 637.4 644.5 660.7 682.9 697.8 700.5 686.6 665.4 639.5 605.9 575.1 560.6 546.8 536.7 535.3 535.1 536.9 536 540 543.6 547.5 557 564.2 570.3 574.8 579.3 581 587.6 595 599.6 603 607.4 610.9 610 599.1 588.3 580.3 563.6 552.1 547.6 527.8 515.8 502.4 492.3 488.6 480.6 469.9 457.7 454.7 458.4 462.8 469.6 473.6 477.8 476.3 477.7 477.1 477.4 474.6 463.7 458 445.2 421.2 403.5 372.4 351.7 334.2 318.2 306.5 296.4 281.9 266.7 251.1 232.7 221.5 210.3 207.7 209.5 209.2 209.2 206.2 203.8 199.5 191.4 182.7 177 174.3 175.6 177.5 182.7 181.4 174.9 171.9 150.3 143.1 128.5 121 117.1 113.5 113.8 110.9 110.1
403.1 399.2 393.9 386.7 380.9 378.6 369.9 368 367.7 377.2 372.1 364.8 353.5 342.2 341.2 347 358.6 366.7 353.4 344.9 334.9 321 306.1 303.9 309.5 321.9 335 329.5 316.7 315.6 317.2 322.1 324.1 324.5 319.7 319.3 329.3 333.2 338 339 329.6 317.5 307.5 304.6 268.5 244.3 227.1 212.5 189.6 170.1 163.5 169.4 182.5 202.8 224.6 247.7 271.6 299.2 329.2 364.5 406.2 443.5 471.3 483.8 488.7 483.8 478.6 476.5 469.5 460.6 457.3 447.4 438.4 421.9 402.3 387.4 370.8 355.3 342 332.3 325.9 322.8 322.6 330.4 344.2 363.4 380.7 398.4 415.2 439.9 469.8 494.6 521 545.7 566.1 585.6 601.5 611.6 624.8 632.8 640.8 664.4 679.2 678.3 668.5 666.1 628.3 589.5 566.8 551.4 537.2 527.3 521.8 523.5 524.1 524.2 531.8 537.6 539.2 542.3 549.1 550.1 554.4 560.2 571.7 579.2 585.7 591.8 598 602.2 605.2 599.6 595.1 589.3 578.6 563.3 550.4 544.5 527.7 512.6 497 490.2 479.8 469.6 453.6 442 441.7 443 451 455 457.9 465.4 466.7 469.1 470.1 466.2 465.5 464.2 462.9 444.5 413.3 395.8 371.6 348.8 337 323.7 302.8 289.5 275 259.4 243.8 230.6 215.4 201.1 191.5 188.8 183.4 180.2 181 180 180.5 179.2 175.8 173.5 175 177.3 184.1 182.5 172.4 165.6 156.4 138.9 133 122.7 117.5 115.2 113.6 112.2 111.2 110.2
400.9 392.4 387.4 380 376 372.3 369.2 368.5 372.2 371.2 370.9 362.3 354 341.5 340.5 344.6 359.3 359.8 350.5 331.5 316.8 310.8 304.3 308.7 316.9 330.2 333.3 336.5 318.5 316.4 317 326 325.9 323.6 320.3 322.2 336.7 334.4 332.3 331.8 327 318.9 309.4 268.9 242.4 219 201.3 194.9 176.4 165.1 162.2 170.8 182.4 203.5 226.3 254.5 279.4 307 338.4 376.4 413.8 442.8 484.6 494.3 492.3 484.2 479 472.2 469.3 467.4 456.2 449.2 446.9 432.7 412.8 392.1 374.9 361.6 346.1 334.8 326.8 323.1 322.3 324.9 335.5 354.2 373.4 392 404.5 430.2 456.9 478.7 505.2 530.1 555.8 576.4 591.5 602.2 613.4 621 625.6 639.1 643.4 652.8 649.3 650.9 623.7 582 556.5 541.6 527.1 517.5 509.7 511.8 512.7 510.7 516.8 522.3 527.6 533.9 535.9 537.4 544 554.3 562 569 576.2 584.5 593.7 599.9 604 602.7 598.2 583.7 578.3 560.5 550.3 544.2 526.4 510.8 496.7 482.5 481.3 477 459.8 427.1 434.3 431 439.5 443.8 450.1 452.8 458.2 460.2 460.5 461.3 460.5 460.6 461.4 446.7 414.2 387.8 376 353.2 342.8 322.4 314.4 290.9 270.3 251.9 238.6 224.4 207.1 192.1 183.2 180.2 175.1 169.8 167.3 164.9 166.8 168.5 166.1 169.3 171.9 175.4 176.5 174.2 162.3 157 142 137.9 130.6 125.2 117.7 116.7 114.6 113 111.5 110.3
393.7 388.2 384.3 379.6 377.3 371.6 369.3 369.1 367.8 367 359.8 358.9 356.5 340.6 341 348.8 351.5 353.8 347.2 326.4 308.3 303.3 303.2 316.6 326.6 329.1 335.8 324.3 320.3 319.8 318.4 324.8 331.3 330 322.4 332.2 349 335.7 319.2 322.3 318.7 307.1 291.4 239 216.7 198 181.2 174.7 165.7 159 165.1 175 188.5 209.3 233.4 261 288.9 319.5 354 409.3 429.6 451 487.5 478 484.5 479.6 478.4 470.2 469.5 466.5 464.7 462.4 455.3 438.6 417.2 394.5 375.8 364.1 350.8 337 327.8 323.1 322.3 323.8 328 345.3 365.7 379.8 396.1 414.9 439.4 464.7 490 515.3 542.2 565.4 578.7 593.7 603 609.7 611 613.9 626.2 633.8 633.6 630.8 614 576.4 547.9 533.7 518.6 505.1 493.8 497.4 495.9 498.1 503 507.6 512 518.5 523.4 531.1 538.5 548.7 554 562.6 569.4 573 579.8 577.2 584 590.8 596.4 578.5 569.5 555.5 548.5 541.3 523.1 507.1 499.1 482.1 476.6 469.7 444.7 420.6 412.1 417.1 426.3 435.9 441.6 438.9 444.4 440.6 449.9 451.1 449.2 450.8 455.4 446.1 413.5 385.8 368.3 355.5 347.3 334.3 315.2 286.9 268.4 254.2 238.4 221.1 201.3 184.8 175.6 175.2 173.4 170.6 165.4 165.2 162.1 158.6 165.5 161.4 166.5 169.7 163.2 158 154.5 148.9 138.5 133.4 130.6 121.7 120 116.3 114.2 112.7 111.6 110.3
384.9 381.1 381 379.5 374.6 374.9 373.2 370.5 368 367.7 359 353.6 354.4 342.1 339.5 359.3 349.1 335.1 325.1 316.1 298.8 297 308.3 321.3 333 331.2 320 316.4 321.4 323.7 322.7 323.5 324.5 327.4 335.9 338.1 339.2 334.7 313.7 312.1 304.8 295 236.2 213.4 194 174.6 161.9 158.5 156.6 152.2 169 179.6 196 215.8 243.5 269.1 297.3 328.1 369.5 435.8 446.3 456.6 460.7 472.5 470.1 467.7 472.7 468.8 467.6 467.3 469.1 469.6 466.2 444.1 422.7 401 382.6 365.4 353.3 339.8 331.5 325.9 322.3 321.6 322.6 337.1 353.4 369.9 389.2 405.3 428.4 452.1 475.7 498.3 529.5 549.2 564.6 579.2 594.9 600.3 601.3 601.7 600.8 608.5 618.4 607.1 590.7 562.6 549.1 523.9 506.9 494.2 483.2 483.7 485.6 489.3 489.4 493.8 498.2 503.2 511 520.9 529.7 538.8 544.3 551.8 557.5 559.9 569.7 573.6 572.8 570.7 575 570.6 557.9 551.1 546.1 535.6 515.8 498.8 493.2 481.7 454.8 445.2 426.5 411.7 396.2 404.7 415.5 422.8 429.4 431.9 430.5 428.7 435.4 435 431.8 442.2 432.5 412.2 395.8 379.9 371.2 366.6 351.2 334.1 313.9 292.9 273.7 255.9 234 216.1 197.1 183.4 174.5 170 167.2 165.2 161.9 161.1 158 156.4 155.2 161.9 160.5 161.9 150 157 151.3 148.6 143.1 131.7 139.8 144.2 129 118.6 114.3 112.4 112.2 111.4
377.7 377.1 377.9 375.2 375.5 372.4 379 375.6 373.7 366.8 359.1 352.2 348.9 339.2 335.3 330.1 325.3 322 313.8 300 293.1 304.4 316.1 324.9 324.8 319.4 311 319.8 323 328.9 334.9 327.9 321.3 329.4 336.7 317.5 312.5 319.2 295.2 284.3 269.2 232.6 208.2 187.9 166.7 159.8 152.4 152.9 152.5 158.5 172 188.8 206.7 229 253.1 277.6 308.2 337.3 367.4 435.5 464.8 459.4 461 464.1 462.1 462.6 466 468.3 471.9 477 470.9 470.4 462.2 447.2 430.1 409.3 388.5 371.4 357.8 344.3 334.7 329.1 323 322.2 325.6 335.8 347.2 361.6 378.4 396.7 414.1 436.4 460.2 482.9 513.4 533.7 549.5 565.9 578.9 584.9 591.3 590.5 591.6 588.2 590.5 582.2 568.6 562.3 542.5 519.5 496.8 484.4 478.8 467.1 473.1 474.1 477.8 482.7 486.9 488.3 501 510.5 520.9 528.9 537.6 542.1 550.9 553.2 559.6 559.5 560.8 560.6 565.9 557 551.8 543.6 538.5 522.1 500 488.9 486.6 472.9 460.7 424.3 412.2 401.7 384.4 396.6 409.3 418.6 425.2 416.5 420 421.6 423.1 418.9 417.4 420.6 409.9 398.6 384.6 377.4 372.9 369.5 356.2 340.2 324.6 300.2 283.5 263.7 242.4 227.1 205.2 190.6 182.1 178.4 176.1 174.1 169.1 164 158.7 156 154.8 155.2 153.5 154.7 149 147.9 144.9 139 136.7 144.6 149.6 141.4 129.7 123.3 118.4 114 113.9 112.6
369.5 367.9 371.8 369.6 369.3 374.4 378.4 382.2 382.8 378.5 370 359.3 354.2 341.7 334.2 327.1 319.5 314 304.1 293 295.5 302.7 303.8 318.2 312 302.4 308.6 322.1 321.8 336.4 341 332.9 325.5 319 316.3 308.4 300.7 292.2 276.4 256.6 234.1 208.4 185.8 169.7 155.4 149.6 147.3 150.6 155.5 167.1 180.2 200.8 225.2 244.9 264.3 289.7 318.6 344.3 372.9 407 443.1 455.3 455.9 461.3 464.4 463.6 463.9 466.5 466.9 468.8 469.6 467 461.8 456.9 436.3 414.6 394.7 375.5 359.2 347.3 338 330.3 324.9 321.9 325.6 332.1 342.6 353.7 368.4 387.8 403.9 420.2 442.2 469.4 498.2 519.6 535.2 547.7 559.8 567.7 575.6 579.4 583.4 583.6 579.2 570 556.7 544.6 530.3 497.3 485.6 476.2 466.5 444.5 462.1 461.3 463.7 468.2 470.4 471.3 487.1 500.2 510.1 519.1 527.9 533.1 546.7 552.1 551.8 553.5 554 557.1 554.7 553.2 543.7 536.3 514.8 500.3 481.3 473.8 471.2 453.1 433.6 411.2 396.5 388.4 377.1 380.7 391.9 400.4 409.5 413.3 406.5 406.2 420.8 417.6 398.8 402.5 392.7 386.3 378.1 374.7 376.3 370.4 357.8 340.6 325.3 312.9 294.2 275 249.8 233.3 215 205.2 198.1 194.3 192.8 190.4 182.8 173.4 168.7 162.4 156.7 155 152.5 156.3 155.6 156 145.5 150.7 152 154.2 149.8 147 143.1 134 124.7 118.5 116.2 114.9
345.9 346.5 346.6 358.8 367 380.7 387.7 389.6 383.9 381.3 382.2 370.6 358.1 345.6 334.3 328.8 329 315.3 297.8 289.7 297.2 291.8 298.7 302.1 296.8 296.8 311.7 317.5 329.8 335.8 330.5 329.7 333.9 326.2 307.1 289.6 284.4 273.1 249.6 234.4 208.4 186.6 165.6 155.7 149.9 147.2 151.5 157.3 166.1 176.1 192.4 212.3 244.6 260.3 280.9 298.9 326.3 351 372 406.4 430.3 446.3 456.3 469.9 471.1 470.7 474.1 472.9 478.5 473.8 468.3 465.2 464.8 451.5 436.8 418.8 401 381.9 363.4 347.4 339.6 331.6 324.9 318.7 323.5 329.2 336.8 345.8 356.2 374.8 393.2 404.3 421.1 457.1 484.8 501.7 517.5 531.8 541.9 548.9 559 565.2 571.6 569.7 557.8 554 547.5 534.8 517.2 488.2 475.1 464.8 454.9 429.5 442.8 447.4 449.4 452.3 453.1 462.9 474.3 486.2 500.1 508.4 513.7 519.1 529.6 537.7 538.3 540.5 543.2 546.3 546.2 533.9 526.3 515.6 498.1 475.6 460.2 449.2 442.3 423.2 414.8 395.7 380.1 370.4 359.7 370.8 377.8 393.4 398.3 403.9 395.3 396 397.6 396 392 385.8 383.9 378.8 374.1 368.1 367.4 360 351.1 344.2 337.3 329.9 312 287.7 266.1 247 233 223.9 218.5 218.3 217.9 213.7 209.1 186.7 180.7 173.2 169.9 175.2 167.4 170.3 169.5 164.2 170.1 172.7 169.3 174.3 165.2 164.2 154.4 143.4 132.2 122.3 118.7 117.9
324.5 336.8 339 349 362.6 381.2 386.9 390.7 386.7 381 378.1 377.5 367.4 345.1 336.6 328.1 324.7 318.8 297.5 290.2 288.1 286.5 289 285.3 284.7 293.7 305.9 303.5 317.2 318.3 320.1 315.1 329.7 303.3 281.4 263 251.8 238.2 220.8 209.3 188.9 165.9 150.1 146.4 144.4 147.7 154.2 165.1 176.6 189.5 205.4 224.5 242.2 269 293.7 315.4 335.7 354.5 391.2 425.1 454.5 457.7 471.6 482.4 484.6 486.8 486.3 483.5 486.6 481.6 477.3 468.5 465.1 452.2 444.4 427.4 406.4 385.9 366.9 352.2 339.4 331.4 326.8 320.7 320.7 328.7 333.6 338.5 344.5 356.7 371.6 386 398.6 432.9 457.1 474.5 491.4 507.4 521.8 528.7 540 549 546.8 547.9 537.8 532.4 529.7 527.5 505.7 482 464.4 452.5 440.8 425.5 423.7 433.7 431.5 434.2 430.7 450.7 461.9 470.6 481.1 493.4 502.9 512.1 510.8 513.1 521.2 521.6 521.7 519.7 519.3 507.1 493.7 486 469.5 439.5 429.4 425 411.9 395 385.6 376.4 364 348.5 348.2 362.3 371.2 377.5 382.2 388.2 388.4 388.4 386.8 386.8 381.5 381.1 379.9 374.2 370.5 368.9 369.3 368.4 366 363.1 356.6 350.8 339.1 319 296.4 276.6 261.1 249.3 245.6 249.1 242 243.8 223 209.9 192.3 183.5 183.6 185.1 184.7 185.2 182.4 186.7 190.9 192.8 188.1 183.7 175.4 171.7 166.6 148.2 138.3 127.3 123 123.4
319.5 322.8 329.9 342.2 373.6 385.6 389.6 394.1 387.3 379.9 378.8 380.8 371.5 347.2 335.2 320.9 319 313 299.2 290.6 274 281.2 280.7 279 276.6 275.9 283.6 277.7 271.1 267.4 264.2 260.3 268.1 281.2 253.4 238.1 229.6 213.5 192.7 181 175.2 148.5 144.1 142.7 144.3 149.2 161.4 175.4 190.1 203.9 218.7 238.7 258.2 281.4 304.8 327.6 351.1 388.3 407.7 448.1 462.8 463 476.5 483.7 498.6 502.6 501.8 495 497.3 488.7 483.1 479.3 469.4 461.2 447.1 429.6 410.1 389.5 369.9 353.7 342 333.3 328.2 322.7 313.8 320.4 322.5 326.4 331.7 343.8 354.4 366.3 375.7 395 418 443.4 459.5 480.6 499 522 524 525.4 524.9 529 519.9 513.6 507.5 498.8 490.4 467.9 455.4 440.1 423.8 406.6 402.2 412.1 413.1 411.6 426.1 438.2 447.6 454.8 463.2 475.1 486 494.1 492 494.2 501.6 503.7 502 498.5 484.2 472.4 462 458.4 437 417.4 401.2 388.1 379.9 370.7 364 356.5 344.8 334.5 344.2 348.3 358.8 375.3 379.4 381.8 383 387 387 382.3 384.6 387.2 382.4 377.4 380.2 380 381.4 386.5 388.9 382.8 379.5 374.9 365.5 356.5 333.9 311.6 305.2 295.9 279.5 279.2 276.9 259.8 246.5 227.2 207.9 201.5 202.5 203.7 203 199.8 199.4 206.5 206.8 208.7 208.3 204.7 197.6 181.4 165.6 151.1 146.6 129.3 130.2 131
313.6 316.4 326.8 341.5 366.6 385.3 391.3 389.5 383.8 384.5 373.8 379.9 374.4 343.2 328.7 314.8 316.6 301.8 297.5 292.4 282.2 261.8 268.2 263.9 254.2 257.9 253.8 248.4 241.8 233.1 226.1 223 224.6 224.3 217.7 212.7 210.5 195.7 171.4 154.7 151.5 141.4 141.1 142.9 151.3 162.8 176.4 193 203.6 218.6 236.9 253.3 275.5 296.8 317.9 342.9 370.9 422.4 432.9 449.4 463.5 471.2 478.8 494 504.9 507.6 507.6 502.5 503.3 496.1 490.1 485.4 474.7 460.3 451.5 430.2 413.8 394.3 373 353.6 342.1 336.4 325.5 317.5 309.8 314.8 315.6 316.1 322.6 331.3 338.4 346.9 357.1 374.1 391.8 415.3 430.6 454.4 474.7 488.9 505.6 504.3 500.6 500.4 496.7 497.2 487.1 474.6 464.6 452.6 428.2 423.2 404.1 392.9 384.7 394.9 398 393.7 412.8 421.9 427.6 431.7 444.8 450.1 461.9 465.9 472.6 463.6 474.5 480.4 479.6 463.3 451.5 441 439.3 415.9 403.7 388.5 375.3 363.5 357.3 347.4 340.6 336.7 329.2 329.7 338 344.5 355.8 370.8 381.6 385 385.6 392.6 388.3 386.5 390.7 391.8 390 387.9 395.1 396.9 398.9 401.6 403.8 401.8 400.7 396.1 401.1 399 382.8 363.2 357 342.6 324.2 310.5 308.7 291.2 267.2 245 232.8 231.9 226.4 223.6 222.2 224 223.2 226.2 225.1 222.3 210.5 207.2 197.7 175.3 162.5 155.2 136 141.6 146.1 141.4
307.6 314.9 320.6 341.9 353.4 382.7 379.7 385.2 371.5 372.1 368.6 376.5 360.5 332.5 320.7 307.6 301.2 299.8 303.2 297.7 291.9 262.7 241.6 248.3 237.4 236.5 230.4 218.9 211.5 206.8 199.1 198.3 197.3 192.9 190.4 188.5 193.5 174.7 152.6 138.4 137.2 139.8 143.6 154.8 165.5 177.8 194.9 213.8 216.1 238.2 251.5 270.6 289 310.9 335.3 370.3 397.4 428.6 453.1 472.1 471.5 481.9 483.5 500.9 510.1 515.9 509.7 502.8 507.8 497.7 494.5 486.8 474 461.9 443.8 429 414.1 400.6 374.1 355.3 339.7 330.4 320.1 307.2 307.2 312.1 312.4 313.5 316.3 321 325.2 332.9 341.6 353.1 371.6 396.1 412.7 432.7 448.5 463.1 474.9 479.1 477.1 482.2 476.5 468.3 468.9 451 446.6 433.8 407.9 395.2 382.4 377.1 368 376.9 377.8 383.9 397 398.9 399.9 405.5 414.6 426.5 433.5 437.6 441.9 436.4 447.1 448.1 442.5 429.4 418 409.7 397.7 384.7 373.1 361.4 353.8 343.5 334 325.8 323.2 324.6 317.8 332.7 341.6 351.6 363.4 384.1 396.5 398.7 398 400.4 399.3 396.5 403.5 405.2 400.9 401.8 414.5 413.2 419.3 420.5 419 419.4 417.2 414.6 417.2 416.8 411 400 385.3 373.8 360.1 358.3 335.8 326.8 289.8 269.7 266.7 258.3 252.3 251.7 250.1 243.9 245.5 238.4 232.2 218.5 207.2 197.2 186.5 170.9 158.6 148.5 156.5 158.2 158.5 156.9
315.4 321.7 327.2 339.1 352.7 355 366.1 371.5 366.5 365.3 352.8 359 356.2 318.7 307.4 300.7 302.7 301.2 305.3 295.4 278.7 275.3 249.8 225 230.7 219.9 210.4 200.8 191.3 185 181.4 178.5 177.4 172.2 165.4 168.9 171.1 153.5 135.6 135.4 139.3 149 159.5 174.4 184.1 190.9 213.1 231.2 242.4 251.8 271.3 289 307.2 323.5 346.4 379.4 407.9 458 465.6 476.9 488.3 488.6 494.7 508.4 524.1 523.9 517.4 505.6 501 498.9 501.1 493.4 480.3 457.6 439.9 424.4 406.6 389.1 372.4 355.5 339 319.5 315.1 298.5 312.6 314.3 312 311.9 311.7 313.9 315.7 321.5 328.2 338.2 354.5 374.8 395.2 405 420.8 437 450.2 452.7 457.4 456.3 449 440.2 432.6 416.2 405 405.2 381.4 370.3 362.8 356.8 347 358.5 353.9 370 371.9 373.3 378.7 382.6 387.8 395.3 403.3 410.2 413.3 408.3 419.9 411.1 406.5 401.9 387 378 366.6 356.1 344.6 338.1 330 323.6 315.6 308.5 311.3 309.3 322.4 337.4 350.5 364.9 381.4 398.4 413 418.8 416.6 416.8 411.5 418.3 419.4 417.8 416.1 419 428.6 428.6 432.4 434.9 436.1 437 433.8 433.1 434.5 426.6 426.1 423.9 412.9 403.6 382.7 362.7 340 313.7 302.7 285.4 282.1 275.8 269.9 263.8 257.5 253.1 251.1 242.8 228.4 213.6 201.2 190.2 179.4 168.9 153.9 163.1 167.7 172.3 174.7 173.9
301.7 319 322.2 335.8 350.3 353.7 362.1 352.1 345 336.5 336.3 333.8 317.8 305.3 297.3 299.4 304.9 291.4 289.5 282.7 277.6 266 244.1 214.9 214.7 203.4 197.7 190.2 180.4 174.6 169.9 166.9 167.7 157 151.8 152.2 152.4 136.5 131.4 136.1 144.9 155.6 169 185.6 205.7 217.1 227.8 246.6 261.1 269.7 282.9 303.9 322.5 339.5 360.8 390 426.7 452.1 468 481.3 493.9 508 513.6 520.2 530.6 531.8 521 511.8 502.5 494.9 492 485.8 467.1 448.9 434.6 418.9 403.7 388.1 372.8 356 342.2 326.4 307.3 297.5 310.7 312.3 309.4 309.3 309.7 310.5 311.7 317.8 326 330.5 340.4 353.2 368.8 381.6 403.8 410.1 419.2 428.3 421.9 420.5 413.8 414.1 399.1 387.7 374.1 367.1 352.8 345.5 340.9 338.9 328.1 340.9 345.3 350.7 353.3 350.6 354.1 358.2 360.1 366.8 376.8 382 387.1 379.2 380.3 376.7 372.9 367.8 358.1 350.1 338.6 327.4 321.6 316 308.8 303.7 300.6 300.8 310.5 324.6 343.9 356 371.4 388.4 402.1 431.4 439.1 441.2 438.8 432.8 433.8 435.4 433.8 431.3 430.7 437.1 445.5 446.4 451.8 450.8 453 451.2 450.8 445.1 444.2 432.6 428.9 419.4 397.7 379.2 365.1 347.5 329.7 312.6 300.7 291.9 287 281.9 274.9 267.9 261.1 256.4 250.7 239.1 225.8 213.6 201.4 189.6 172.6 162.9 164.5 172.3 184.4 193.7 194.7 191.3
301.7 318.6 327.6 332.5 352.6 368.7 363.3 350.7 338.2 328.2 325.5 319.3 311.9 297 290.1 290.5 292.1 286.8 278.1 278.6 276.7 254.9 246.6 225.8 201.9 188 181.3 178 169.6 161.5 157.5 156.7 153.9 146 147.5 140 139.6 131.3 132 138.4 152.5 164.7 180.4 196.5 216.4 247.7 244.1 259.4 277.2 281.4 296.1 308.5 333.2 351.4 369.9 402.7 433.5 454.5 467 476.9 501.8 517.2 527.4 530.2 533.5 538.3 522.6 513.5 506.1 489.7 481.5 475.3 450.1 434.9 424.2 412.7 402.1 389 375.5 358 342.8 330 313.5 293.2 297.6 308.6 308.1 306.6 307.6 307.7 309.9 313 316.7 324.1 326.1 333.8 343.2 354.6 372.9 379.7 388 390.2 391.2 389.3 381.3 373.8 362.8 359.4 345 336.5 330.7 325.1 324 320.3 322.1 325.2 327.5 332.3 333 331 330.3 330.8 333.1 339.4 351.6 349.7 352.1 350 349.5 345.9 342.8 336.9 330.4 323.8 313.3 305.4 305.4 298.3 292.9 294.9 302.6 314.2 335 350.3 366.1 380.2 396.4 412.6 430.5 448.9 460.8 462.3 459.7 452.8 449.1 449.9 451.3 449.9 450.2 458.1 460 472.9 465.8 462.5 454.2 450.8 443 432.6 418.2 413.8 397.4 381.8 367.6 351.4 342.1 329.3 315.8 305.4 300.6 295.6 284.3 281.2 274 272.4 265 254.5 247.3 237.2 225.5 217.7 205.3 185.6 171 176.8 180.7 188 201.5 214.9 212.9 213.3
305.2 322.4 339.7 348.5 362.6 364.7 350 344.2 343.5 334.5 320.4 316.4 302.2 290.8 288.5 287.1 295.3 289.4 281.3 265.2 259.6 245.9 234.8 221.4 209.2 194.3 175.8 155.8 155.1 146.7 147.8 143.7 141 144 139.6 133 130.5 130.2 138.6 148.6 161.8 178.4 194.1 213 236.6 266.8 271.6 272 286.1 302.9 314.8 326.5 334 355.9 379.6 411.6 450.6 460.2 464.7 481.9 509.6 522.6 539 538.8 537.9 535.7 514.1 508.5 497.5 481.5 468.6 456.7 439.7 427.4 419.7 410.8 399.3 388.2 374.2 356.5 341.4 331.6 317.2 297.5 290.5 298.6 301.5 303.8 304.8 306.4 309.2 311.6 314.4 315.3 319.6 327.7 331.6 339.6 347.4 354.5 357.6 363.6 360.8 357.6 350.4 341.3 333 323.6 318.2 313.3 310.4 306.9 311.7 306.2 308.2 311.2 311.8 311.6 312.8 315.1 313 314 313.3 315.3 318.9 323.6 326.4 320.7 318.7 318.9 314.3 307.8 306 297.3 292.9 293.5 287.1 288.6 292.3 308.3 323.4 339.2 361.1 373.3 388.2 405.5 425.4 441 462.8 478.1 483.3 481.9 479.7 475.2 470.9 466.8 469 467.2 467.5 468.9 474.6 482.3 467.9 458.8 452 437.5 423.4 404.7 389.1 378.3 363.8 353.7 341 330.1 320.4 312.6 306.2 298.9 295.5 287.9 283.7 277.8 274 269 261.2 254.2 247.2 235.5 225 212.1 197.4 176.8 180.9 186.4 192 198.7 222.5 228.9 227.6 230.6
328.5 339.3 352.6 363.7 357.4 355.6 360.1 359.9 350 328.9 321.9 313.1 303.5 294.7 291.1 286.7 295.7 298 281.6 266.3 251.3 236.6 225.3 214.5 202.4 186.6 173.6 154.9 136.6 137 140.8 133.2 133.2 138.4 127.6 125.4 129.3 136.5 146.6 154.2 167.6 182.7 202.1 229.8 254.7 281.4 292.2 291.6 304.4 309.5 325.2 335.1 346.6 369.6 389.4 412.9 433.7 453.5 475.1 489.5 520.4 528.3 531.7 545.7 541 521.7 503.7 494.5 489.2 472.2 459.5 446.1 432.8 424.2 416 407.4 395.8 384.2 371.7 355.4 344.1 332.5 319.9 303 281.9 291.2 299.2 302.7 302.5 303.4 307.9 308.7 305.9 312.3 323.3 328.3 330.1 332.2 337.9 345.6 348.1 350.4 346.2 334.3 325.7 316.2 308.7 303.8 299.5 294.7 295.3 300.8 299.6 293.6 295.5 297.3 296.4 299.6 298 298.5 297.6 296.4 294.2 293.7 297.9 295.1 295.7 295.8 293.9 297.4 294.7 284.2 281.1 274.4 279.7 283.6 288 303.4 319.1 336.3 349.1 361.5 378.6 398.3 414.3 438.4 453.2 468.8 484.9 499 504.5 504.6 499.6 493.9 490.4 486.9 484.1 481.1 477.6 476.9 480.2 474.8 453.2 443.7 434.3 426.3 405.4 385.9 368.3 357.3 345.1 333.5 323.5 315.8 307.7 302.3 298.8 293.9 286.7 282.3 274.9 269.6 265.3 261.5 256.6 254.6 245.6 233.9 219.7 200 183.9 187.6 189 194.7 206.3 217.6 227.5 235.1 240.2 247.8
343.3 353.3 354.3 345.2 343.2 343.9 348.1 350.1 336.6 321.7 318.4 315.1 306.5 308.1 288.5 284.5 289.2 285.7 269.3 253.7 235.4 227.1 221 209.1 196.3 180.3 162.6 149.3 137.3 125.4 130 128.9 128.6 130.9 121.7 130.1 134.5 138.9 144.8 155.2 169.4 185.8 215.2 250.8 280.8 288.8 307.7 307 313.8 325.7 335.9 349.1 368 383 398.9 422.8 443.9 468.8 503.8 510.9 522.3 528.2 528.2 531.4 531.3 513.2 497.9 488.2 478.7 463.5 452.3 440.4 427.5 424.3 415.4 405.1 394.6 384.7 372.2 360.8 347.6 335.3 322.4 303 281.4 286.1 296.3 295.4 293.5 296.3 299.3 299.5 294 307.2 312.9 313.7 313.4 314 323.3 332.1 327 327 319.3 309.3 302.1 297.3 289.9 285.4 283 284.3 284.8 283.9 283.7 280.7 279.1 285.1 284.6 286.2 282.9 281.3 281.2 281.4 278.3 273.6 275.5 276.8 276.1 276.9 274.4 273.9 270.3 270.1 272 277.2 282.6 290.7 304.9 318.7 333.7 355.5 375.5 385.6 402.2 424.9 444.9 462.9 481.9 498.5 510.5 517.8 522.3 520.5 516.2 508.6 506.3 498.8 497.8 488.8 477.8 474.4 464 454.2 438.1 424.7 415.7 396.1 382.5 366.1 350.9 343.9 334.7 317.9 312.8 305 299.4 297.6 295.4 292.4 280.8 272.8 263.9 257.8 253.5 248.8 245.1 237.7 227.5 217.2 204.5 189.6 196.6 197.2 201.4 208.3 218.9 234 237.8 247.9 260.4 274.5
329.3 344.4 340.9 332.3 335.7 345.2 347.5 335.5 326.5 318.1 314.8 308.1 314.6 295.2 287.7 282.3 292.1 286.6 266.5 244.5 227.6 218.5 210.1 201.1 188.7 170 154.6 144.5 134.2 124.2 119.6 121.2 114.7 117.2 123.2 131.4 134 138.2 146 158 170.6 190.3 219 288.2 303.5 309.4 321.1 324.2 331.5 337.9 354.4 362.2 376.5 390 408 431.8 452.1 468.2 500.5 515.5 527.3 536.2 531.8 529.6 524.1 505.3 494.7 487.4 473.1 459.1 448.5 436.1 425.2 417.1 419.6 402.3 394.8 386.6 377 366.2 352.4 338.9 325 304.7 279.4 285.8 290.6 285.5 287.1 286.2 288.2 286.4 293 296.7 297.7 295.8 294.6 297.3 293.6 307.4 309.8 302.5 297.9 293.6 289.2 277.4 276.7 270.7 269.1 271.6 272.2 274.4 273.4 271.4 270.2 273.3 272.1 272.9 268.6 269.5 267.5 265.6 266.5 263 263.1 261.2 261.4 263.2 264.6 265.2 265.8 268.5 272.3 280.2 288.2 300.4 315.3 330.8 356.9 370.7 393.7 411.4 430.5 450.7 472 486 510.2 519.5 528.5 535.1 538.4 539.9 533.2 526.2 518.2 507.9 492.9 483.1 463.9 455.8 440.3 424.3 412.9 400.6 388.6 375.3 363.2 346.1 333.4 322.2 312.5 304.5 298.4 295.3 295.1 297.1 285.1 279.2 275.7 267.3 259.5 250.9 242.5 232.7 224.8 214.1 206.1 204.9 203.1 205.7 210.7 213.9 216.7 223.4 234.4 243.1 248.3 261.7 273.3 295.5
324.1 333.4 328.8 320.7 332.4 335.7 340.1 336.1 326.3 314.7 302.6 308.8 296.6 286 285.6 277.5 276.7 269 251.4 234.6 219.3 209.5 198.9 190.1 176.4 165 146.6 137.2 133.3 124 114.5 114.4 115.4 118.3 125.1 130.3 134.1 143.2 151.2 164 176.9 197 227.7 279.4 319 330.6 342.5 349.3 347.1 359.4 369.3 386.6 397 409.4 420.4 439.3 456.9 481.3 499.6 511.1 526.3 536.7 533.2 526.5 517.8 501.9 488.7 479.9 467.3 455.2 443.7 434.5 425.3 415.8 408.5 399.8 395.1 391 379.7 369.3 355.8 340.7 323.7 305.6 279.2 279.6 280.5 276.8 278.2 279.1 279.4 280.2 280.8 283.8 280.5 283.1 280.1 282.5 281.7 284.1 289 283.4 283.4 282.3 273.6 266.5 263.1 260.8 265.3 262.5 261.9 263.2 263.3 263.4 261.9 261.8 264.3 259.9 258.3 257.8 254.4 256.9 255.1 254.4 255.6 257.4 258.6 259.8 261.3 263.4 266.9 272.9 280.1 289.3 301.8 315.3 328.1 347.4 365.4 386.9 411.4 434.3 456.9 476 496.4 518.9 531.8 546.6 550.4 553.5 555.2 550.8 541.1 529.9 514.1 494.1 477.5 461.4 443.9 432.3 416.3 403 390.1 379.8 365.7 357 341.9 326.1 315.4 305.6 298.2 292.9 291 288.5 287.2 285 275.2 272 270.9 271 255.7 242.7 236.7 235.4 233.1 227.8 222.4 220.4 220 225 231.8 235.8 236.6 243.9 253.3 260.4 270.6 277 283.2 299.7
