ncols 200
nrows 82
xllcorner 330000
yllcorner 515400
cellsize 50
332.2 353.7 373 387.6 394.6 412.9 414.8 403.8 383.6 360.9 335 309.7 299.7 281.2 260.9 250.9 232.8 213.7 193.8 178.3 167.4 161 160.8 162.2 165.1 165.2 163.3 159.6 159.6 165.5 168.1 167.4 165.4 160.2 160.4 159.7 159.9 166 183 211.6 233.9 258.6 289.3 298.2 305.3 317.6 327.9 347.9 372.1 400.4 428.8 461.7 489.6 504.9 521.9 540.4 559.3 577.6 591.8 605.2 621.9 639 655.5 672.6 684.4 698.9 713.1 723.4 737.9 753.4 765.6 775.5 780.4 780.5 779.9 780.9 779.1 775.5 770.2 759.4 749.8 740.3 729 736.6 741.1 744.8 747.9 743.5 734 718.3 702.6 679.1 668.4 685.9 694.7 687.2 675.3 664.3 652.8 641.9 628.3 613 594.9 574.8 567.4 575.5 586.8 598.5 617.3 637 666 694.4 716.2 728.2 732.2 730.6 726.8 720.9 715.7 702.2 715.5 722.2 730.3 736 739.2 737.5 734.1 726.5 717.8 706.8 692.9 680.6 669.6 656.9 645.6 634.2 623.5 614.2 601.6 587 577.6 569 558.1 550.5 545.7 542.9 539.9 535.9 533.3 536 541.1 541 539.9 537.9 541 542.7 546.3 542.6 523.5 505.5 478.7 456.1 437.5 416.5 390 360.1 334.7 321.9 314.8 297.1 276.2 257.4 245.2 234.2 221.8 209.4 205.5 197.8 192.2 186.1 179.9 176.2 171.8 169.2 165.2 163.4 157.5 156.6 154.5 152.7 146.8 144.6 144.6 144.6 144.6 144.6 144.6 144.6 144.6 144.6
338.3 371.2 397.5 400.2 404.1 407.6 412.7 403.3 389.9 369.2 345.7 312.9 297.5 274.2 256.1 240.7 226.5 205.8 183.7 168 162.2 168.8 171.1 170.9 175.8 172.2 165.1 161.3 163.7 166.9 169.9 167.9 166.8 161.1 160.4 159.8 159.7 163.3 186.3 210.4 238.8 254 279 287.7 305.2 316.6 328 352.4 376.1 400 431.2 476.6 501.3 516.2 533.9 549.8 566.3 584.9 599.1 613.4 628.5 646.4 664.2 676.6 683.4 695.8 706.1 715.1 724.7 739.3 754.3 763.5 771.1 773.6 775.9 778.1 779.4 778.9 776.6 773.5 771 766.5 754.1 759.1 762.1 761.7 758.2 753.1 745.2 729.8 706.7 700.7 701 713.1 708.6 689 673.2 657.3 641.8 621.9 598.9 587 573.3 578.3 580.9 588 600.4 616.9 638.7 661.5 680.5 703.7 719.7 729.4 732.6 730.1 725.1 716 702.7 693.7 705.6 717.2 724.9 732.6 737.1 735.2 729.2 721.2 708.5 695.9 684.8 675 665.1 656.1 643.7 633.3 622.7 613.6 605 591.7 581.1 574.1 564.2 558.1 555.1 550.8 550.4 554.9 553.7 548.6 548 547.4 546.7 543.1 548.5 547.8 546.9 537.7 509.2 491.8 470.4 448.2 422.8 399.9 371.2 341.3 319.4 311.3 301.7 281.7 261.6 244.3 232.9 221.7 210.1 201.7 197.4 193.1 186.6 179.8 174.3 171.6 167 163.1 160.3 158 152.2 148.7 146.3 144.6 144.6 144.6 144.6 144.6 144.6 144.6 144.6 144.6 144.6 144.6
345.4 403.9 416.5 417.1 417.9 416.1 397.5 401.1 395.6 381.5 348.6 312.7 285.1 276.7 245 225 212.3 192.7 172.7 167 161.4 166.2 166.9 170.7 173.5 174.7 171.1 162.6 169.5 172.8 180.5 173.2 166.6 161.1 160.5 160.2 160.2 169.3 188.6 211.3 243.1 264.5 270.1 280.9 303.6 322 330.8 354 377.9 403.5 440.1 485 505.2 521.6 539.5 558.2 576.1 591.4 606 620.9 635 648.2 658.8 667.5 673.5 680.2 688.2 698.6 711.3 725.7 737.5 746.4 753.1 754.9 761.8 769.8 773.7 776.3 777.7 777.3 776.2 773.4 771.2 770.8 770.6 769.2 765.1 756 737.1 730.2 731.4 734.2 737.3 737.3 718.8 698.5 678.6 652.6 629 598.7 589.7 592.9 593.5 595.7 592.5 604.5 618.7 637.8 659.6 682.4 699.8 716.7 727.1 732.7 733.9 730.6 721 708.8 688.2 682 690.3 703.3 713.4 721.2 725 724.4 715.9 706.5 693.3 667.8 651.2 661.1 660.2 649.7 640.1 628.6 619.9 611.4 603.4 591 585.3 578 571.4 570 566.8 568.7 566 564.7 560.8 558.6 557.5 552.7 546.4 544 546.9 548.5 543.8 515.4 499.1 482.4 452.2 423.8 401.4 374.2 348.3 322.3 305.5 299.9 282.2 262.7 244.9 229.6 217.5 210.2 202.5 196.1 189.7 185.5 180.9 174.8 169.8 166.7 162.5 158.9 156.3 153.7 148 144.6 144.6 144.6 144.6 144.6 144.6 144.6 144.6 144.6 144.6 144.6 144.6 144.6
348.3 383.7 409.9 427.7 438.7 414.6 388.5 381.2 377.9 375.7 342.5 316 270.6 249.7 231.8 211.3 197.6 180.3 168.9 162.5 161.2 162.9 167.4 174.1 173 172.6 172.6 173.5 173.3 177.9 193.4 179.9 166.1 161.3 160.8 160.8 160.9 166.7 188.6 212.6 235.6 252.9 260.7 274.1 299 324.2 333.5 352.2 376.3 406.5 445.9 494.1 513.2 530.2 552.3 571.4 586.7 601.5 615.4 626.7 634.8 643.4 649.8 657.1 662.6 667.8 673.4 682.1 696.9 709.3 718.6 725.8 729.5 721.4 740.1 752.6 761 765.7 767.7 772.1 773.9 775.4 776.5 777.2 777 775 770.6 750.6 753.1 754.9 755.4 756.3 754.7 745.9 724.4 698.5 672.4 643.9 618.1 598 605.7 610.4 612.4 608.6 608.8 624.7 642.2 659.9 680.9 700.7 714.2 726.8 734.2 735.5 733.4 727.5 714.3 695.9 681.7 671.8 678.2 688.7 699.2 706.6 711 707.4 697.5 688.7 674.3 651.5 624.3 650.8 653.5 640.9 629 619.4 611.9 603.9 597.9 593.6 587.7 585.5 584.1 587.1 585.3 580.6 579.4 574.9 570.4 565.4 552.8 548.9 543.2 539.4 541.7 545.9 525.2 503.7 489.6 458.1 428.7 396.6 368.7 345.4 324.4 307.6 295.6 286.5 268.1 246.5 229.1 217.6 210.3 202.5 194.6 189.9 184.4 180.2 176.1 172 165.8 162.1 159.2 151.8 150.2 147.2 144.6 144.6 144.6 144.6 144.6 144.6 144.6 144.6 144.6 144.6 144.6 144.6 144.6 144.6
353.3 383.7 411.1 419.1 429.7 404.8 379.4 367.8 359 339.7 314.3 279.8 252.8 233.4 216.3 198.6 186.6 172.5 162.6 161.4 161.5 166.5 168.4 173.6 176.5 176.8 180.7 179.8 176 184.3 198.3 179.7 165.8 162 161.6 161.6 162.8 170.2 185.6 207.1 225.8 236.2 249.8 267.6 290.9 313.3 329.8 350.7 386 416 457.2 495.9 520.6 534.2 558.9 574.4 588.3 599.3 611 619.7 624.5 631.2 638.5 645.9 649.5 653.3 656.2 666.9 679 690.8 698.8 704.6 701.3 693.6 719.3 734.1 743.2 749.1 754.2 759.8 768 775.7 780.8 783.1 783.1 782.6 775.9 771.9 773.8 774.5 772.3 767.6 757.7 738.4 709.9 684.6 657.5 634.6 614.3 613.2 621.8 629.2 631.1 625.7 624.9 645.1 663.8 682.5 701.3 715.7 726.5 734.7 738.8 739 733.4 724.1 708.7 689.7 673.2 666.3 665.3 674 682.2 690.7 694.1 690.1 680.1 661.5 650 629.2 602.8 631.8 640.8 637.6 625.7 610.2 598.4 592.8 589.9 588.7 592.5 591.4 591.1 590.4 583.6 581.1 575.5 570.6 561.2 550.3 546.4 542.8 539.9 534.4 538.1 532 515.7 491.9 475.5 440.3 402.7 373.1 343.9 322.7 303.1 295.4 281.4 269.2 250.7 231.2 216.8 208.1 200.3 190.8 185.1 180.7 177.5 173.5 172.6 168.3 160.1 155.9 150.3 144.6 144.6 144.6 144.6 144.6 144.6 144.6 144.6 144.6 144.6 144.6 144.6 144.6 144.6 144.6 144.6 144.6
350 370.2 395.3 406.1 409.7 395.7 375 355.3 339.4 317 285.9 264.5 241.3 219.6 204 188.7 175.4 164.1 161 161.4 161.4 174.7 169.6 175.5 178.8 195.7 196.2 196.5 187.5 189 194.8 174.9 164.4 162.3 162.3 162.3 163.1 173 186.5 200.2 212.6 225 242.4 263.1 284.6 305.2 325.7 354.6 387.9 424.7 458.4 494.6 522.8 544 557.9 572.5 583.4 592.9 601.1 608.4 613.8 619 624.5 630.4 634.9 638.4 637.3 648.8 661 671.6 678.3 680.6 669.7 678.4 702.9 716.2 725.1 731.4 735.6 747.9 763.7 777.7 786.7 789.4 791.4 790.4 787.9 788.4 789.2 788.3 783 772.5 749.1 722.1 697.1 673 652.2 631.7 614.7 624 635.2 647.5 652.7 653.1 652 663.8 681.4 699.6 716.7 727.5 735.7 741 742.9 741 734.3 724.1 705.7 684.2 666.1 659.2 653 658 662.3 672.1 667.1 656.5 649.5 634.7 612.8 603.6 583.6 610.8 615.7 613.8 608.1 599.1 585.4 581.5 574.4 576.6 580 580.3 579.3 574.7 570.5 565.4 559.3 553 550 544.4 539.9 537.1 533 528 526.7 517.9 498.1 485.2 461.3 422.3 384.4 352.6 324.4 304.5 295.6 286.7 266.7 252.7 233.1 220.5 207.6 198.3 192.6 184.1 178.3 173.8 171 166.8 164 160.7 151.3 145.3 144.6 144.6 144.6 144.6 144.6 144.6 144.6 144.6 144.6 144.6 144.6 144.6 144.6 144.6 144.6 144.6 144.6 144.6
354.2 371 388.2 402.6 408.1 399.3 373.2 349.5 322.2 301.5 270.6 248.3 227.4 210.4 194.5 182.4 170.3 163.6 161.3 161.9 162.9 174.1 171.4 174 187.9 195 200.2 199.2 193.6 199.1 194.5 173 162.8 162.7 162.6 162.7 164.9 174.2 187.4 196.7 205 217.8 232 255 277.2 301.6 325.7 351.2 384.2 419.3 451.9 487 517.7 539.2 554.4 565.5 576 584 591.3 596.6 601.8 607.3 612.9 618 620.8 621.7 618.5 631.1 641.3 649.5 655.8 656.9 643.4 662 680.9 693 702.1 707.6 709.5 734.4 760 781.1 791.5 797.3 800 799.9 801.2 801.8 802.3 798.9 788.9 759.9 734.1 711.3 690 670.2 650.8 631.9 630.8 635.3 650.4 663.9 672.5 676.3 674.7 682.8 699.5 713.5 727.4 737.4 745.2 748.3 747.6 743.7 735.8 724.2 705.3 685.3 656 646.8 633.5 625.8 622.1 623.7 620.5 615.6 602.8 595.6 579.6 570.6 551.6 575.2 576.9 577.1 573.6 568.9 565.1 559.7 557.2 558.5 558.9 559.4 558.3 553.4 550.3 548.2 543.3 542 542.2 538.3 529.8 524 520 519.6 515 504 478.1 463.1 439.6 405.6 369 333.7 308.8 295.8 287.1 273 250.2 233.5 220.6 211.3 197.3 188.3 183.7 176 170.2 167.2 165.1 161.2 154.2 149.4 144.6 144.6 144.6 144.6 144.6 144.6 144.6 144.6 144.6 144.6 144.6 144.6 144.6 144.6 144.6 144.6 144.6 144.6 144.6 144.6
368.5 374.9 388.4 400.2 409.5 388 358.1 330.3 303.8 282.2 258.9 238.2 222.6 203.9 190.2 180.7 174.7 165.6 161.4 161.7 165.7 171.4 172.6 181.7 201.1 211.8 210.1 204 204.8 208.5 192.8 172.6 163.3 166.2 163.1 163.7 165 183.3 183.6 191.3 201.8 214 230.3 251.5 273.1 300 328 355.6 384.2 414.7 449.5 485.9 513.8 539.4 545.2 553.9 564.7 574.2 578.6 583.4 589.4 596 600.1 603.4 605.7 605.3 601.2 612.8 621.4 627.2 631 631.7 618.4 643.6 658 668.7 675.3 679.1 697.5 727.7 758.4 782.2 796.8 806 810.6 812.2 813.7 814.4 812.9 805.4 777.6 745.8 725.2 700.8 682.2 664.1 643.9 650.2 648.4 649.8 666.7 681.8 691.1 697 697.3 702.5 716.8 729.3 739.4 748.5 755.5 757 754.3 747.1 735.9 721.3 700.5 676.8 646.8 631.1 605.1 593.2 589.1 585.4 581.3 572.8 566.3 555.7 547.3 538.4 534.1 539.4 539.2 538.1 535.8 532.6 530.2 528.3 531.8 533.3 537.1 537.8 537.2 534.6 534.8 534.7 531.9 535.6 534.3 525 516.2 511.6 505.7 504.6 498.7 476.6 448.4 436.6 410.6 380.9 348.9 315.9 293.9 284 275 254.4 232.8 219.3 211 198.1 186.9 179.7 175 167.6 163.6 159.4 158.7 153.4 149 144.6 144.6 144.6 144.6 144.6 144.6 144.6 144.6 144.6 144.6 144.6 144.6 144.6 144.6 144.6 144.6 144.6 144.6 144.6 144.6 144.6
376.9 383.5 386.8 397.5 399.5 378.1 345.3 319.1 296.4 277.2 255.3 238.2 219.1 196.6 187.7 179.4 172.9 163.3 166.8 167.1 164.8 172.8 174.2 195 216.5 220.4 219.9 224.6 227.3 219.2 195.2 174.2 163.9 164.1 164.5 165.5 166.9 176.3 189.4 194.4 199.1 209.9 230.8 250.6 270.3 295.5 325.2 350.7 382.3 409 446.5 486.6 504.6 522.2 535.1 543.8 552.8 558.6 563.5 568.4 574.7 580.8 583.8 588.3 589 588.8 586.2 593.7 599.1 601.7 604.4 604.6 600.8 620.2 632.8 642.2 645.5 667.4 695.5 727.4 758.2 784.6 804.6 818.2 823.6 825.1 825.3 824.7 822.1 797.7 764 736.9 713.1 696.3 687.8 674.8 668.1 675 675.2 666.6 683.7 699.3 710.6 716.8 720.6 726.5 735.4 744.5 751.8 758.4 762.3 762.6 757.4 748.3 734.9 713.4 686.9 654.4 629.5 613.4 587.8 567.8 567.2 556.5 546.9 540.3 532.5 525.5 517.5 510.2 501.9 507.3 505 502.9 500.9 499.7 497.2 496.2 501.9 502.1 503.9 509.9 514.3 514.7 515.8 515.7 516.7 512.2 509.7 504.4 496.7 488.7 483.9 481.1 475.4 449.1 411.9 406.2 384.4 357.9 330.4 299.2 281.7 272.4 259.6 235.4 216.9 207.4 195.5 185.6 177.2 171 166.6 161.1 157.2 152.3 149.1 144.6 144.6 144.6 144.6 144.6 144.6 144.6 144.6 144.6 144.6 144.6 144.6 144.6 144.6 144.6 144.6 144.6 144.6 144.6 144.6 144.6 144.6 144.6
374.4 381.1 387.9 395.8 395.4 370.4 338.7 311.4 294 273.6 256 241.1 214.5 194.4 182.1 173.1 167.5 167.6 174.3 180.6 171.6 170.6 184.7 208.2 224.8 232.3 240.8 248.6 244.5 234.3 200.9 176.5 164.5 164.8 167.2 167 168.8 173.6 185.7 192.1 198.6 212.4 231 248.4 270.7 295.1 323.3 349.6 375.2 401.6 432.4 465 483.4 503.1 520.7 529 537.4 544.9 550.2 554 559.3 565.1 568 570.7 572.3 572.4 569.3 573 574 574.3 577.2 577.3 585 598.5 607.4 624.5 652 680.1 706.8 731.7 759.6 787.4 807.8 822.5 831.7 834.5 834.9 833.8 829.7 792 761.7 744.7 731.9 719.6 701.6 684 692.9 696.8 696.7 693.2 700.9 716.9 728.6 735.1 739.2 743.8 749.2 755.5 760.5 765.4 767.9 765.6 758.2 747.5 733.2 707.6 683.8 644.3 609.6 593.3 564.8 549.5 537.4 527.2 518.8 509.9 501.6 493 487.8 484.4 478.3 476.7 476.6 475.6 474 474.1 472.8 474 475.4 474.7 473.6 479.6 488.1 491.1 484.3 478 483.3 478.2 476.4 469.5 463.9 461.1 455.7 451.5 446.4 434 401.3 368.1 357.3 333.4 307.7 281.9 264.5 255.7 240.7 218.3 209.2 198.3 187.2 181.3 170.1 166 158.4 153.3 147.3 144.6 144.6 144.6 144.6 144.6 144.6 144.6 144.6 144.6 144.6 144.6 144.6 144.6 144.6 144.6 144.6 144.6 144.6 144.6 144.6 144.6 144.6 144.6 144.6 144.6
373.8 383.6 390.1 394.2 384.7 361.3 336.9 315.2 295.5 275.4 265.9 231.4 209 193 180.3 173.2 168.7 172.9 173.3 179.1 178.4 178.4 196.4 217.1 240.2 251.4 263.2 274.6 260.8 244.1 207 181 165.9 165.8 167.4 168.7 171.3 174.4 181.9 188.9 197.7 211.6 228.6 249 271.6 287.8 303.1 334.9 356.5 385.5 413.8 435.4 449.9 474.6 494.7 515.8 523.9 530.4 536.9 540.8 545.8 549.7 553 554.1 555 555.5 552.5 553.1 550.6 561.9 574.2 588.3 599.8 605.3 613 631.8 647.6 675.8 701.8 726.5 751.2 775.3 798.2 820.1 833.9 840.1 841.5 840.5 832.4 805.7 776.1 758.6 744.5 725.1 703 704.5 711.7 717.5 719.2 721.2 720.2 736.6 744.9 749.7 752.4 755.4 759.7 763 767.9 772.7 772.5 768.4 759.6 748.2 732.5 707.1 687.6 631.7 606 574.6 551 534.5 513.2 507.8 497.5 485.7 476.7 470.1 465.2 463.6 457.6 454.6 451.9 451.7 453.2 454.1 453.9 453.5 453.5 452.3 448.9 447.8 449.4 449.3 447.7 443.9 442.6 437.3 431.5 429 426.5 422.7 420.5 421.2 412.4 401.6 376.9 339.7 328.8 307.8 283.9 261.4 246 235.8 219.5 207.3 198.9 187.2 182.6 175.7 168.5 159.6 153.1 146.2 144.6 144.6 144.6 144.6 144.6 144.6 144.6 144.6 144.6 144.6 144.6 144.6 144.6 144.6 144.6 144.6 144.6 144.6 144.6 144.6 144.6 144.6 144.6 144.6 144.6 144.6
376.1 388.9 394.5 396.8 390.6 370.1 350.6 325.9 298.8 278.3 258.5 230 204.8 189.7 181.7 176.6 173.7 179 178.4 178.4 178.4 180.6 201.3 224.7 248.1 271.4 285 297.1 277.6 245.2 212.8 190.9 168.8 166.3 167.7 168.9 172.5 175.2 180.4 188.5 197.3 207.6 221.1 242.6 263.3 288.1 311.6 332.3 347.5 354.5 379.8 402.7 417.2 445.1 473.2 494.8 508.3 515.8 522.6 528.6 533 535.6 536.8 537.2 538.4 539 535.1 550 560.5 571.2 583.1 596 611 625.7 636.4 639.4 648 670.2 688.1 707.3 729 753.8 779.5 807.2 830.1 841.1 842.9 839.5 831.2 817 795 770.9 747.5 724.5 717.3 721.3 729.6 737 740.8 742 746.7 753.6 758.6 761.1 762.9 764.9 768.7 771.5 775.4 777.2 776.3 771.2 761.4 749.6 733.2 712 670.7 630.5 606.5 574 549.9 531.7 515.4 496.5 480.4 466.9 460.3 453.9 448.6 444.8 443.7 440.1 436.4 433.1 433.7 435 433.7 435.9 433.4 430.9 429.4 423.1 420.4 421.3 420.9 419.4 415.3 407.3 402.1 394.9 391.6 387.5 383.8 386.7 378 363.7 344.1 318.9 301.5 280.6 257.2 241 227.9 217.8 205.8 197.3 188.4 182.2 177.2 171.5 162.9 152.3 148.2 145.8 144.6 144.6 144.6 144.6 144.6 144.6 144.6 144.6 144.6 144.6 144.6 144.6 144.6 144.6 144.6 144.6 144.6 144.6 144.6 144.6 144.6 144.6 144.6 144.6 144.6 144.6
389.6 387.1 394.2 401.5 399.6 409 389 368.2 308.9 279.8 253.1 221.3 197.2 180.3 182.5 182 178.4 178.4 178.4 178.4 178.4 181.7 205.1 229.8 252.8 277.6 303.7 310.6 280.4 247.9 226.6 206.9 180.4 166.7 168.5 169.1 171.8 174.8 178.8 184.3 193 209.7 225.8 241.9 263.2 288.2 312 335.8 359.6 375.9 371.8 383.8 401.4 417.2 443.5 468.5 493.6 506 512.6 517.8 518.8 520.9 519.2 517.8 524.9 534.4 541.7 550.1 563.5 574.9 588.5 603.5 619.1 635.5 653 666 674.9 686.1 699.6 714.5 732.7 750.7 774.8 806.3 832.2 840.9 840.9 835.8 827.6 813.3 794.3 770.7 750.6 730.1 735.2 742.5 748.5 751.5 752.6 756 760.1 765.1 767.7 770.4 773.8 775.4 776.1 779 782.3 782.2 778.4 773.4 765.3 752.7 739.9 722 678.5 647.2 617.6 586 554.2 536.9 522.5 509.3 493.5 475.2 452.6 442.7 437.7 434.4 429.6 426.9 424.6 424.1 424.6 416.5 417.8 417.6 414.5 410.5 408.4 405.4 401.1 399 399.7 400.1 397.9 388.9 381 372.4 365.7 362 356.8 351 342.6 328.5 311.4 290.8 275.9 260.9 239.4 221.9 212 204.6 197 189.4 184.2 180 176.4 166.4 154.9 149.6 147.2 146.8 144.6 144.6 144.6 144.6 144.6 144.6 144.6 144.6 144.6 144.6 144.6 144.6 144.6 144.6 144.6 144.6 144.6 144.6 144.6 144.6 144.6 144.6 144.6 144.6 144.6 144.6
391.7 393 402.7 411.7 417.8 441.1 437.4 432.2 330.7 284 247.5 214.1 187.8 178.4 178.4 178.4 178.4 178.4 178.4 178.4 178.4 180.5 208 232.5 257.1 281.7 313.9 319.3 289.5 259.2 239.9 213.3 181.2 166.8 167.2 169.7 171.3 173.3 176.5 180.6 191.4 208.4 225.6 247.3 266.9 290 312.8 337.4 363.2 392.7 409.8 415.9 433 443.3 440.3 465.4 480.9 491 499.2 502.5 505.8 509.2 526.1 533.8 540.3 546 550.8 559 567.7 578.1 593 609.4 629.7 650 667.6 684.1 701.4 714.2 725.8 740.2 757.9 776.3 794.8 816.5 834.4 838.3 835.9 830.2 821.3 808.5 794.8 781.3 764.1 756.3 756.5 757.2 758.4 759.4 761.3 764.6 768.2 773 775.7 779.6 784.3 783.5 785 786.1 785.9 784.2 778.6 773 764.8 755.5 746.4 736.7 700.7 667.9 639.6 606.4 576.2 549.3 533 521.4 501.8 482.7 461.8 445.7 435.2 425.4 421 420.1 417.1 415.3 415 406.8 408.3 405.5 401.5 397.3 393.5 390.7 390.5 387.8 385.1 385.4 382.5 372.7 363.1 353.3 345.6 339.8 333.5 324.4 314.2 298.7 283.4 266.4 250.7 243.5 227.9 213.4 204.1 196.6 193 188.1 182.9 179.8 172.1 158.9 151.3 149.9 148.1 146.9 145.3 144.6 144.6 144.6 144.6 144.6 144.6 144.6 144.6 144.6 144.6 144.6 144.6 144.6 144.6 144.6 144.6 144.6 144.6 144.6 144.6 144.6 144.6 144.6 144.6 144.6
393.2 399.5 411.8 419.8 432.2 450.7 455.9 433.7 351 296.4 241.3 214.9 183.7 178.4 178.4 178.4 178.4 178.4 178.4 178.4 178.4 178.4 204.6 233.4 260.9 286.1 313.2 323.1 299.5 268.3 247.7 214.4 180.6 167.4 167.4 170.3 170.6 172.6 175 178.2 192.4 207.9 228.6 246.3 269.9 291.1 313.8 340.6 369.7 400.6 429 445.1 460.2 472.6 471.7 467.5 469.9 477.7 480.8 503.2 513.4 526 534.5 540.7 546.9 553.8 558.7 566.5 575.5 585.6 596.8 617.3 638.3 660.2 680.9 700.1 720.5 738.4 753.6 768.8 785.1 804.6 822.7 835 837 833.9 829.7 822.7 813.2 805.6 796.7 786.4 776.1 768.9 765.5 763.5 763.3 764.2 766 769.3 773.2 777.1 780.8 785.2 788.9 791.6 790.4 791.1 789 784.7 777.4 769.3 761.6 753.5 746.6 742.1 727.6 695.4 650.4 617.7 593.5 575.5 548.4 536.8 517.7 492.9 469 450.2 432.9 420.7 415.8 415.3 413.4 409 405.4 403.4 402.8 399.1 397.4 394.6 390.9 387.7 385.2 382.6 380.5 377.9 371.9 362.2 351.8 336.1 328.1 320 309.7 298.2 283.2 271.4 256.8 242.8 230.3 225.9 216.3 205.7 198.9 192.5 190.8 187.4 182.2 176.1 165.7 156.4 152.5 150.4 148.9 146.9 146.7 144.6 144.6 144.6 144.6 144.6 144.6 144.6 144.6 144.6 144.6 144.6 144.6 144.6 144.6 144.6 144.6 144.6 144.6 144.6 144.6 144.6 144.6 144.6 144.6 144.6
397.4 406.6 420.7 431.5 439.8 445.3 452.4 434.8 360.2 296.9 237.7 207.8 185.4 178.4 178.4 178.4 178.4 178.4 178.4 178.4 178.4 178.4 201.4 229.1 258 286.9 314.8 330 309.1 277.2 248.7 215.7 180.9 168 168.1 171.1 169.9 172.1 175.6 182.3 193.1 210.6 232.8 250.4 270 291.7 317.6 345.3 378.1 418 442.1 463.2 473.6 485.2 493 499.6 503.8 505.6 509.3 517.1 525.3 532.5 540.3 547 553.8 560.6 567.5 576.7 585.2 595.7 609.5 621.4 644.7 669.7 691.6 712.8 732.2 750.7 769.1 790.1 810.6 827.7 837.6 838.4 833.8 827.6 822 814.6 808.2 801 795.3 788 779.8 773 769.1 766.3 765.3 765.7 766.4 769.6 773.7 778.3 782.8 787.8 791.7 792.4 790 788.4 784 780.3 771 761.7 754.1 748.9 744 740.4 735.5 715.2 669.8 630.8 603.5 585.4 573.1 558.1 533.3 498.2 468.7 445.3 426.4 419.4 415.5 411.7 408.6 406 406.3 400.7 398.7 397.8 396.1 392.9 386.9 385.4 382.5 381.9 380.2 371.8 357.3 343 326.5 313.2 305.8 302.3 289.5 274.5 261.6 247.8 235.7 227.2 219.6 213.9 208.6 202 194.8 189.1 180.8 179.9 178.5 166.4 159.6 156.3 153.9 151.2 149.8 148 146.9 144.6 144.6 144.6 144.6 144.6 144.6 144.6 144.6 144.6 144.6 144.6 144.6 144.6 144.6 144.6 144.6 144.6 144.6 144.6 144.6 144.6 144.6 144.6 144.6 144.6
401.2 412.9 427.2 435 445.6 435.3 440.6 375 325.5 276.1 239.5 211.5 183.9 178.4 178.4 178.4 178.4 178.4 178.4 178.4 178.4 178.4 196.5 225 249.1 275.9 307.7 319.2 302 280.2 245.8 211.5 176.6 168.8 169.2 169.7 170.6 173.7 178.5 186.9 198.3 213.2 232.8 251.8 270.1 292.4 320.2 350.5 383 418.9 449.4 468.2 478.6 489.4 499.3 506 511.8 515.5 518.7 524.6 531.6 538.3 545.4 552.9 559.8 570.1 578.6 588.2 598.5 611 625.2 640.8 647.4 678 701.1 720.9 740.5 758.8 779.7 802.8 823 838.2 838.3 833.7 825.2 818.2 811.5 805.4 801.4 795.3 790.6 785.8 779.2 773 768.4 765 763.3 763.1 765.6 766.8 770.7 774.9 779.6 784.4 786.9 787.9 783.9 780.7 776.7 770.5 762.1 752.8 746.2 741.7 736.4 734.7 731.1 724.9 692.4 649.4 624 603.8 596.7 570.1 542.2 495.1 467.3 444.5 433.2 426.9 422.9 420.1 418.7 416.6 415.5 412.7 410.7 410.9 406.1 398.1 390.8 390.2 389.2 388.6 387.2 382.8 372.6 363.1 342.9 320 296.2 283.8 269 260.2 247.5 236 228.1 223.4 218.7 210.2 205.7 197.8 190.7 181.2 178.9 169.6 166.1 167.4 159.5 156.4 154.2 151.4 149.8 147.9 146.6 144.6 144.6 144.6 144.6 144.6 144.6 144.6 144.6 144.6 144.6 144.6 144.6 144.6 144.6 144.6 144.6 144.6 144.6 144.6 144.6 144.6 144.6 144.6 144.6 144.6
406.5 423.5 432.2 440.4 450.1 427.8 391.4 358.9 324.8 275.4 238.1 208 188.2 178.4 178.4 178.4 178.4 178.4 178.4 178.4 178.4 178.4 190.3 210.9 233.5 257.6 283.6 300.9 290.9 276.2 241.8 208.1 175.2 169.5 170.1 171 172.2 174.9 179.7 189.3 201 215.3 231.7 249.7 270.7 292.9 321.5 351.7 381.4 418 450.3 468.2 480.5 491.4 501.4 509.7 515.8 520.2 525.6 532.4 537.9 544.8 552.7 561.7 571.4 583.4 594.2 605.6 615.6 627.7 643.3 659.4 676.2 691.1 707.8 728 745.2 763.6 784.9 805.8 822.7 832.3 832.2 824.8 815.4 808.2 801.9 796.8 792.2 787.7 783 778.7 774.9 768.7 764.1 760.5 758.1 758.1 760 762.3 765.5 769.1 773.6 777.3 779 779.5 776.4 772.3 766.7 759.3 751.4 742.5 734.7 729.4 724.5 722.1 719.9 718.8 717.5 681.2 655.2 635.8 609.7 569.2 532.8 498.7 472.1 454.4 443.2 437.7 433 431 430.7 430.9 430.5 433.4 431.8 425.3 414.8 406.4 400.6 396.5 395.1 393.5 395.2 386.5 374.8 360.2 336.7 314.1 295.9 277.2 267.2 254.8 238.6 228.1 222.4 216.5 208.1 204.9 198.3 200.8 200.6 199.1 195.8 192.1 187.6 181.6 171 158.3 153.9 151 149.3 147.8 145.6 144.6 144.6 144.6 144.6 144.6 144.6 144.6 144.6 144.6 144.6 144.6 144.6 144.6 144.6 144.6 144.6 144.6 144.6 144.6 144.6 144.6 144.6 144.6 144.6 144.6
410.9 428.3 437.5 447.8 446.1 411.8 380.1 349.9 312.3 274.8 239.7 212.8 192.3 176.7 178.4 178.4 178.4 178.4 178.4 178.4 178.4 178.4 179.7 201.6 223.2 246.1 264.3 279.9 273.9 252.4 229.8 204.5 173.1 171.1 172.7 171.9 172.6 180.1 185.5 190.5 203.4 219.5 237.1 256.9 280.8 301 325.8 353.9 383.8 421.4 449.6 467.7 482 493.4 504.8 515.5 522.8 529.7 535.4 541 546.9 554 561.8 572.7 588.5 601.8 616.4 630 641.5 654.4 668.1 683.2 694.9 708.8 723.3 736.3 752.1 768.2 786.9 802.5 814.3 822.8 819.7 810.5 804.3 798 790.5 786.3 783 778 774 770.8 765.9 761.5 756.4 752 749.3 749.1 751.6 753.8 756.7 759.9 763.8 765.7 767.3 768.7 766.7 762 755.5 746.8 737.4 726.5 718 713.1 709.2 705.9 701.5 673.5 700.8 698.4 678.3 640.2 598.6 563.5 534.4 508.4 484 465.8 455.3 449.4 445.6 446.9 448.4 451 454.1 457.3 453.5 442.7 432.6 422.9 417.8 409.8 405.7 401.6 398.9 391.6 378.4 364.1 344.4 319.5 299.7 284.2 267 252.1 242.8 233.2 228.6 223.2 218.2 213.3 210.1 208.5 207.7 207.7 206.4 205.7 200.4 192.7 180.9 166.8 154.6 150.5 149.1 147.6 145.4 144.6 144.6 144.6 144.6 144.6 144.6 144.6 144.6 144.6 144.6 144.6 144.6 144.6 144.6 144.6 144.6 144.6 144.6 144.6 144.6 144.6 144.6 144.6 144.6 162.3
413 433.5 441.5 444.2 436 408.8 373 339.2 308.4 271 245.3 224.8 208 197.2 189.2 178.4 178.4 178.4 178.4 178.4 178.4 178.4 178.4 194.2 216.8 240.7 260.8 263.2 252.1 236.8 216 189.4 170.6 171.5 173.3 174.3 174.2 183.7 190.2 191 206.8 223.2 244.4 265.3 290.4 313.4 336.6 364.7 396.6 427.3 453.7 472.1 486.7 497.8 510.2 520.6 530.7 540.1 546.4 552.9 559 565.8 577.3 589.9 603.5 621.9 637.3 649.9 661.9 674 684.7 694.5 704.9 716.4 729.4 740.6 755.3 769.9 784.6 797.2 804 808.9 804.7 797.8 793 787 781.3 776.4 772.8 768.3 765.9 761.5 756.8 751.7 746.7 741.4 738.4 740.2 741.9 743.6 746.1 748.6 751.5 751.3 753.1 753.3 750.9 748 741.3 730.7 720.6 709.7 700.4 693.5 690.2 685.6 682.6 675.5 678.1 675.8 667.8 646.2 606.1 574.3 542.2 522.2 500.2 481.6 470.7 466 465.6 471.3 474.5 483.7 483.7 481.7 477.3 468.5 456 446 435.8 427 420.8 414.2 404.9 392.5 380.5 363.2 340 317 295.4 281.5 273.8 264.9 248.4 242.8 235.7 230.4 222.9 220.6 219 220.6 220.3 220.7 219.3 220.8 219.2 205.4 187.3 173.5 160.9 155.8 158.2 156 151.6 144.6 144.6 144.6 144.6 144.6 144.6 144.6 144.6 144.6 144.6 144.6 144.6 144.6 144.6 144.6 144.6 144.6 144.6 144.6 144.6 144.6 144.6 148.5 163.6 174.6
421.4 447.6 442 439.5 432.4 414.8 379.6 343.7 307.3 277.4 253.3 233.4 218.1 206.8 199.5 191.8 181.5 178.4 178.4 178.4 178.4 178.4 178.4 185.5 208.9 232.3 243.6 242.1 234.4 223.2 203.6 179.9 171 172.3 174.3 175.3 176.8 184.4 192.3 198.4 215.8 232.6 250.1 272.8 296 320.3 350.3 379 407 437.6 463.6 478.9 489.8 500.9 515.2 528.4 540.1 551.1 561.5 569.7 577.2 582.9 592.4 605 619 634.3 648.6 660.2 669.6 678.9 688.1 699.4 707.5 716.8 727.6 736.4 749.4 763.9 779 790.3 794.3 795.4 791.6 787.5 782.9 778.3 773.2 766.5 762.7 759.3 755.6 751.6 747.8 742.8 738.1 732.7 728.4 730.1 730.9 733.5 735.7 735.6 734.1 734.6 731.5 729.3 725.3 720.8 717.3 700.3 691.1 685.2 675.9 672.2 662.1 655.8 652.1 648.9 656.6 657.2 655.7 647.6 618.8 581.4 559.3 536.7 515.5 502 490.5 490.8 494.4 498.9 505.7 513.5 515.5 516.2 509.7 499.2 482.8 468.3 457.6 446.5 438.8 428.9 418.5 402 385.2 363.3 341.6 321.7 304.4 291.2 283.1 278.1 263.6 256.2 247.7 241.2 236 233.8 234.3 236.2 238.5 236.7 233.6 233.9 235.6 218.5 201.1 181.7 171.7 165.5 167.4 166.8 159 145 144.6 144.6 144.6 144.6 144.6 144.6 144.6 144.6 144.6 144.6 144.6 144.6 144.6 144.6 144.6 144.6 144.6 144.6 144.6 144.6 144.6 167.1 180.2 197.6
422.4 433.2 434.1 435.5 431.5 412.8 379.4 345.7 311.5 281.7 256.1 235.9 216.2 204.4 195.4 184.5 178.4 178.4 178.4 178.4 178.4 178.4 178.4 180.2 199.6 222.7 229.2 227.2 220.5 213.4 196.6 178.4 172.2 173.6 175.3 177.4 179 184.8 194.3 209.7 223.1 239.2 258.9 281.6 302.9 327.9 353.8 387.3 418 446.3 462.6 475.9 488.2 501.5 518.6 534.8 547.3 565.3 572.9 583.8 593.3 600.6 608.8 617.7 629.8 642 654.1 665 671.5 678.2 687 697.3 706.3 713.3 722.9 732.6 741 754 769.5 780.2 783.9 784.3 781.9 778.3 775 769 763.6 759.3 754.2 750.1 746.9 743.5 739 733.7 728.8 721.7 714 717.8 720.4 722.9 723.4 720.5 715.7 710.1 704.6 691.7 684.9 685.5 680.6 673.3 651.2 644.6 630.3 627.7 626.6 618.5 616 603.4 628.5 637 639.1 637.4 626.8 601.6 569.6 548.9 537.3 522.8 521.4 523.7 524 529.6 536.2 542.5 552.8 556.3 545.3 531.3 511.3 494.4 484.4 473.8 461.2 449.7 433.8 420.4 401.5 377.4 357.9 339.1 320.8 306.4 296.7 290.3 284.2 269.8 263.2 257.7 254.8 255.9 255.9 258.7 263.2 261.5 254.8 254.7 254.8 236.4 216.3 194.1 178.3 171.2 167.5 165.9 161.5 148.5 144.6 144.6 144.6 144.6 144.6 144.6 144.6 144.6 144.6 144.6 144.6 144.6 144.6 144.6 159.8 148.8 144.6 144.6 144.6 149.3 168.8 183.6 202.6 221.4
421.8 427.7 433.2 430.6 425.3 394.2 363.3 336.1 308.7 285.1 259.8 238.4 218.8 202.2 190.6 179.2 178.4 178.4 178.4 178.4 178.4 178.4 178.4 178.4 191.8 208.2 218.4 220.2 216.8 210.5 196.4 176.9 172.3 174.4 176.9 179.2 182.8 190.7 203.6 216.6 229.1 248.2 266.9 285 309.5 336.3 362.7 395 419.6 439 456.9 469.9 485 499.2 516.2 543.2 557 573.2 588.6 597.7 606.8 615.4 620.4 627.4 635.5 644.4 652.9 660.6 666.3 673.2 677.6 687.9 697.1 706.8 714.9 723.5 733.8 743.8 757.9 768.6 773.6 774.5 773.7 770.5 766.9 761.7 756.4 752.2 747.1 742.9 738 733.7 729.7 723.3 715.4 709.5 703 701.9 706.2 704.9 699.9 690 683.6 676.1 662.4 652.2 644.3 640.1 640.2 638.2 612.2 602.8 593.7 588 589.5 587.6 587.6 592.1 606.7 615.3 621.2 622.5 619.2 616.2 589.2 565.4 557.4 542 554.4 552.7 552.7 560.2 569.9 580.4 589.6 591.3 587.7 571.9 550.4 531.3 515.9 502.8 488.2 474.4 459.2 442.8 423.4 401.4 380 355.1 336.1 321.8 313.2 303.4 296.3 286.5 279 277.9 278.8 281.2 282.4 283.2 287.5 284.7 284.2 284.6 277.1 261.1 248.1 218.6 186.2 173.6 173.2 175.3 166.5 152.7 144.6 144.6 144.6 144.6 144.6 144.6 144.6 144.6 144.6 144.6 144.6 144.6 144.6 148.9 174 158.8 152.7 148.3 149.5 166.2 185.2 205 223 244.6
418.7 425 428.9 426.6 415.6 388.9 361.6 334.5 307.2 281.6 264.9 242.5 219.4 200.7 187.4 178.4 178.4 178.4 178.4 178.4 178.4 178.4 178.4 178.4 178.4 193.1 211.7 217.3 214.8 208.2 192.3 175.7 173.6 175.7 177.6 181.7 186.4 197.8 206.3 223.4 238.8 255.7 272.5 292 316.2 342.8 377.8 404.1 423.1 437.8 455.1 471.5 481.1 495.9 512.2 537.4 558.8 579 593.2 605.5 614.1 619.2 623 628.9 634.2 639.2 644.4 651.6 656.1 663.7 668.1 675.5 683.3 694.5 704.4 712.8 723.2 734.5 745.9 756.2 762.7 765 764.2 762.5 758.9 755.9 751.8 746.8 740.6 735.8 730 727.2 720.5 712.5 704.5 694.9 689.1 687.2 685.8 682.7 667.9 658.4 647.9 639.4 632.3 618.7 613.9 605.1 602.8 598.3 585.5 577.3 567.8 559.6 558.1 558.5 569 579.9 592.4 599.8 604.8 609 608.7 609 599.3 582.9 573.2 572.5 581.1 577.5 578.9 583.6 592.1 604 611.9 612.8 609.8 600.1 586.9 567.6 553.8 541.4 519.2 505.7 487 471.2 455.6 434.3 400.6 370.6 350.1 337.7 330.4 324 314.5 306.6 299.1 303.4 304.6 309.4 312.4 313.8 313.9 312.3 311 307.5 304.8 305.5 292.3 246 205.9 183.8 188.3 184.6 174.6 157.2 144.6 144.6 144.6 144.6 144.6 144.6 144.6 144.6 144.6 144.6 144.6 145.2 163.9 161.4 175 167.6 163 157 161.2 178.5 205.1 223.7 243.3 272.5
417.7 422.9 425.2 425.7 409.2 385.3 359.6 332.8 305.4 278.5 265.5 244.9 220.1 198 178.2 178.4 178.4 178.4 178.4 178.4 178.4 178.4 178.4 178.4 178.4 179.5 205.4 212.5 217.5 207.1 187.7 180.4 174.2 176.1 179.4 183.8 188.9 200.6 213.4 226.6 243.8 260.3 277.6 298.6 324.1 351.2 393 412.4 426.9 439.4 451.2 468.9 477.1 491.2 507.2 525.8 547.1 571.8 590.7 601.9 607.3 613.4 619.8 622.7 626.2 629.6 633.6 640.3 642.6 647.8 656.6 661.8 670.5 681.2 692.1 702.8 713.6 724.9 736.6 745.1 749.4 753.4 753.9 753.2 752.4 751 747.1 740.5 732 727.7 720.7 714.1 709.8 702.4 692.4 683.3 671.8 668 671.6 660.4 641.3 628.7 617.8 608.9 603.1 593.6 588.1 581 573.9 569 565.3 557 551.2 548.9 548.6 551.5 563 573.4 582.8 591.8 594.7 596.2 599.8 595.7 595.3 584.5 578.1 598 600.1 596.5 598.5 603.8 607.4 619.3 626.3 630.9 634 638.4 631.3 616.7 600.5 587.7 563 545.9 526 511.8 503.9 474.9 423.2 394.1 376.5 363.2 352.6 348.4 338.4 329.7 323.2 330 338.6 344.9 348.1 349.5 351 347.1 344.2 339.4 334.6 321.8 303.3 270.5 225.8 207.1 186.5 174.7 162.9 145.1 144.6 144.6 144.6 144.6 144.6 144.6 144.6 144.6 144.6 144.6 144.6 154.7 172.3 176.6 176.8 175.6 172.5 166.4 172.3 200.8 226.3 244 277.4 304.9
416.3 420.1 421.9 407.3 392 374.5 353.6 328.9 301.9 276.9 262.1 239.1 217.2 191.6 178.4 178.4 178.4 178.4 178.4 178.4 178.4 178.4 178.4 178.4 178.4 178.4 194.3 208.7 213.3 208.3 189.6 180.9 174.9 176.5 179.7 183.3 189.9 201.3 216.1 233.1 251.8 264.6 279.1 297.5 320.2 352.9 387.6 406.8 412.9 435.1 446.7 458.2 471.4 485.1 497.9 514.4 536.9 556.7 574.4 585.8 594.2 601.2 605.1 608.3 612.7 616.4 620.1 626.4 630.5 634.3 638.8 648.2 657.7 668.5 677.5 689.6 702.3 712.9 724.6 735 740.3 743 745.5 748.2 749.2 747.5 741.6 733.5 719 712.2 705.6 694 693.6 682.7 670.1 666.2 657.8 649.6 646.2 631.2 615.8 600.7 592.2 588.7 577.7 569.5 568.2 561.4 558.7 552.9 551.3 550.9 550.2 549.1 548.6 549.9 559.4 561.8 571.7 581 585.8 587.8 588.6 588.9 586.5 581.6 595.4 601.7 607.6 607.4 609.8 617.3 623.5 639.2 641.6 647.1 654.4 655 661.5 651.3 634.7 622.1 610.1 589.6 571.4 560.3 531.4 488.2 449.5 425.1 409.6 395.4 383 374.7 366 357.3 352.1 360.5 374.3 380.7 384.9 385.9 386.8 373.8 358.7 345.1 330.9 311.3 288.5 265.8 234 210.6 187 166.7 153.7 144.6 144.6 144.6 144.6 144.6 144.6 144.6 144.6 144.6 144.6 144.6 144.6 144.6 168.6 179.5 185 203.1 186.2 180.9 186.5 209.3 238.4 273 299.3 327.3
417 416.9 404 388.8 373.5 358.1 339.4 319.6 297 272.9 246.5 222.2 203.7 185.5 178.4 178.4 178.4 178.4 178.4 178.4 178.4 178.4 178.4 178.4 178.4 178.4 181.7 198.4 213.2 215.8 188.1 179.6 175.7 177.1 178.9 181.8 189.3 201.4 217.1 236.5 251.7 266 285.5 309.2 331.6 360 388.3 409.2 426.9 436.1 440.6 448.7 458 474.7 487.5 502.4 518.4 535 550.1 562 568.2 573.1 578.7 585.7 593.4 599.3 604.7 608.9 615.2 619.4 624.5 631.2 641.8 652 660.9 669.4 679.3 694.6 711.9 720.8 729.6 738.6 744.3 747.9 747.9 745.5 739.6 724.4 710.4 696.1 689.5 680.6 675.7 666.4 651.1 642.4 634.6 622 615.6 602.1 594.7 578.6 572.4 567.2 563.6 558.6 556 554.9 553.4 552.5 551.3 550.3 550.1 549.5 548.7 550.9 557.3 548.2 566.3 572.4 576 579.2 581.6 582 583 589.3 597 605.6 608.9 610.8 616.1 620.6 631.1 639.5 643.5 648.5 657.7 667.2 671.7 665.9 652.3 642.9 633.8 618.6 607.6 598.8 556.5 503.6 477.3 460.2 454.4 440.4 413.6 401.1 390 383.1 382.1 392.7 405.8 416.2 419.9 407.9 394.4 368.5 353.8 339 323.5 306.5 281.5 252.8 228.1 204.6 179.2 162 149.5 144.6 144.6 144.6 144.6 144.6 144.6 144.6 144.6 144.6 144.6 144.6 144.6 144.6 160.5 174.1 196 229.4 224.6 196.2 195.9 215.5 245.1 282.6 309.7 344.6
418.6 407.8 387.2 370.4 355.1 339.9 324 304.4 284.6 265.1 243.3 219.6 198.3 178.7 178.4 178.4 178.4 178.4 178.4 178.4 178.4 178.4 178.4 178.4 178.4 178.4 178.4 192.4 207.6 208 187.3 179.1 176.2 177 179.1 182.8 191 203.3 219.8 237.2 252 268.4 293.8 315.8 336.9 362.9 391.3 414.5 431.2 446.2 454.9 463.9 468.8 461.9 477.2 490.5 500.5 510.6 522.1 531.7 534.2 540.4 547.2 554.6 565.1 573.9 580.1 586.7 593.1 595.9 609.3 623.4 632.8 646.9 658.3 674.9 692.5 709.4 716.8 730 737.5 743.9 748.3 750.6 750.4 747.6 742.4 732.7 719.7 707.6 695 678.5 666.2 649.5 647.8 635.4 606 597.2 589.9 582.5 574.2 568.8 565.1 564.1 560 559 558 558.4 555.4 553.9 552.7 549.8 549.7 548.7 549.2 550.5 555.7 554.1 555.3 563.1 566.2 568.8 571.4 575 579.3 586.3 592.1 598.9 602.4 604.5 611.6 618.3 622.9 633.4 641.2 647.9 653.3 660.6 665.2 662.5 662.9 647.7 641.9 635 627.4 612.6 586.7 547.6 513.7 496.5 480.6 460.6 444.2 429.7 412.3 409 407.5 422.5 433 431.2 419.6 405.6 389.7 363.6 349.7 327.2 312.7 300 276.2 246.6 218.7 193.6 174.4 157.5 144.6 144.6 144.6 144.6 144.6 144.6 144.6 144.6 144.6 144.6 144.6 144.6 144.6 144.6 153.8 176.1 197.8 235 240.5 218.2 209 231 257.8 287.4 320.4 360.4
416.9 403.7 380.7 359.7 338.6 321.6 306 289.1 269.6 250.3 229.1 209.7 189.7 178.4 178.4 178.4 178.4 178.4 178.4 178.4 178.4 178.4 178.4 178.4 178.4 178.4 178.4 182 200.8 201.1 196 182.1 177.3 177.6 181.4 186.1 193.4 203.7 220.5 235.8 255.4 273 294.6 317.1 344.1 364.5 392.5 415.9 433.8 448.5 460.7 470.6 479.3 477.2 471.5 478.6 485.1 493 498.9 503.5 512.9 518.6 528.2 534.2 552.5 564 574.1 586.6 598.2 601.6 629.5 643.8 654.3 664.5 678.1 692.1 707.6 719.5 729.4 736.5 742.6 747.5 751.4 754.4 754.2 753.1 748 739.7 726.6 715.7 699.9 694 683.2 679 672.1 655.6 641.8 622.5 606.1 594.1 585 573.2 570.7 570.1 566.8 567.3 565.2 560.4 558.1 556.2 553.2 549.9 549.1 548.7 548.1 550.7 549.8 549.2 546.9 554.6 557.3 559.6 562.8 566.6 570 575.9 581.8 590.3 597.5 599.3 607.5 612.8 616.2 624.1 635.7 643.4 650.7 652.4 653.1 654 654.5 650 648.5 643.2 625.5 616 607.9 595.6 558.1 520.3 493.6 467.9 451.5 440.6 428.4 430.5 430.8 443.6 441 433.6 418.8 401.3 377.9 361.9 351.2 335.3 308.4 285.3 264.5 238.3 214 193.2 170.8 155 144.8 144.6 144.6 144.6 144.6 144.6 144.6 144.6 144.6 144.6 144.6 144.6 144.6 144.6 144.6 169.1 193.7 236.7 258 256.7 227 245.7 274.7 309.5 346.7 385.1
413.2 398.1 374.9 353.6 332.5 311.6 290.4 273.1 256 238.2 220.9 200.5 180 178.4 178.4 178.4 178.4 178.4 178.4 178.4 178.4 178.4 178.4 178.4 178.4 178.4 178.4 182.9 197.3 198.6 193.6 181.4 178.6 179.1 183.6 189.4 197.8 208.7 219.8 238.8 258 275.5 300.2 319.7 343.3 367.8 392.2 417.2 435.9 450 462.3 475.1 485.5 490.2 484 477.2 482.1 493 502.4 516.5 532.7 544.9 555.5 565.4 575.5 587 596.4 609.5 619.4 631.2 641.5 656.3 665.5 676.1 689.2 703.5 715.8 726.4 735 741.3 747.8 753.4 757 759.3 758.4 757.2 754.4 749.6 735.9 724.6 713.8 703.2 692.5 687.2 679.5 674.1 665 646 624.4 607.7 597.7 588.7 587 585.8 583.3 581.6 576.4 569.5 563.9 560.4 556.7 550.2 550.2 555.5 546.8 549.4 547.8 545.9 540.7 544.8 548.5 550.6 553.6 556.5 559.2 562.8 572.1 579.5 584.2 590.2 600.2 606.6 612.7 619.5 626.8 634.1 637.6 640.4 646.9 649.1 644.2 641.8 642.7 636.1 619.8 611.8 608.1 593.7 566 527.9 509.5 474.2 466.4 451.6 439.7 438.5 448.4 448.5 434.6 419.2 399.4 383.2 364.5 351.5 338.1 324.2 300.8 275.6 251.1 227.6 209.2 189.5 172.3 159.9 148.6 144.6 144.6 144.6 144.6 144.6 144.6 144.6 144.6 144.6 144.6 144.6 144.6 144.6 144.6 162.8 190.1 227.2 258 258.1 240.1 255 287.8 314.4 354.3 390.6
413.9 395.8 372.4 347.4 326.4 306.4 285.2 260.8 244.3 227.4 211.4 192.6 178.4 178.4 178.4 178.4 178.4 178.4 178.4 178.4 178.4 178.4 178.4 178.4 178.4 178.4 178.4 187.5 200.6 201 193.7 181.2 179.1 180.2 184.8 191.7 200.3 211.2 225 240.1 258 276 296.8 315.7 340.3 364.2 390.5 416.6 436.7 451.4 467.4 481.1 494.1 498 495.3 488.4 487.7 491.7 505.4 527.3 542.9 558 571.1 583.7 593.6 603.3 610.7 619.3 629 642.5 653.4 662.8 674.2 685.5 698.8 712 722.1 733.2 741.5 747.9 754 758.9 762.7 764.2 763.9 763.5 760.1 755.8 742.8 733.3 723.4 712 697.5 692.2 684.1 678 672.9 661.6 649.3 625.2 612.5 606.8 601.5 598.8 596.5 590.9 582.6 574.8 571 563.4 559.5 557.3 558.2 558.6 547.4 546.3 545.5 546.7 537.2 536.6 540.1 541.9 544 546 544.4 548.6 557 567.5 573.7 581.9 591.3 601.9 607.6 614.9 621.7 623.9 628.2 632.5 637.4 643.8 648.2 648 638.7 632.2 620.7 606.5 598.7 584.8 562.7 537.9 514.6 485 464.5 451.4 450 444.2 442.4 438.2 426.2 406.4 391.1 377.4 357.4 344.2 322.3 307.1 291 268.2 244.6 224.8 204.7 187.4 170.1 160.6 144.8 144.6 144.6 144.6 144.6 144.6 144.6 144.6 144.6 144.6 144.6 144.6 144.6 144.6 144.6 161.1 181.6 220.1 255.5 256.4 246.8 276 299.6 321.7 355.9 382.3
416.5 396.6 371.2 345.7 324.1 301.7 279.3 255.7 233.3 216.9 201 185.9 178.4 178.4 178.4 178.4 178.4 178.4 178.4 178.4 178.4 178.4 178.4 178.4 178.4 178.4 178.4 188.6 199.9 199.6 190.4 181.7 180.6 181.1 185.2 191.8 202.3 211.7 224.7 240.7 259 277.5 296.7 318.1 337.7 361.8 389 414.4 435.8 454 472 488.5 500.7 506 506.2 498 497.4 497.3 511.9 530.9 547.9 564.5 578.8 590.8 601.3 610.2 619 628.9 639.7 650.8 660.9 671.2 682.3 694.5 708.1 719.1 729.4 739.9 747.7 754.4 761.6 768.3 771.9 772.5 771.6 770.1 766.9 762.7 754.7 742 730.3 719.1 707.2 699.4 689.9 680.6 674.9 668.5 656.4 644.3 629.6 618.4 613.1 604.2 598.5 591.7 584.6 579.8 574.5 568.1 567.1 567 562.4 555.1 550.8 548.7 547.1 544.8 539.2 532.4 529.9 527.6 530.9 527.9 528 528.9 532.8 547.8 560.4 574.9 583.7 593.1 599.1 607.4 612.9 614 616.8 621.2 626.7 632 635.7 642.1 637.6 626.7 616.1 607.8 593.1 580.8 562.7 540.3 506.9 480.5 462.6 451.8 445.1 430.8 428.4 420.6 413 397.4 379.1 367.3 353.8 340.3 326 315.6 297.2 265.4 240.7 225.1 205.9 187.6 171.7 162.8 145.6 144.6 144.6 144.6 144.6 144.6 144.6 144.6 144.6 144.6 144.6 144.6 144.6 144.6 144.6 157.4 177.2 213 244.5 257.2 248.1 277.3 301.7 325.6 351.9 377.9
412.3 394.7 369.1 349.7 325.8 302.7 274.8 250.3 226.1 205.7 192.9 179.2 178.4 178.4 178.4 178.4 178.4 178.4 178.4 178.4 178.4 178.4 178.4 178.4 178.4 178.4 178.4 185.3 193.2 197.6 190.4 182.3 181.3 182.8 186.6 192.6 203 213.5 225 239.9 258.7 276.2 296.2 317.2 341.5 371.2 397.1 424.6 442.4 462.3 479.9 494.2 505.1 512.6 519.2 517.5 518.9 508.9 512.9 535.9 551.8 569.2 584.4 596.1 608.2 618.9 626 634.5 645 656.1 666.4 681.5 692.2 703.1 714.5 725.6 735.7 744.9 753.9 760.6 767.9 775 778.3 779.7 778.7 776.3 773 768.9 763.3 754.9 740.8 726.7 720.9 712.3 700.8 690.8 680.8 674.3 664 656.2 643.3 633.5 624.2 613.4 605.1 599.7 592 584.4 581.1 579.2 576.1 574.1 568.8 561.3 553.9 549.1 546 543.4 544.8 538.4 536.1 532 521.5 502.8 499.1 504.9 507 519.5 541 557.9 570.4 582.8 588.8 595.2 597.6 599.1 604.7 609.3 613.6 622.1 625.7 627.1 620.6 619.4 612 605.8 602.8 591.1 561.4 530.9 495.8 481.7 457.6 443.1 429.1 417.7 414.5 406 395.1 386.7 370.4 365.7 354.6 347.7 328.4 314.5 297 277.2 255.3 237 210.4 198.3 184.2 168.7 150.7 144.6 144.6 144.6 144.6 144.6 144.6 144.6 144.6 144.6 144.6 144.6 144.6 144.6 144.6 150.1 179.9 209.3 248.8 256.6 257.5 271.7 296.5 321.5 339.8 378.2
407.7 388.2 370.5 354.6 334.4 309.6 279.9 246.5 226.3 206.1 189.7 178.8 178.4 178.4 178.4 178.4 178.4 178.4 178.4 178.4 178.4 178.4 178.4 178.4 178.4 178.4 184.7 187.9 190.8 193.8 189.1 182.1 182.1 183.2 188 194 203.2 214.1 225.3 240 257.3 279.9 304.5 327.8 349 379.7 405.9 432.6 450.4 472.2 487.7 500.8 513.1 523.9 533.3 537.3 537.8 527.1 517.6 538.6 558.9 575.4 588.8 600 611.6 619.8 628.7 640.4 650.6 662 673.2 688.2 700.2 711.8 721.9 731.3 742.1 751.5 759.7 767.2 773.1 779.9 783.9 786.5 785.5 783.5 777.8 775.3 770.3 763 750.7 735.4 726.8 721.5 713.7 703.8 691.9 683 673.2 662.8 654.4 645.1 636 621.5 612 603.8 597.2 594.9 591.5 591 588.7 582.4 573.4 566.9 561.1 555.3 548.9 545.9 542 540.2 537.8 532.3 528.2 513.3 490.7 472.6 479.4 485.4 516.6 540.2 555.4 563.5 566.1 568 572.2 582.6 592 598 603.1 605.1 606.2 608.7 612.3 610.5 606.2 606.6 607.9 606.7 550.7 517.4 491.2 473.6 448 426.5 417.5 404 398.4 393.6 385.4 374.2 365.2 361.2 355.6 345.1 328.9 316.4 301 288 265.8 241.6 223.6 217.3 209.7 204.5 183.6 144.6 144.6 144.6 144.6 144.6 144.6 144.6 144.6 144.6 144.6 144.6 144.6 144.6 144.6 154.1 178.1 216 245 259.7 246.9 265.1 286.4 309 330.5 372.5
404 387.4 371.1 358.2 341.4 313 276.4 246.5 225.9 205.6 190.8 178.4 178.4 178.4 178.4 178.4 178.4 178.4 178.4 178.4 178.4 178.4 178.4 178.4 178.4 178.4 190.6 195.2 192.4 193.2 186.8 183.3 183.4 185 186.4 193.4 201.5 214.6 227.8 243.7 262.9 284.3 308 336.2 361.4 390.2 420.1 444.3 458.6 482 494 507.9 523 540.6 548.3 553.7 554.5 549.2 541.8 542.4 565.9 579.9 591.1 599.1 610.8 619.9 632.2 643.9 654 666.8 679.3 691.9 707.6 719.2 728.8 738.3 746.9 755.6 764.8 773 780.8 788.4 792.9 793.4 794.3 791.3 785.9 782.4 778.1 774 762.6 747.9 743 733.9 724.8 717.6 715 707.1 694.1 688.6 672.5 655.3 642.2 631.5 621.2 616.2 613 608.4 605.8 601.2 597.2 594.3 589.2 583.5 575.3 567.1 557.7 553.8 548.5 543.4 539.8 533.5 522.7 515 498.2 472.7 448.4 473.7 480.5 503.6 515.9 521.2 523.7 522.6 534.1 557.6 570.3 575.4 580.4 583.2 585.2 591.8 599 599.9 605.6 606.2 602.3 584.9 541.6 517.6 491.4 469.5 447.6 425.8 408.9 395.1 387.3 383.2 381.5 373.4 364.8 358.1 348.1 337.9 334.1 332.7 326.1 309.8 286.3 262.8 247.6 247 231.1 195.9 162.4 144.6 144.6 144.6 144.6 144.6 144.6 144.6 144.6 144.6 144.6 144.6 144.6 144.6 151.7 160.1 178.1 208.7 231.6 241.3 240 254.5 275.8 300.8 331.6 369.3
405.6 389.1 372.9 359.9 334 300.3 269.7 244.9 221.6 204.1 187.5 178.4 178.4 178.4 178.4 178.4 178.4 178.4 178.4 178.4 178.4 178.4 178.4 178.4 178.4 178.4 192 198.3 198.6 191.3 186 184.5 184.9 185.6 188.3 194 204.5 216.6 227.8 247.4 273.8 294.5 316.6 346.3 373.2 397.5 431.3 453 469.1 487.4 507.2 528.7 547 566.8 570.7 573.8 576.3 575.5 569.4 553.8 572.3 582.9 592.6 601.2 611.2 620.3 631.7 644.1 655.8 669 681.5 696 710.4 721.3 733.2 743.5 752.4 762 771.4 780.6 787.8 795.5 800 802.9 803.1 802.5 799.9 794.4 793 788 778.3 769.8 763.4 759.9 749.3 739.7 727.4 716.8 703.4 694.6 683.1 666.7 652.1 643.9 634.8 630.8 625.5 619.7 619 619.8 620.9 623.3 613.4 599.8 591.7 583.2 573.8 564.6 560.7 550.4 541.8 529.3 518.1 501.6 490.1 469 440.5 440.1 440.8 449.1 476.6 466.2 471 477.8 487.8 499.6 525.7 526.6 549.3 543 558.7 560.2 569.1 574.8 574.8 578 572.4 556.5 537.6 515.6 491.3 475.8 445.8 422.8 406.4 391.6 381.8 379.7 378.1 375.6 369.7 365 357.5 350.5 348.8 348.8 339.6 338.7 318.1 290.5 261.8 255.3 225.7 192.3 166.8 150.5 144.6 144.6 144.6 144.6 144.6 144.6 144.6 144.6 144.6 144.6 144.6 160.4 164.9 171.5 179.5 201.1 220.6 222.7 237.8 253.5 273.5 301.3 337 366.7
406.9 390.1 373.4 351.8 318.9 296.6 274.8 246.9 221.2 200.9 185.6 178.4 178.4 178.4 178.4 178.4 178.4 178.4 178.4 178.4 178.4 178.4 178.4 178.4 178.4 178.4 193 202 204.4 201.8 187.3 185.5 186.2 186.6 192.4 196.2 205.9 216.8 231.8 256.3 283 309.9 333.6 354.6 378.9 403.7 435.2 457.7 478.6 493.7 521.5 543.4 568.4 589.7 598.3 599.9 594.2 591.3 586.9 571.3 576 584.6 594.1 603 611.8 620.5 632 645.3 655.1 667.3 681.4 698.8 713.6 724.1 737.5 750 758.2 768.6 776.6 785.8 793.4 800.6 808.3 811.1 815.9 816.7 814.6 812.7 806.9 802.4 795.3 791.1 787.4 782.2 770.5 759.8 745.4 728.6 712.1 699.6 689.9 681 673.4 664.3 650.5 644.3 638.3 638.6 641.4 644.7 644.8 639.1 627.7 619.6 602.2 590.1 581 572.3 567.6 556.4 542.5 528.6 513.3 492.6 473 453.3 430 402.6 400.4 412.3 415.4 427.3 431.3 442.1 448.8 458.3 469.5 490.5 510.5 506 507.7 519.4 532.4 532.6 542.3 530.9 528 545 538.4 520.8 492.6 467.1 437.4 414.7 404.6 391.7 386.1 388.6 390.5 377.5 377.5 378.9 375.5 373.2 373 381.5 364.4 372.2 343 303.8 268.1 240.3 209.8 191.7 168.3 155.5 144.6 144.6 144.6 144.6 144.6 144.6 144.6 144.6 144.6 144.6 144.6 159.6 171 181 183.7 196.8 208.5 213.8 231.7 253 276.2 298.9 328.2 365.3
403.3 385.5 367.6 349.1 328.6 300.2 280.6 249.5 221.1 197.8 180.1 178.4 178.4 178.4 178.4 178.4 178.4 178.4 178.4 178.4 178.4 178.4 178.4 178.4 178.4 183.7 193.9 200.5 205.9 199.6 188.5 186.9 187 187.2 196 199.5 211.2 218.6 235.3 264.3 293.1 332.3 351.6 364.5 385.4 411.2 439.1 462.5 481.2 502.6 522.4 553.3 572.7 591.1 601.2 605.1 602.2 599.4 593.9 585.8 578.6 583.2 594.8 603.7 611.5 620 632.2 642.8 653.5 664.9 683 695.8 709.1 721.7 737.5 751.1 760.5 770.8 781.1 789.1 797.5 806.3 816.1 823.9 830.1 832.9 831.5 829.5 827.6 820.6 815.9 811.5 804.8 793.2 779.4 766.2 753.9 739.1 723.5 708.3 696.5 691.1 684.8 674.8 668.2 660.2 657.5 658.4 657.4 658.3 657.2 649.6 634.5 622.3 609.1 595.3 581.7 570.5 562.2 559 538.7 521.5 513.9 507 458.3 431.4 414.3 392.7 363.6 379.1 385 386.2 395.1 400.9 414 420.3 429.7 437.8 442.7 453.8 456.1 470.1 487.7 492 498.7 486.4 496.1 512.4 512.5 499 494.4 472.3 445.1 423.5 405.7 396.5 393.3 414.5 409.9 395.8 407.2 407.3 399.2 404.1 400.1 398.6 399 379.1 335.1 305.5 269.1 242.3 208.2 187 173.4 149.9 144.6 144.6 144.6 144.6 144.6 144.6 144.6 144.6 144.6 144.6 144.6 144.6 164.2 181 181.5 190.4 198.3 211.7 226.1 244.5 264.3 293.2 322.2 356.4
400.3 385.1 367.4 347.7 327.1 304.7 277.1 244.8 217.4 196.4 178.4 178.4 178.4 178.4 178.4 178.4 178.4 178.4 178.4 178.4 178.4 178.4 178.4 178.4 178.4 187.6 193.3 198.3 200.3 196.4 192.2 190.2 188.6 188.9 196 205.2 216.8 225.6 241.2 263.3 293.1 325.7 348.4 369.2 395.4 418.1 442.7 468.1 485 505.7 524.9 549 569.2 587.4 596.1 601 601.2 599.9 597.6 596.2 594.2 593.1 594.7 596.8 610.2 618.8 628.8 638.2 651 663.3 681.4 693.4 705.9 718.5 731 747.4 760.7 771.7 782.9 790.3 802.8 814 822.2 832.1 840.1 843.9 847.5 845.3 843.1 834.6 826.6 820.3 814 798.4 785.5 770.3 756.4 742.3 727.5 712.9 702.3 695.1 686.3 679 672 666.1 667.6 666.9 663.1 662.3 658 651 634.2 622.7 609.1 595.7 584.2 568.2 552.7 541.7 531.7 516.6 491.3 467.7 440.5 416.5 396.7 376.4 352 353.3 356.8 360.4 364.4 371.7 376.1 383.2 392.6 396.9 403.7 407.5 415 424.6 430.9 435.5 444.7 440.8 463 466.2 465.9 466.4 469.8 468.2 464.3 454.6 436.9 403.2 397.9 415.2 440 430.5 437 434.2 430.6 422.6 412.7 409.3 403.2 376.2 336.2 294.3 260.1 232.7 204.4 179.9 164.3 144.6 144.6 144.6 144.6 144.6 144.6 144.6 144.6 144.6 144.6 144.6 144.6 144.9 159.4 172 178.1 181.5 192.4 205.6 222.3 238.2 262.5 298.4 327.4 355.8
396.2 385.3 367.2 346.3 325.5 299 267.3 240.4 213.8 195.3 178.4 178.4 178.4 178.4 178.4 178.4 178.4 178.4 178.4 178.4 178.4 178.4 178.4 178.4 178.6 185.3 189.8 194.5 196.7 202.2 201.1 193.4 189.9 190.1 197.3 206 218.8 229.4 243.9 264.1 292.5 320.1 354.1 382.5 408.6 425.1 446.7 466.3 487.9 510 527.7 546.1 562.4 578.4 589.8 594 596.5 598.9 600.5 601.5 602.8 603.1 605 607.2 607.6 617 626.4 634.6 645.4 660.6 675.5 688.7 702 714.9 728.4 743 759.7 773.6 784.1 793.1 805.5 818.4 827 839.8 848.6 855 860.8 860.1 854.6 843.6 834.7 825.1 814.8 797.4 783.4 768.4 755.1 743 726.2 712.4 702.4 695.9 685.9 678.9 673 668.4 669.5 672.2 661.8 654.7 649.3 642.6 631.9 616.3 603.6 592.8 576.3 557.1 541.2 520.7 504.1 478.6 451.7 432.5 420.9 400.1 379.9 367.7 342.9 332.5 348 355.6 356.2 353.7 351.8 351.3 358.6 360.7 367.1 373.3 376.3 380.5 383.9 386.9 396.9 406.2 410.2 410.1 418.5 419.8 418.9 425.6 431.8 435.1 426.5 406 393.3 406.1 425.9 438.8 432 433.4 432.3 423.7 421 407.1 388 352.8 320.9 285 260 230.1 196.6 173 155.5 144.6 144.6 144.6 144.6 144.6 144.6 144.6 144.6 144.6 144.6 144.6 144.6 144.6 153.1 166.5 174.8 177.3 184.5 197 213.4 235.7 261.7 294.2 325.2 365.5
392.5 382.9 365.9 347.6 325.5 293.9 264.5 238.2 211.4 192.3 178.4 178.4 178.4 178.4 178.4 178.4 178.4 178.4 178.4 178.4 178.4 178.4 178.4 178.4 178.4 183.7 190.2 196.6 200.6 205.3 206.8 198 191.6 191.9 195.3 207.6 217.4 230.4 246.3 271.3 294.3 329 359.9 394.8 417.1 435.3 449.2 468.7 488 510.2 530.5 542.6 556.1 570.3 581.4 588.2 593.6 597.7 601.1 603.6 607.6 610.5 612.7 614.7 617.4 621.9 626.7 637.1 648.2 662.1 669.7 684.2 696.6 712 726.5 742.5 758 774.8 787.6 799.6 812.3 824.6 833.1 844.3 855.5 868.9 871 869.8 861 846.3 838.8 827.7 810.7 794 778.8 765.4 752.7 737.6 724.1 709.8 702.3 691.8 682 673.2 666.5 663 660.6 658.1 651.3 644.6 636.6 627.3 616.6 605 592 576.8 558.2 541.2 512.2 489.6 465.2 443 423.5 409.8 395.5 378.3 366.9 356.7 337 317.6 325.6 328.5 329.5 329.5 330.9 337.9 327.3 329.2 331.3 339.2 340.9 343.7 346.3 350 353.6 362.9 369 371.4 371.5 371.7 370.7 372 379.1 388.7 391.3 386.7 374.6 378.7 392.6 416.8 420.8 419.3 419.1 413.3 398.3 387.4 360.1 327.7 299.1 272.9 256.6 221 185.8 164.2 151.2 144.6 144.6 144.6 144.6 144.6 144.6 144.6 144.6 144.6 144.6 144.6 144.6 145.3 149.9 162.8 168 170.8 177.1 190.2 208.4 234.7 260.1 287.8 320.7 361.5
395.2 384.7 371.2 354.6 331.8 299.2 269.6 236.9 213 193.4 178.4 178.4 178.4 178.4 178.4 178.4 178.4 178.4 178.4 178.4 178.4 178.4 178.4 178.4 178.4 188.7 197.4 202 204.9 207.4 205.5 197.3 193.6 193.3 197 207.8 220.5 236 251.6 273.4 299 332.2 363.9 396.6 420.1 439.3 452.6 473.5 492.8 508.1 526.9 538.7 550.7 563.7 574.6 583.1 589.7 596.1 600.4 605.2 610.6 614.4 618.3 621.3 624.7 628.6 633 638.4 650.6 666.4 677.9 688.4 702.3 716.3 730.1 747.2 761.4 776.9 791.9 805.9 816.7 829.7 840.2 851.1 866.3 879.8 879.8 871.5 859.9 847.4 842.7 826.1 807.6 788.1 774.7 762.9 745.5 732.6 719 707.5 697.9 684.2 672.3 662.8 657.3 655.6 650.5 643.1 636.1 630.6 622.1 612.2 600.8 587.5 574.5 552.4 533.9 506.8 486.5 468.4 445.1 421.1 409.6 392.6 377.6 363.4 352.3 343 329.4 309.7 299.1 297.3 295.4 295.6 297.5 303.9 301.1 304.3 302.8 308.6 309.2 308.6 312.1 316.4 321.3 322.6 330.3 332.2 332.5 334.3 329.7 335 339.3 350.5 351.3 354.2 349.1 353.3 364.3 388 393.3 391 384 379.2 365.1 355.9 342.8 332.4 286 267.7 238.3 206.8 176 159.7 148.5 144.6 144.6 144.6 144.6 144.6 144.6 144.6 144.6 144.6 144.6 144.6 144.6 145.7 149.3 155.5 161 165.7 174.3 187.6 204.8 231.6 258.8 283.3 316.7 358.5
397.9 383.4 369.4 354.3 326.6 300.2 265.4 238 217.7 197.1 178.4 178.4 178.4 178.4 178.4 178.4 178.4 178.4 178.4 178.4 178.4 178.4 178.4 178.4 179.5 189.8 198.2 202 207.9 208 206.3 201.7 195.5 195.1 198.2 210.7 222 239.9 255.8 276.9 304.2 336.8 363.7 391.4 414.9 436.2 455.4 477.3 495.7 507.5 520.5 535.2 549.2 560 569.4 578.4 586.7 593.5 597.9 605.2 610.4 617.9 622.5 627 632.9 636.3 638.6 644.2 652.4 667.1 681.7 694.3 707.3 722.4 738.5 752.2 768.6 783.9 797.7 810.4 823.8 838.3 847.7 857.4 871 878 876.7 866.5 857.1 845.5 835.7 823.2 803.9 785.2 771.5 757.7 739.8 724.9 711 701.8 689.8 676 663.6 654.6 650.5 647 640.3 631.5 622.6 614.2 605.5 594.4 581.2 568.2 549.6 531 507.1 479.7 464.1 443.3 427.3 411.4 385.7 376.7 364.7 354.4 342.6 333.3 318.4 306.5 294.4 283.9 281.8 278.6 276.7 279.4 278.1 278.8 279.3 282.3 283.2 284.1 286.4 288.6 290.1 290.4 295.9 296.7 295.4 295.7 296.8 299.9 308.8 311.6 319 322.6 326.1 328.8 336.6 354.5 357.7 353.6 345.3 340.6 338.7 335.2 318.7 301.2 270.2 250.5 224.2 194.5 171.9 159.1 144.6 144.6 144.6 144.6 144.6 144.6 144.6 144.6 144.6 144.6 144.6 144.6 144.6 145.4 151.8 158.7 160.8 165.6 175.7 188.1 206.2 228.6 255.2 281.5 319.7 355.8
394.8 380.9 367.1 354.3 327.3 292.6 263.9 241.5 219.5 196.9 179 178.4 178.4 178.4 178.4 178.4 178.4 178.4 178.4 178.4 178.4 178.4 178.4 178.4 179.9 191.3 196.7 202.9 210.8 214 212 204.3 196.9 196 199.9 212.3 223 245.7 261.5 277.7 311.8 340.6 368.6 394.9 432.1 451.1 458.9 473 493.8 504.7 518.3 534.4 547.3 556.4 565.3 574.9 583.9 592.2 599.9 607.2 615.9 622.2 628 635.8 642.3 647.1 650.4 653.4 658.5 668.4 683.9 698.2 712.1 730 744.2 761.1 774.1 790.5 803.8 816.3 831.5 843.4 852.7 861.6 869.5 872.7 868.5 860.6 849 837.4 828.7 814.8 801.1 781.4 766.4 749 735.7 719.6 705.7 694.2 682.4 670.1 659.3 648.9 643.9 638.7 630.8 620.9 609.3 599 587.5 574.5 558.1 533.8 513 497.5 473.8 455.5 441.1 424.8 405.5 392.9 378.9 361.4 352.6 339.9 325.7 318 319.2 317.7 311.9 304.4 292.3 287.5 280.5 269.3 264.2 257.7 261 262.7 264.2 266.2 266.5 267.5 266.6 265.7 268.4 267.6 268.7 268.1 269 269.5 277.2 284.2 289.2 296.6 298.2 300.4 310.4 320 317.7 314.5 315.9 315.8 313.3 300.4 279.8 265.5 250 231.6 205.6 182.4 161.5 154 144.6 144.6 144.6 144.6 144.6 144.6 144.6 144.6 144.6 144.6 144.6 144.6 145.1 148 153.4 156.4 160.7 167.6 179.4 191.8 208.1 232.8 258.6 287.5 321.1 356.5
392.7 381.2 367 353.3 322.8 298.7 268.3 242.8 222.8 199.5 183.6 178.4 178.4 178.4 178.4 178.4 178.4 178.4 178.4 178.4 178.4 178.4 178.4 178.4 178.4 187 192.9 206.9 211.7 214.3 215 207.3 199.2 197.8 201.1 212.6 228.5 247.3 263.1 286.2 312.7 346.7 374.2 398.3 432.7 464 463 473.6 488.2 502.5 515 529 540.8 552 563.6 574.2 583.6 592 601.3 609.3 617.9 626.3 635.7 645.3 651.4 658.4 663.7 672.2 676.2 679.3 690.1 704.5 720.1 735.4 751.9 764.3 781.4 796.2 810.3 823.2 837.3 848.8 858 863.9 868.8 868.2 862.5 853.5 841.4 829 818.1 804.2 789.8 773.4 759.6 744.5 727.1 713.5 700.2 688.7 675.7 663.6 653.6 644.1 638.3 630.6 621.4 611.4 602.5 592.3 577.3 543.6 523.7 500.9 481.7 465.3 449.1 435.3 421.1 406.1 389.6 372.7 362.2 348 344.3 349.5 352 354.3 350.3 346.1 336 321.3 312.5 302.2 293 283.2 273.9 264.9 256.2 244 241.8 240.2 248.4 249 249.7 247.1 243.9 247.4 247.3 245.1 245.8 244.8 248.6 254 261.7 268.2 275.8 276.6 286.9 302 292.7 283.2 286.4 287.5 275 260 247.5 239.3 227.6 209.4 189.6 169.8 156.8 149.2 147.4 144.6 144.6 144.6 144.6 144.6 144.6 144.6 144.6 144.6 144.6 144.6 148.6 149.1 149.3 153.8 161.4 169.7 182 193.6 213 239.3 267.3 300 329.1 364.7
397.5 386 369.3 344.7 323.4 291.1 269.7 244.2 219.5 195.2 184.3 178.4 178.4 178.4 178.4 178.4 178.4 178.4 178.4 178.4 178.4 178.4 178.4 178.4 178.4 184.2 190.8 201.8 208.2 214.1 224.1 214.3 200.6 199.9 203.2 212.3 223.3 244.9 268.7 289.5 321.6 351.8 374.7 401 436.5 459.4 462.1 468.9 481.7 497.9 512.1 527 540.2 550.1 561.8 574.4 583.4 592.2 602.1 613 623.9 634.1 643.5 652.8 662.3 669.6 677.7 689.6 696.8 696.2 697.8 710.2 726.2 742.2 757.8 769.5 785 801.7 814 827.9 841 853.2 863.3 867.8 867.8 862.1 854.8 842 832.1 820.9 811.9 794.1 781 764.9 756 738.6 722.8 708.9 693.6 683.4 672.4 661.6 652.8 651 646.6 639.3 630.7 621.2 610 587.7 556.6 524.4 496.6 477.3 457.7 447.3 431 417.2 403.8 392.7 375.5 359 349.5 355.9 366.5 372.5 378.1 380.7 377.1 372.6 356.5 340 327.2 314.4 302.8 295.9 289.4 278.9 269.3 260.6 250.7 238.6 234.1 235 233.4 231.6 231.3 230.9 229.6 229.1 229 226.8 227.6 230.9 237.3 242.8 249.9 251.9 266.5 275.8 268.5 252.7 251.6 252.5 240.6 232.7 223.8 214.9 204 190.3 173.6 163.5 154 150.4 148.7 145.5 144.6 144.6 144.6 144.6 144.6 144.6 144.6 144.6 144.6 144.6 145 148.4 148.4 152.6 161.3 170.1 180.1 196.1 214.8 239.6 272.6 300.1 335.2 366.1
402.6 388.9 367.3 345.2 323.1 298.4 265.5 243.4 215.8 192.3 187.2 180.4 178.4 178.4 178.4 178.4 178.4 178.4 178.4 178.4 178.4 178.4 178.4 178.4 178.4 181.8 192.6 207.3 207.8 220.9 228.4 218.7 206 201.6 204.8 213.2 227.7 253.4 277.6 299.1 324.4 356.5 392.7 407.1 428 443.8 458.4 469.4 482 495.9 511.6 525.7 538.6 550.3 561.1 574 583.8 593.8 603.1 617.1 628.2 640.3 649.8 660.4 669.9 682.9 692.3 705.7 712.8 715.4 715.8 715.8 730.8 746.7 761.1 774.7 791.3 803.8 815.2 829 842.5 858.1 868.4 869.7 864.6 853.9 843.2 830.8 824 813.1 801.5 788.6 772.7 759.8 747.9 733.6 717.4 703.4 691.4 681.9 673.4 664.5 660 658.2 652.4 642.7 631.9 618.6 595.9 562.3 533.5 505.9 483.9 460.3 437.7 421.6 410.9 405.4 394.5 381 352.7 358.4 366.7 377.3 388.5 395.8 402.1 408.8 403.1 399.6 374.7 360 346.8 332.9 321.3 313.8 303.8 294.4 287.6 274.3 264.5 245.8 238.8 229.8 226.8 226.5 220.9 217.6 214.8 212.5 210.4 212.8 214.1 217.4 219.5 225.2 230.1 231.6 233.4 239.3 246.3 228.6 221.4 219.7 220.3 209.6 204.1 195.2 184.3 175.7 167.6 159.5 153.1 151.8 150 146.3 144.6 144.6 144.6 144.6 144.6 144.6 144.6 144.6 144.6 144.6 144.6 145.1 147.6 151.1 159.9 172.6 187.3 198.5 216.2 242.4 268.9 297.6 331.5 371.6
388.1 379 367.9 343.1 317.4 291 261.9 233.6 212.2 202 195 189.7 179.9 178.4 178.4 178.4 178.4 178.4 178.4 178.4 178.4 178.4 178.4 178.4 178.4 179.7 190 201 211.9 223.1 236.4 217 210.6 203.3 206.1 212.4 229.2 255.7 283.9 311.8 329.2 357.4 386.1 401.3 420.3 440 456.2 467.5 481.4 494.6 510.9 525.5 537.6 548.7 562.4 573.5 584.1 595 605.9 620 633 646.1 656.2 669.9 681.6 694.3 708.7 722.7 732.1 731.8 731.7 725.9 736.9 750.3 765.7 776.1 791.2 805.9 816 830.5 843.8 857.7 863.6 861.4 853.9 842.5 833.7 821.5 812.4 801.1 790.3 779.8 765.4 753.9 740.3 725.9 712 697.2 687.7 680.9 675.3 672.2 670.9 667 655.6 640.9 624.4 604.2 574.7 541.4 512.9 488.5 471.1 451.9 434.6 410.1 400.5 388.3 378.5 368.3 364.1 376.5 386.4 394.5 406 418.1 431 431.5 428 425.9 407.2 384.3 370.3 356.7 344.5 330.8 318.1 306.7 296.2 285.8 273.2 263.8 251 243.4 241.7 230.7 230.1 224.3 220 215.8 209.2 200.2 201.6 202.1 212 214.1 217.8 216.4 214 214.6 212 211 208.1 204.8 198.1 192.9 187.4 181.9 174.4 168.6 162.3 155.3 153 152.3 150.5 149.1 146.3 146 144.6 144.6 145.8 144.6 144.6 144.6 144.6 144.6 144.6 144.6 144.6 150.7 158.4 169.3 182.5 197.2 220.2 246.4 272 298.1 332.5 374.4
383.4 374.6 362.6 349.8 321.6 284.8 261.6 236.6 218.6 213 199.5 189.8 185.1 178.4 178.4 178.4 178.4 178.4 178.4 178.4 178.4 178.4 178.4 178.4 178.4 178.4 188.2 198.5 208 221.9 240.6 221.8 214.1 206.2 207.9 213.1 228.6 251 285.5 317.8 339.6 363.7 384.6 400.6 419.4 437.4 453.7 467.3 481.1 494.3 510.6 523.5 536.9 549.8 563.6 574.3 584.7 595.9 609.4 623 640 653.1 664 678.4 692.1 705.3 721.4 738.6 750.3 751.5 744.7 744.3 750.8 760.3 770.6 782.6 794.5 808 819.8 830.4 841.7 848.8 850 846.9 838.7 831.2 822.9 811.8 799.5 787.8 776 766.9 755.1 742.7 730.5 719.8 703.4 694.1 689.8 684.4 681.3 679.4 680.1 670.2 648.8 624.6 602.5 579.4 550.3 521.3 495.7 476.5 458.8 442.8 427.4 412.7 397.8 378.6 366.8 365 377.9 391.6 401.8 412 424.9 438.9 455.3 448.1 450.7 446.1 432.8 421.6 404 383.4 368.6 348.8 330.8 316 309.1 294.8 287.9 279.3 267 258.9 253.7 247.8 242.6 235.5 228.4 219.4 211 206.4 196.7 197.2 198.4 204.5 209.2 207.3 205.3 203 201.3 200.3 198.5 194.4 188.6 181.9 178.4 171.4 164.4 158.9 157.3 155.4 153.9 152.4 151.5 149.4 148 146.4 146.2 147.1 146.1 144.6 144.6 144.6 144.6 144.6 144.6 144.6 144.6 151.6 157.8 166.6 179.1 196.2 219.9 243.7 273.9 305 335.5 377.3
394.7 383.9 374.3 339.8 306 275.2 251.5 239.2 224 215.3 201.8 193 187.1 178.4 178.4 178.4 178.4 178.4 178.4 178.4 178.4 178.4 178.4 178.4 178.4 178.4 185.1 194.7 203.5 213 222.7 219.3 209.4 210.2 211.4 215.8 226.6 248.3 276.9 314.5 341.3 362.7 378.4 404.6 416.7 431 450.1 465.5 480 494 510.5 522.8 536.9 550.7 563.5 574.8 586.6 599.1 612.9 629.5 645.6 661.4 674.4 687.6 702.3 715.9 735.8 754.8 767.4 769.5 759.9 760.8 764.3 771 779.4 788.6 798.5 808.9 819.9 828.4 834.3 839.2 839.6 835.1 830.1 821.8 809.4 795.7 781.6 769.8 761.6 751.2 742.4 730.6 718.5 709.4 698.3 693.1 687.7 685.1 682.1 679.5 673.4 656.4 623.5 599.6 576.6 554.7 528.5 504.9 483.7 463.5 449.2 434.1 419.2 404.1 392.8 372.7 368 379.7 394.4 406.9 420.2 432.6 445.4 454.4 467 467 473.5 472.9 458.8 448.3 425.6 409 394.5 375.2 351.5 333.5 321 312.2 303.6 299.1 282.4 275 266.6 261.1 252.3 244 234.5 227 215.3 208.9 206 199.2 193.8 192.8 196.3 197.6 198.4 197.9 194.7 192 191.9 185.9 182.9 177.5 171.4 165.3 162.3 159.9 158.2 157 154.4 153.6 151.9 149.6 148.7 147.7 147.3 147.2 144.6 144.6 144.6 144.6 144.6 144.6 144.6 144.6 144.6 146.6 152.7 163.7 173.9 191.8 209.5 237.6 273.1 309.3 345.5 380.5
393.5 381.8 362.4 317.7 289 264.6 247.3 233.8 223.7 214.7 205.3 196.4 188.1 179.1 178.4 178.4 178.4 178.4 178.4 178.4 178.4 178.4 178.4 178.4 178.4 178.4 178.8 190.2 199.1 205.1 213 219.7 212.8 213.5 215.2 220.8 227.9 244.3 269.4 305.6 330.6 350.9 384.4 397.5 407.6 425.1 447.1 460.8 476.7 494.2 511 525 536.9 550.1 562.7 575.5 587.4 600.4 615.4 633.7 650.6 667.1 682.2 696 711.8 728.8 748.8 768.1 780.3 784.7 783 782 780.2 783.3 787.7 794.8 803.4 810.1 818.4 825.6 828.8 828.1 825.4 819.3 815.6 808.9 797.4 780.9 767 751.8 743.1 734.6 726.4 713.7 703 697 691.7 687.7 679 680.2 675.8 667 655.9 637.6 608.5 579.4 555.9 531.2 508 488.1 470.4 452.4 441.2 426.5 410.5 399 387.8 371.2 383.3 395.3 409.5 422 436.2 449.8 462.5 470.7 480.7 485.5 490.4 487.6 476.2 458.3 440 423.5 406.8 386.7 370.2 355.2 340.2 332.8 324.2 317.1 303 292.3 284.4 274.6 265.9 258.2 246 239.1 232.9 225.2 218.7 208.2 188.3 186.5 183.2 182.8 188.1 188.3 190.2 187.9 185.5 183.1 181.4 177.2 173.8 165.2 163.6 161.2 158.9 157.6 155.2 153.7 151.6 150.4 149.1 148 148.4 146.7 144.6 144.6 144.6 144.6 144.6 144.6 144.6 144.6 144.6 147.4 152.9 161.4 176.6 189 208.5 231.4 265.5 311.7 345.3 379.2
390.5 382 341.6 302.5 278.4 258.5 247.3 234.1 228.1 225.3 209.9 195 185.6 178.4 178.4 178.4 178.4 178.4 178.4 178.4 178.4 178.4 178.4 178.4 178.4 178.4 178.4 188.2 200.6 205.2 209.4 219.8 223.2 216.3 218.2 223.3 233.3 245.1 267.8 290.2 319 340.7 363.8 386.4 401.7 422.4 440.8 456.6 474.5 492 510.3 524.8 536.9 548.2 562.1 574.8 587.3 601.6 618.4 635.8 653.8 672.6 689.2 702.6 719.5 740.2 760 773.6 784.8 790.3 792.1 794 794.9 799.1 803.2 803.4 809.2 812.9 818.3 822.7 820.3 808.1 799.3 794.2 789.8 784.6 781.4 767.6 756.2 742.6 718.9 714.1 705.3 693.6 684.5 679 674.9 668.6 664.9 662.6 658.2 647.5 634.3 611.7 589.2 559.2 536.9 514 495 474.7 457 442 430.1 417.2 406.9 395.2 379.1 383.7 398.1 411.7 424.6 441.6 459 472.1 482.7 491.7 498.4 507.7 515.4 506.4 481.3 456.7 441.7 424.9 409.5 394.5 383.4 372.3 362.8 353.2 346.5 335 324 313 302.1 294.3 283 273.4 263.5 256.6 247.4 238.6 229 218.5 202.5 192.2 185.4 183.3 180.8 183 183.7 177.2 179.5 173.7 176.2 176 169 165.6 163.4 160.4 157.4 155.4 154 152.3 151.4 149.8 149.7 148.2 147.2 146.9 144.6 144.6 144.6 144.6 144.6 144.6 144.6 144.6 144.6 145.4 147 164.5 172.8 187.3 203.1 226.4 260 303.6 341.3 375.2
382.6 369.3 326 290.6 272.8 258.1 255.6 245.5 234.9 224.8 213.6 194.6 186.4 179.3 178.4 178.4 178.4 178.4 178.4 178.4 178.4 178.4 178.4 178.4 178.4 178.4 178.8 183.6 193 196.9 206.8 214.9 220.8 218.2 219.2 224.8 232.3 243.9 262.4 282.3 305 328.6 352.6 374.5 393.7 414.9 434.1 453.6 473.2 492.4 509.5 523.5 536.3 548.4 560.4 573 586.1 603 621.1 636.4 655 674.8 695.5 708.7 724.9 744.6 764 775.1 784.5 791.1 796.6 803.9 808.1 811.2 815 817.2 818.3 818.2 819.7 818.7 799 775.7 764.3 759.6 755.3 752.2 753.3 747 738.1 726.5 708.7 688.7 682.7 673 666.1 660.4 653.7 646.9 644.4 639.4 632.4 626.2 614.3 590.4 569.2 543.5 521.4 497.7 478.8 462 446 431.2 415.5 402.2 389 384.9 391.3 400.5 413.8 429.6 444.3 462.9 475.6 489.1 506.6 513.4 524.6 536.9 541.7 527.9 490.7 467.4 454.2 445.5 424.8 409.6 399.8 393.7 388 380.8 367.8 355.4 344.9 333.9 323.2 313.2 304 295.4 283 271.2 258 249.6 238.4 224.8 212.5 205.3 198.3 184.6 181.3 177 177.7 176.2 173.7 170.1 168.4 169.2 168 164.9 162.9 158.5 156.7 155.8 155.5 154.5 152.8 151.2 149.7 148.4 147.1 146 144.6 144.6 144.6 144.6 144.6 144.6 144.6 144.6 144.6 144.6 147.3 161.7 170 185 201.9 221.6 252.4 295.8 331.7 365.7
365 337.9 311.3 286.3 282.2 277.6 272 258.4 243.8 233.1 216.6 199.5 188.7 181.2 178.4 178.4 178.4 178.4 178.4 178.4 178.4 178.4 178.4 178.4 178.4 178.4 178.4 183.3 185.1 195.6 204.1 213.1 222.2 224.6 231.2 234.2 232.4 242.5 259.9 277.5 300.2 321.1 345 364.2 387.4 413.7 428.3 448.2 469.8 489 505.7 520.9 534.3 546.8 559.6 572.8 586 602 619.2 634.9 654.4 674.7 695.2 710.4 723.8 737.5 755.8 770.1 782.2 792.5 801.5 810.7 817.8 822.2 825.4 827.5 828 827.6 818.5 797.5 773.8 742.8 728.4 721.2 718.3 712.2 719.3 716.9 706.3 697.7 686 672.7 656 655.2 645.5 637.5 629.7 625.7 622.6 619.1 614.6 602.7 591.2 572 557.1 524.9 502.4 482.6 465.9 451.6 440 429.9 409.3 394.3 390.4 394.1 405.3 413.2 431.9 446.7 464.4 481.1 498.6 519.1 533.5 538.8 556.7 577.4 575.3 554.8 510.1 489.8 475.2 457.6 449.5 430.1 417.9 413.3 411.4 408.8 393.3 382.2 371.9 360.9 354.2 342.9 327.8 311.5 299 283.8 274.7 261.3 248.3 234.2 221.6 211 201.8 192.9 189.5 187.2 182.6 179.6 177.7 173.6 171.2 166.5 166 163.3 161.5 160.5 163.9 165.6 166.8 164.1 152.2 149.5 148.5 147.5 146.4 144.6 144.6 144.6 144.6 144.6 144.6 144.6 144.6 144.6 144.6 144.6 147.9 157.6 168.2 184.6 201.9 226.6 252.7 285.1 325 357.7
349.7 323.6 302.6 301.7 299 293 285.6 274 257.6 243.5 220.7 202.8 190.4 187.4 178.4 178.4 178.4 178.4 178.4 178.4 178.4 178.4 178.4 178.4 178.4 178.4 179.7 186.5 187.7 193 200.4 212.4 226.4 234 245.8 245.1 241.1 242.7 259.4 276.6 296 316 338.5 361.9 381.3 412 425.4 444.2 463 483.3 502.1 517.9 533.5 547.1 559.3 572.4 587.2 603.4 618 635 651.2 669.6 688.4 705.6 719.3 732.9 747.5 763 777 791 803 812.8 823.4 829.9 834.5 837.7 836.9 828.3 801.2 767.7 737.4 711.1 695.8 685.3 677.2 674 672 671.6 668.2 661.7 655.2 648.4 638.2 632.6 626.6 621.2 612.8 607.5 605.2 603.2 596.4 586.3 574.9 561.7 551.5 521 489.3 470.4 455.1 443.5 432.2 416.8 399.7 396.7 394.9 401.3 415 428.1 444.2 461.1 479.6 500.4 517.9 535.8 554 565.2 583.6 598.5 597.5 568.9 541 506.8 490.8 467.8 455.5 441.7 431.9 428.7 427.8 424.8 415.9 409.5 404.9 397.3 399.9 380.2 356.7 340 333.4 307.8 289 268.1 252.4 240.7 227.4 218.9 202.3 200.8 195.5 191.1 191.4 191.6 185 180.3 179.9 178.5 175.7 167.2 171.1 174.4 177.1 177.1 177.5 171.2 159.3 148.7 147.2 146.1 145.3 144.6 144.6 144.6 144.6 144.6 144.6 144.6 144.6 144.6 144.6 144.6 144.6 154.4 160.4 180.2 202.7 227.8 272.7 302.6 321.5 357.1
336.1 318.5 316.5 314.8 311.5 304.9 298 288.7 280 253.8 231.2 207.2 195.3 190.5 189.3 181.1 178.4 178.4 178.4 178.4 178.4 178.4 178.4 178.4 178.4 178.4 178.4 182.8 186.4 197.1 205.4 216.2 228.6 254 264 264.2 258.4 246.5 257.7 272.2 284.2 312.6 333.9 354.8 374.3 393.4 414.8 437.3 458.1 479.5 497.7 515.5 530.8 544.6 558.6 572 585.5 602.2 617.6 633.1 648.8 666.4 684 700.5 717.3 729.1 743.3 754.9 770.1 785.5 799.8 812.5 825.9 834.7 841.1 846.5 847.1 823.5 784 748.5 721 698.1 679.2 659.9 648 642.4 638.5 635.4 628.9 624.8 622.1 615.1 614.3 610.8 603.2 600.9 592.7 590.6 590.3 588.6 581.7 570.6 562.1 553 534.3 520.4 487.7 467.1 451.3 431.7 406.3 404.7 408.2 405.4 399.9 412.2 427.5 444 459.7 477.1 493.3 511.9 529 546.7 561.9 580.1 595.7 611.2 616.2 593 568.4 536.4 504.6 481 463.5 454.1 449.9 453 458.2 451.5 443.4 438.7 439.2 443 426.4 396.6 371.8 360.4 344.8 317.9 297.7 276.2 255.8 242.3 230.9 221.3 212.5 210.6 202.9 197 196.1 193.8 189.8 188.2 187.4 182.4 176.1 174.7 180.4 185.9 190.6 195.4 187.3 177.3 156.3 147.2 146.5 144.6 144.6 144.6 144.6 144.6 144.6 144.6 144.6 144.6 144.6 144.6 144.6 144.6 144.6 152.8 159.5 178.1 199.8 231 264.1 288.9 317 348.2
344.7 335.7 331.9 328.4 325.5 317.8 309.6 300.7 290.8 270.3 247.6 225.2 204.6 194.6 190.9 178.2 178.4 178.4 178.4 178.4 178.4 178.4 178.4 178.4 178.4 178.4 178.4 178.4 192 202.9 214.4 221 232.6 257.8 275.8 270.4 267 256 260.7 272 285 300.1 317 338.9 354.8 379.3 407 430.8 452.9 474.4 492.6 509.8 525.2 539.8 555.3 570 582.2 599.2 614.8 629.4 646.6 662 680 696.4 710.7 723.4 736.5 749.6 761.2 779.2 796 811.6 826.7 837.9 853.3 861.9 859.9 834.2 794 755.7 726.7 702.9 675.9 646.5 630 620.3 609.9 605.6 600.1 595.7 597.4 596 596.7 596.2 591.5 586.5 580.2 577.5 574.3 569.2 563.3 557.1 548.7 539 515.8 495.7 475.7 459.7 442.1 420.4 417.9 423.6 422.9 419.7 407.5 426.8 442.7 457.4 474.5 488.2 503 521.8 538.3 553.9 573.2 590.3 609.9 626.9 638.4 628.5 611.2 565.9 533.9 508.1 484.2 484.5 480.5 490.3 485.9 482.3 472.2 467.9 471.2 455.5 432.2 395 376 360.3 341.5 320.7 304.1 282.2 261.2 250.4 239.2 228.2 226.2 215.6 208 202.7 202.6 199.4 197.3 195.2 192.5 182.2 180.3 183.1 193.8 202.2 210.7 211.4 197.8 178.6 157.2 146 144.6 144.6 144.6 144.6 144.6 144.6 144.6 144.6 144.6 144.6 144.6 144.6 144.6 144.6 144.6 146.4 157.6 175.1 197.2 218.1 242.5 269.2 300.5 342
366.3 354.5 349.1 344.3 339.6 331.5 322.8 309.2 292.1 273.4 251 226.8 208.3 193.9 178.4 178.4 178.4 178.4 178.4 178.4 178.4 178.4 178.4 178.4 178.4 178.4 178.4 178.4 190.3 202.8 221.2 226.4 238 252.5 269.6 279.2 271.9 264.1 262.2 274.9 289.5 308.2 331.6 351.7 373 386.6 387.3 416.7 447 469.9 490.8 506.7 520 535.2 550 565.5 580.1 593.3 608.2 623.9 640.7 655.8 673.2 688.7 702.5 715.3 726.6 740.2 757.6 774.2 793.2 808.1 821.3 835.3 848.6 859.3 859.3 843.5 800.9 774.6 745.3 714.5 680.6 646.2 625.2 605.6 591.8 584.4 578.4 571.5 579.1 582.1 583.4 582.5 578.9 572.8 567.8 560.2 556.7 552.9 546.8 540.8 531.8 521.2 500.2 482.1 462.3 440.8 436.7 441.2 439.8 442 442.7 436.2 427.3 446.1 460 474.7 488.4 500.1 517.3 532.9 548.3 566.5 582.4 601 617.5 634.1 647.2 650.8 633.2 596 553 537.1 515.1 504.9 510.5 519.4 519 519 514.4 501.6 476.9 454.2 421.9 395.8 373.6 356.6 335.7 316.9 297.8 280.7 269.9 253.5 241.2 234.4 228.7 219.2 213.5 210.2 211.1 208.2 205 202.3 193.7 193.9 196.9 201.2 212.7 223.5 220.1 221.8 208.4 189.4 166.8 145.7 144.6 144.6 144.6 144.6 144.6 144.6 144.6 144.6 144.6 144.6 144.6 144.6 144.6 144.6 144.6 144.6 152.4 167.3 187.2 209.5 229.8 262.1 310.3 333.1
380.1 374.2 366.5 360.3 353.2 344.3 336.7 321.8 303.1 278.7 251.9 226.2 209.4 192.6 178.4 178.4 178.4 178.4 178.4 178.4 178.4 178.4 178.4 178.4 178.4 178.4 178.4 178.4 187.2 200.9 216 232.6 240.9 254.7 270.4 289.9 283.9 275.3 270.9 277.3 294.5 312.7 332.5 353.1 376.8 399.1 416.2 423.5 427.9 457.7 485.9 502 517.7 530.6 546.6 561.1 576.5 587.7 600 616.3 631.8 646.9 661.8 677 690.7 703 716.2 732.3 753.4 770.5 787.7 801.9 815 826.8 840 849.5 852.4 850.1 825.5 800 776.3 731.3 692.7 669.1 639.9 600.3 583.8 569.4 562.7 557.3 558.3 565.5 568.3 571.6 567.1 560.2 555 545.6 541.8 537.3 530.8 524.8 515.9 503.8 489.2 466.6 450.9 462.1 462.5 464.2 462.4 462.9 462.9 451.8 446.9 461.3 473.5 484.5 499.2 510.4 527 540.5 560.2 578.4 590 607 622.6 639.8 655.7 670.2 661 614.7 584.1 562.8 545.6 539.4 547.7 554 563.9 564.2 550.3 526 478 446.8 415.5 391.3 368.4 347.9 328 309.8 294.7 280.4 269.4 260.2 252.9 248 240.5 230.7 225.4 222.8 219.3 219.5 214.5 208.1 205.1 207.3 213.7 220.5 232.4 244.1 236.7 229.6 217.1 200 175.2 151.7 144.6 144.6 144.6 144.6 144.6 144.6 144.6 144.6 144.6 144.7 144.6 145.5 145.8 145.7 145 145.8 148.9 160.2 179.3 199.6 220.1 251.3 285.3 312.1
387.6 382.9 377.1 371.7 364.9 354 348.9 334.3 309.8 284.7 257.7 228.7 209.5 192.1 178.4 178.4 178.4 178.4 178.4 178.4 178.4 178.4 178.4 178.4 178.4 178.4 178.4 178.4 184.3 197.3 211.8 238.5 245.4 256.7 278.1 300.8 295.7 289.7 284.3 284.5 296.3 314.3 334.4 353.9 379 401.3 427.7 448.4 461.6 461.2 467.1 489.1 505.3 524.1 542.1 556.6 571.2 582.9 593.6 605.7 621.3 634.6 649.3 663.3 675.7 690.2 707.7 723.8 746.3 764.5 780.7 794.4 806.4 819.1 830.9 840.6 845 844 839.1 824 785.3 743.6 711.5 684.3 636 599.2 574.9 565.7 558.2 552.6 549.1 553.4 559.8 567.3 558.2 551.2 542.1 537.5 527.7 525.9 519.6 511.1 501.5 486.9 470.2 470.7 477.3 483.3 487.6 487.1 482.1 480.3 476.7 463.6 463.8 475.1 484.8 498.2 508.2 520.3 532.9 551.4 568.3 583.1 595.7 614 630.2 648 666 677.3 675.7 660.4 631.7 603.6 588.5 594.4 597 590.5 603.3 596.6 566.5 527.8 482.6 445.8 413.5 387.6 366.5 346.3 327.6 310.4 294.2 289 279.5 273.5 268.4 264.2 256.4 247.8 243.4 237.5 231.6 232 227.5 223.9 223.9 229.7 234.2 240.2 251.1 264.8 255.3 241.9 238.2 213.2 184.4 160.9 144.6 144.6 144.6 144.6 144.6 144.6 144.6 145.4 144.9 145.1 145.4 145.7 145.9 145.7 145.6 145.9 147.9 158.2 171.6 192.3 212.4 238.2 260.3 288.7
391 390 397.3 389.1 389 375.9 367.8 346.9 320.3 294 264.9 235.7 213.2 193.7 178.4 178.4 178.4 178.4 178.4 178.4 178.4 178.4 178.4 178.4 178.4 178.4 178.4 178.4 179.5 192.6 210.5 228.1 245.2 257 281.7 297 303.3 305.6 294.1 295 301.7 315.3 337 357.7 384.3 411.1 435.6 457.9 474 488.6 499.9 509 523.1 532.3 539.5 554.2 565.8 573.6 586 599.9 610.2 623.8 638 650.2 662.8 678 696.4 715.2 736.5 756 773.1 786.7 800.8 810.5 820.8 830.2 835.3 835.3 832.3 825.8 804.6 781.8 731 693.8 654.9 619.4 587.2 564.5 553.3 549.8 548.3 548.5 561.3 561.2 550.3 544.1 537.7 527.2 523.1 514.7 508.5 496.8 482.5 482.8 485.8 490.5 495.4 499.2 502.5 501.9 498.2 494.3 485.7 478.6 473.9 484.3 494.2 505.8 515.6 527.7 543.6 559.4 577 590.2 604.6 621.2 639.6 656.3 673.7 687.7 693.8 686.1 671.7 649.6 644.1 642.2 636.9 620.9 610.4 593.8 581.4 544.5 489.1 444.8 412.9 388.8 368.1 349.6 330.5 313.6 310.6 304.6 299.2 293.1 285.9 282.8 282.9 280.1 267.5 259 251.1 245.6 241.2 241.8 247.3 253.7 260.1 264.3 266.6 279.7 272 262.1 262.4 238 199 169.6 147.4 144.6 144.6 144.6 145 145.3 145.2 145.9 145.7 145.8 146.2 146.3 146 145.8 145.7 146.1 148.2 152.9 165.3 179.1 199.8 217.6 244.1 277.4
410.7 420.1 411.5 409 408.5 394.5 382.1 363.2 340.5 312.8 279.9 246.3 220.8 198.7 181.6 178.4 178.4 178.4 178.4 178.4 178.4 178.4 178.4 178.4 178.4 178.4 178.4 178.4 178.4 186.7 205 224.4 243.6 262.7 290.7 308.6 316.2 322.8 314.8 300.4 305.1 320.6 342.5 367.6 394.6 428.2 447.7 465.8 481.7 496.7 510.8 521.5 532.1 541.6 548.7 558.7 568.9 578.2 588.9 597.7 604.4 616.7 628.9 640.7 654.8 669.4 686.1 704.3 723.9 745.7 763.7 779.1 793.4 802.4 810 818.8 824.8 828.1 826.8 819.9 808.9 780.8 741.1 698.3 665.8 634 603.6 584.5 570 553.2 548.9 553.7 558.7 547.4 539.9 534.1 529.3 519.8 513.3 507.9 495.5 496.3 494.8 493.4 496.4 501.7 506.1 510.3 509.6 507.6 503.3 494.7 488.4 478.3 485.5 496.6 504.4 512.1 525.2 536.1 550.5 568.5 583.1 598.5 612.1 629.3 645.8 664.8 681.4 693.6 699.9 693.4 685.6 669.3 657.4 646 634.5 618.4 598 581 567.9 539.7 498 446.7 416.8 394.6 372.9 354.4 336.8 336.4 330.7 325.5 322 319.4 314.9 304.7 303 303 290.1 273 265.6 267.2 262.8 267.3 263.7 267 275.6 278.6 269.3 281 283.9 285.6 282.6 244.9 203 174.1 148.4 144.6 144.7 145.1 144.9 145.6 146.1 146.2 146.1 145.9 146.1 146.4 146.2 146.1 145.7 147.5 147.8 149.1 156.7 171.2 187.4 207.7 237 268
427.2 430 422.9 412.2 407.9 406.4 399 385.4 388.8 364.9 322.1 277.3 244.7 215.6 191.4 178.4 178.4 178.4 178.4 178.4 178.4 178.4 178.4 178.4 178.4 178.4 178.4 178.4 178.4 180.5 200.8 217.5 242.3 259.9 289 305.2 316.3 321 323.9 314.7 307.7 327.7 358.2 382.8 401.2 430.1 454.1 473 489.3 505.2 519.1 530.7 543.5 553.5 559.1 565 570.9 580.2 590.7 601.7 610 616.5 625.3 637.1 649.1 660.7 675.6 694.5 714.4 733.4 751.9 767.9 781.8 791.9 799.5 809.4 818.2 819.7 816.2 809.1 789.9 762.8 727.8 691.5 661 632.6 614.4 591.4 575 561.7 555.2 546.5 541.4 538.3 535 530 525.2 517.8 513.5 509.1 506.6 504.4 502.7 502 504.7 507.8 513.1 515.2 512 506.7 499.5 493.3 489.7 490.2 497.3 505.5 517.6 526 536.1 547.2 562.3 576.7 594.5 608.3 621.7 637.7 655.4 673.2 690 703.8 705.7 699.8 688.5 673.1 659.2 646.3 627.2 606 587.5 568.8 550.5 527.6 493.6 454.6 423.2 399.2 379.1 358.1 359.1 352.6 350.7 348.4 343 339.4 332.3 334.3 335.1 326.2 306.4 285.4 295.5 295 285.7 280.7 279.5 284.6 286.7 277 280.9 287.9 290.6 294.4 288.4 244.8 210.7 181.2 157.9 146.9 145.9 146.2 146 146.1 146.7 146.6 146.4 146.2 146.1 146.5 146.3 145.8 146.8 147.1 147.1 148.4 151.3 162.2 181.9 197.5 227.8 250.5
426 424.3 424.1 415.8 410.8 406.8 400.5 399.1 400.1 414.9 382 329.6 268.9 228.1 203.7 179.3 178.4 178.4 178.4 179.1 178.6 178.4 178.4 178.4 178.4 178.4 178.4 178.4 178.4 178.4 191.2 208.6 237.1 253.6 269.4 292.5 310.4 321.3 328.3 322 315 333.5 363.2 385.1 405.7 429.3 457.8 480.5 493.9 511.4 525.7 541.6 554.2 564.8 572 579.4 583.5 589.4 594.9 605.3 614.9 624.1 630.5 630.5 646 657.5 668.4 683.5 703.4 720.7 737.7 755 766.3 776.7 789.4 799.2 806.5 810.9 809 798.7 769.7 742.6 711 678.2 650.3 626.9 603.8 588.2 576.2 561.6 553.3 549.7 551.4 551.1 543.7 537.8 530.3 522.6 515.3 510.2 507.5 506.4 506.5 511.8 513.6 517.1 518.4 517 515.6 509.1 501.1 501 496.3 497.1 507.3 517.8 527.6 540.6 548.4 559 571.2 586.8 602.4 616.3 632.4 649.6 667.6 684.3 697 703.7 702.8 693.7 682.5 667.2 653.1 636 615.8 588.2 567.6 552.8 536.1 513.1 491.2 466.7 435.5 407 389.8 374.7 375.2 373 371.7 374.2 372.4 365.9 368.5 365.6 354.7 340.5 317.7 307.5 306.6 301.7 298.8 303.3 294 290.4 281.9 273.5 282 290.3 301.1 292.7 275.2 241.4 216.7 189.5 163.4 147.9 146.7 146.9 146.9 147.3 147.1 147 147 146.6 146.2 146.5 146.6 146.1 146.3 146.7 146.5 148.1 150.4 150.7 165.7 183.2 200.7 225.1
426 423.4 417.3 416.3 408.5 405.5 404.3 401.8 404 418.3 411.3 359.9 301.4 240.2 210.9 191.1 178.4 178.4 178.4 178.4 179.3 178.4 178.4 178.4 178.4 178.4 178.4 178.4 178.4 178.4 181.1 200.8 223.9 242.2 265 278.6 304.1 316.1 327.1 325.2 322.2 337 361.9 383.8 411.1 434.7 459.8 482.6 502.9 520.3 533.5 548.4 564.3 578 586.2 593.9 596.8 602.2 607 610.9 619.8 630.5 638.1 644 646.5 652.3 664.4 675.4 690.9 707.9 725 738.4 750.9 764.3 777.1 790.1 798.6 801.1 798.8 787.4 754.5 724.9 696.9 666.1 642.7 621.2 607.5 590.4 574.1 568.2 569 568.9 568.6 566.2 556.3 546.6 538.9 532.6 524.4 518.9 517.1 517.9 522 524.9 527 525.3 522.6 520.5 520.1 522.2 517 510.3 506.1 504 513.7 525.3 537.8 547.5 556.8 567.4 580.3 593.8 608.6 623.5 641.9 660.3 677.5 690 697.5 698.5 693.2 683.6 673.7 661.2 644.3 623 601.2 577.4 556.6 539.8 526.6 510.8 490.7 467 438.6 415.3 397.7 395.2 392.1 393.4 395.4 397.7 391.5 390 387.8 376.2 360.4 346 326.3 330.6 321.5 310.5 304.5 296.9 291.9 282.9 279.7 273 280.8 291.7 300 287.6 263.6 241.5 223.4 193.8 165.2 150.8 148.2 147.6 147.4 147.3 148 147.6 147.6 147.4 146.4 146.8 147.5 147.8 146.8 145.6 146.3 147.2 148.3 149.3 155.1 166.5 185.8 205.7
424.6 421.9 413.4 402.7 404.9 402.7 401.2 401.2 404.1 405.3 391.6 354.9 315.6 264.5 225.6 204.6 191 180.5 178.4 178.4 178.4 178.4 178.4 178.4 178.4 178.4 178.4 178.4 178.4 178.4 178.4 190.5 208.8 229.5 251.6 272.2 291.8 306.7 321.4 329.5 321.6 345.2 369.5 393.7 418 447.4 472.3 487.5 507.5 524.2 540.2 555.1 572.4 587.6 599.3 605.5 611.2 616.4 620 623.4 628.1 634.9 642.8 649.5 655.2 659.9 665.9 672.5 681.8 695.8 707.6 719.5 736.4 755.9 770.8 786 792.3 792.5 786.9 770 739.4 709.3 680.4 654.4 635 617.7 603 592.2 589.7 588.8 593.2 593.6 593.9 590.9 578.7 569.9 556.1 543.9 533.6 532.5 533.5 533.1 536.6 539.1 537 530.6 530.3 531.6 534.3 537.5 528.5 521.1 512.3 511.7 517.5 528.7 540.1 551.8 562.7 574 586.7 599.9 615.9 632.5 649.2 666.6 683.5 697.5 701.1 702 696.4 686.6 674.7 655.2 631.4 613.9 594.2 570.3 553.9 534.9 523.5 513 487.9 461.4 441 418.4 412.1 410.5 410.4 414.1 427.8 428.3 417.7 406.9 393.7 379.3 369.1 352.2 342.2 342.5 325.2 311.3 300.9 292.7 286.7 283 283.6 273.3 282 288.9 284.4 272.1 261.4 234.3 214.3 190.5 168.5 153.4 149.8 148.9 148.4 148.5 148.2 148 147.1 147.7 147.9 148 148.2 148.3 147.1 146.1 146.6 146 148.5 147.9 150.8 155.7 168 189.5
424 416.7 404.9 400 400.3 401.1 401.6 403.2 408.9 397.4 377.9 343 310.4 273.8 244.1 217.8 199.8 185.4 178.4 178.4 178.4 178.4 178.4 178.4 178.4 178.4 178.4 178.4 178.4 178.4 178.4 180.4 200.3 220.1 241.9 260.8 278.9 295.9 303.3 313.5 321.4 338.5 377.3 415.2 429.8 451.9 475 492.9 511.8 533.2 545.1 561.1 577.2 592.2 606.6 618.2 629.3 631.9 632.6 634.7 636.1 641 647.4 653.8 659.1 663.7 668.4 676.8 686.6 700.4 713.3 725.9 743.5 760.3 775.1 786.3 791 790.9 785.7 760.8 725.1 692 663.6 641.8 626.3 615.3 603.3 605 605.3 610.8 618.4 627.9 633.3 627.3 610.9 600.1 581.6 568.2 557.3 558.7 554.4 553 559.5 561.7 554 550.2 546 545.7 546.4 542.9 533.4 526.4 523.7 522.7 523.9 536.1 547.1 558.5 571.7 581 595 609.4 624.9 641.6 658.1 674 691.9 703.2 709.8 703.6 694.9 684.4 667.8 648.1 626.3 601.2 582.2 566.1 552 531.5 518.2 506.7 492.3 467.6 446 430.2 426.8 425.5 432.4 436.4 441.5 434.3 428.5 417.4 401 390.5 373.9 356 346.8 338.2 322.2 306.5 293.2 286.8 284.1 285 274.5 275.9 274.4 272.3 263.3 257.2 245.5 226.6 205 184.2 167.3 158.9 151.6 150.6 149.6 148.9 148.8 148.3 147.8 147.7 147.9 149.1 148.8 146.2 145.9 146.1 145.9 146.1 146.3 146.7 146.6 147 155.4 171.7
421.9 421.6 418 401.6 399.7 401 401 411.3 417.7 400.7 390 342.5 306.1 276.1 245.4 223.4 202.6 185.6 178.4 178.4 178.4 178.4 178.4 178.4 178.4 178.4 178.4 178.4 178.4 178.4 178.4 178.4 185.6 206.6 223.8 240.4 263.6 280.3 291.6 301.6 315.6 331.2 358.8 391.9 433.6 453.3 477.6 496.1 515 534.5 548.8 561.7 582.4 597.9 618.3 634.2 644.5 647.6 651.2 649.2 646.3 646.2 650.3 656.1 661.5 666 671.7 680.8 692.5 704.1 717.8 731.4 748.6 765.6 778.1 790.5 796.2 793.8 778.9 752 717 679.4 654.1 634.8 623 615.1 612.6 616.3 618 625.8 644.5 667.6 681.8 678 662.7 646 615.5 602.2 587.7 590.2 584.5 583.9 587.3 588.8 585.4 578.5 574.4 571.6 565.7 555.3 544.9 536 535.8 532.4 534.9 543.1 555 570.3 580.2 591.3 605.1 619.6 634.8 649.4 667.2 683.1 698.3 706.8 707.5 703.2 695.6 681.1 664.5 642.5 622.4 602.9 586.2 566.5 542.5 529.4 516.4 505 492.5 476.6 460.6 449.1 443.4 452.4 457 456.8 442 435.3 432.6 418.5 400.7 386.7 369.3 353.6 345.6 334.6 316.3 302.5 289.7 287.6 284.3 273.9 264 263.6 265.5 258.2 247.2 238.8 228.4 215.3 199.9 181.1 165.1 157.1 153.8 151 149.7 149.6 149.4 149.1 148.6 148.5 148.6 149.1 149.2 146.6 146.3 146.4 146.6 146.6 146.5 146.3 146.5 147.3 151.9 162.9
445.2 430.5 422.1 407.4 398.8 399.2 399.1 406 402.8 400.6 385.5 358.5 319.2 280.9 250.1 225.9 204.6 190 178.4 178.4 178.4 178.4 178.4 178.4 178.4 178.4 178.4 178.4 178.4 178.4 178.4 178.4 178.4 192.6 213.4 230.4 250.7 267.4 279.3 293 309.5 328.6 349 379.7 418.3 452.8 474.8 495.9 521.9 537.7 555 570.3 589.4 609.6 628.9 646.5 659.1 666.3 666.2 659.2 655.5 652.5 652.4 655.4 660.2 664.9 673 684.7 695.7 706.4 719.2 734.5 751.4 769.2 784.5 797 802.9 795.2 771.2 741.5 704.8 671.3 644.4 631.3 622.3 617.9 614.6 622 626.7 634.8 658 683.8 710 725.4 711.6 699.7 667.4 644 635.2 623.7 619.2 614.7 619.5 619.2 622.9 609.9 611.4 604.7 590.6 573.4 559.4 549.7 549.8 546.3 544.1 550.9 565.3 579.2 589.5 600.2 616 628.4 643.3 659.8 677.1 691.4 702.7 709.6 708.2 700.6 689.8 674.8 658.8 635.2 611 594.1 578.9 563.4 546.9 532.1 520.2 506.6 497.4 486.2 475.7 466.7 461.5 468.7 468.2 453.1 442.6 436.8 431.1 416.1 401.9 381.2 363.7 348.8 337.5 328.9 314.8 298.3 283.3 274.3 275.5 264.3 255.9 254.1 250.7 241.2 233.2 224.9 218.5 209.9 193.3 176.6 163 158.2 154.4 151.1 152 151.2 150.4 149.5 149.4 149.8 149.1 149.4 149.4 147.5 146.7 147 146.8 146.5 146.5 146.9 146.9 149.3 152.3 159.6
462.1 443.3 427.7 412.2 401.3 394.6 394.4 396.2 398.6 393.4 385.3 381.1 342.1 295.3 255.6 233.5 215.8 201.9 181.6 178.4 178.4 178.4 178.4 178.4 178.4 178.4 178.4 178.4 178.4 178.4 178.4 178.4 178.4 178.4 197 217.3 236.3 257 270.9 283.6 301.5 324 354.7 375.9 404.1 436 464.9 487.6 516.9 543.9 557.9 574.7 596.2 619.2 638.2 657.2 673 682.4 686.6 682.5 682.5 673.2 664.7 659.9 659.2 664.5 673.4 684.8 695.8 706.4 723.8 740.1 755.3 776.2 792.9 803.9 809.3 794.3 764.9 729.8 696.1 664.3 642.3 628.3 620.6 615.3 617.1 625.1 631.9 642.1 666.1 696.1 725.8 756.3 766.8 744.9 719.9 699.7 679.4 664.1 672.4 673 665.3 662.3 659.9 654.9 650 634.8 612 583.2 568.8 565.2 565.4 563.8 552.3 565.6 580.9 593 600.7 611.1 623.8 637.5 652.7 667.9 683.3 699.1 708.4 711.1 701.7 691.5 680.1 666.1 644.9 628.9 608.6 590.3 575.3 563.9 548.8 535.9 520.5 504.5 490.1 480 479.3 474.4 466.7 466.1 455.9 445.2 428.8 422.3 409.7 403.4 387.4 370 352.3 341.5 332.8 323.6 305.4 285.4 273.9 264.7 258.6 250.7 248.6 241.4 233.4 228.6 222 219.3 215.5 204.4 186 171 162.2 158.6 154.1 153.5 152.8 152 151 150.2 149.7 149.1 150.8 151.6 149.6 148.7 147.5 147.1 147.1 146.9 146.6 146.7 147.2 152.3 153.7 155.3
457.7 442.5 429.2 420.5 401.1 394 388.5 392.3 391.3 391.2 385.3 381.7 355.7 307.5 273.2 247.9 227.3 203.6 184.2 178.4 178.4 178.4 178.4 178.4 178.4 178.4 178.4 178.4 178.4 178.4 178.4 178.4 178.4 178.4 184.1 203.1 222.4 240.3 256.1 272 291.6 316.7 344.2 380.8 396.5 422.3 448.3 479.4 512.7 540.6 557.3 580.2 599.2 623.6 643.4 665 686.7 702.7 711.8 718.2 716.4 704.2 686.2 673.3 663.6 666.7 674.7 683.7 695.6 710.9 728.3 744.9 760.6 781.3 798.4 812.2 808.2 779.1 747.5 714.1 682.6 654.7 638.6 626.7 618.5 614.9 619.7 626.7 636.4 652.5 674.8 708.6 740.7 773.4 803.6 789.8 768 751.8 711.6 718.5 726 719.8 711 704.4 699.3 683.3 665.7 646.2 621.6 605.2 598.6 590.5 586 578.2 563 578.5 592.6 603.9 610.8 620.9 634.5 646.8 661.4 676 692 705.8 716 714.7 698.8 682 667 652.7 633.5 614 596.3 583.1 572 561.7 546.2 533.9 520.9 506.5 496 477.1 474.4 466.4 457 441.4 430.5 418.3 408.9 399.9 385.7 369.5 358.3 345.4 333.3 330.7 318.6 298.7 284.9 273.3 258.5 249.8 241.8 235.5 231.4 225.5 222.2 220.4 216.1 215.9 210.6 195.3 180.3 167.9 160.1 156.8 154.3 153.3 153.7 152.7 151.5 151 155.5 157.2 157 153.9 151.1 150.6 148.9 147.2 146.9 147.1 147 147.2 151.8 154.8 154.1 153.2
459.6 443.5 424.1 413.8 394.9 388.9 388.5 389.5 389.2 387.7 391.8 386.9 360.5 313.1 280.9 252.6 226 202.1 186 177.7 178.4 178.4 178.4 178.4 178.4 178.4 178.4 178.4 178.4 178.4 178.4 178.4 178.4 178.4 178.4 191.7 208 224.7 243.2 262 280.7 309.6 348.3 365.5 397.3 418.4 445.4 475 506.6 533.5 564.5 582 605.2 629.2 650.3 676.6 699 719.3 739.1 755.5 760.2 743.5 711.9 692 677 681 677.7 684.5 696.8 712.9 729.3 745.9 763 785.6 802.8 817.4 814.3 778.7 744.6 711.5 682.2 655.9 639.8 627.3 618.5 616.9 622.6 630 639.6 659.3 687.3 719.1 752.1 786.3 819.4 830.5 813.3 777.7 759.2 768.7 769.9 767.3 759.3 738.1 715.6 691 674.9 656 637.2 623.6 617.9 608.3 598.3 587.3 584.6 592 602.8 611.4 620.1 632.5 645.1 658.3 672.2 684.5 697.7 708.4 712.4 706 682.7 664.9 651.5 637 621.4 603.5 585 573.1 561.8 552.5 545.6 527.6 512.2 495.7 477.2 464.5 455.2 448.8 443.9 428.7 419.5 414.3 399.6 387.9 374.5 349.5 334.2 316.9 310.3 304.2 288 271.9 261 251.8 239.8 231.6 225.2 219.9 214.8 210 209.1 211.3 209.5 206.3 201 183.9 173.7 164.9 168.2 172.8 166.7 158.5 155.7 153.2 153.8 156.8 162.6 165.1 162.6 158.5 157.3 153.1 150.5 149 148 147.2 147.3 147.4 148.2 151.8 150.6 151.6
460.1 440.1 417.9 402.8 390.8 388 387.1 386.8 386 382.8 392.2 387.3 369.8 313 288.4 262.1 237.7 203.8 188.3 178.4 178.4 178.4 178.4 178.4 178.4 178.4 178.4 178.4 178.4 178.4 178.4 178.4 178.4 178.4 178.4 178.7 193.8 212.6 231.2 249.9 271 298.4 327 356.4 382 409.8 438.1 471.5 505.9 529.3 559.3 584.5 607.3 631.7 657.6 681.5 706.8 734.7 758.2 784.7 800.5 767.8 756.3 740.4 715 699.8 694.9 694 702.8 716.5 733.3 747.6 765.9 786.8 808.2 825.5 819.6 790 753.6 712.5 682 656.5 641.2 628.2 621 621.3 626.5 634.1 645.8 667.7 697.3 729.5 761.1 793.4 828.1 857.1 844.1 813.5 809 814.1 813.9 802 779.9 755.1 721.2 697.4 678.6 665.5 650.9 639.5 630.1 618.9 609.5 596.1 598.6 607.2 616.4 624.7 631.8 645.8 658 671.7 683.9 692.8 702.2 703.5 696.7 684.3 662.8 649.5 639.2 622.8 605.2 586 572.2 565.5 555.5 535.2 523.7 502.6 490.4 479.8 467.2 449.1 435.9 427.8 426.5 417.8 405 392.6 382.7 368.4 354.1 334.2 319 305.4 287.3 274.2 261.5 250.1 238.8 231.5 222.9 216.6 210.4 206.1 204.9 204.1 202.3 204.4 205.7 198.2 188 172.7 172.8 175.2 184.3 174.7 164.7 158.7 163.9 159.6 159 160.1 169.4 171.3 169.8 166.3 160.1 156.1 151.4 156.9 158.9 150.5 147.3 147.7 147.9 149.1 148.6 149.4
452 426.4 409.6 401.6 399 394.4 391.2 389.8 391.4 381.2 382.9 378.3 359.5 316.1 284.9 257.5 231 204.4 191.1 182.1 178.4 178.4 178.4 178.4 178.4 178.4 178.4 178.4 178.4 178.4 178.4 178.4 178.4 178.4 178.4 178.4 187.5 201.4 221.2 241 265.2 289.8 315.1 344.4 381.4 401.8 429.4 458.7 489.5 522.1 552.3 585.7 608.4 633.2 658 687.8 718.1 749.6 773 791.8 808 822.6 810.3 788.6 751.7 734.2 726.4 717.6 717.9 724.6 738.2 750.9 770.6 791.2 815.5 835.1 829.4 797.6 758.3 715.4 682.4 660.4 645.2 631.9 625.1 627.5 633.6 642.9 656.7 677.1 707.5 738.4 770.2 802.3 835.4 871.5 877.5 846.8 851.2 849.9 833.7 817 794.2 762.8 729 700.6 685.1 674 661 652.2 640 630 616.9 610.5 617.4 625.4 631.2 635.9 644.4 657.1 670.1 683.1 693 698.4 702.5 690.9 678.2 668.3 651.4 631.1 619.8 609.3 586.3 567.5 555.6 544.7 526.3 509.8 492.2 482.2 468.5 460.3 441.1 432.8 416.6 413.3 410.5 400.2 384.5 370.6 359.3 344.6 330.4 315.3 294.6 286.3 266 252 242.2 232.7 224.3 216.9 210.3 205.1 201.9 201 201.8 203.4 200.7 195.7 193.9 187.5 178.1 192.3 196.5 195.7 187.4 176 165.5 161 163.7 162.6 164.6 170 171.3 175.5 176.8 174.2 165.2 155.4 157.7 165.6 161.7 153.6 149.3 148.9 147.4 147.8 147.8 148
456.1 434.2 412.3 401.6 399.4 401.6 401.3 392.5 396.5 378.8 375.4 379.4 369.7 329 290.5 258.2 226 205.5 193.3 188 183.1 178.9 178.4 178.4 178.4 178.4 178.7 180.8 180.2 178.4 178.4 178.4 178.4 178.4 178.4 178.4 178.4 191.6 212.3 234 256.2 279.7 307.4 329.8 363.2 391.6 415.6 448.8 483.4 520.5 547.3 580.8 609.4 631.5 660.9 692.9 722.8 747.4 770.7 792 812.2 829.1 843.9 803.1 792.6 784.5 763.5 750.9 742.3 739.8 746.8 756.5 778.9 802 829.6 850.1 838.8 803 761.8 719.7 687.5 667.4 650.1 636.3 634.9 635 640.7 653.5 667.3 689.1 719.5 749.5 780.8 814.2 847.2 874.2 867.6 855 844.5 829.6 815.3 802 785.3 760.4 732.8 708.5 695.3 681.4 669 656.6 645.3 634.6 619.2 628.1 633.2 635.6 638.9 643.5 655.5 667.5 682.2 693.1 700.6 701 687.8 675.4 664.8 652.4 629.3 611 603.5 585.1 563.7 552.2 536.6 520.8 504.1 483.3 474.7 459.3 448.9 440.3 423.1 411.5 401.8 395.7 392.1 379.2 359.3 343.4 332.1 318.4 306.7 288.6 271.3 257.4 244.4 232.6 225.7 219.9 212.4 203.4 197.3 193.2 191.8 193.4 196.4 197.8 188.9 184.8 183.2 185.5 197 196 205.4 202.3 189.3 178.5 170.5 166.5 165.6 167.1 174.5 180.6 178.9 182 179.8 176.3 171.1 162.5 158.7 158.7 157.8 159.2 159.6 155.9 148.2 147.5 147.4 148.6
455 443.3 428.4 414.3 401.4 400 397.3 389.9 384.6 373.9 368.5 371.8 372 342.6 293.8 249.9 229.8 229.5 222.3 206.1 188.7 185.4 179.8 178.4 178.4 178.4 178.4 181.2 180.7 178.4 178.4 178.4 178.4 178.4 178.4 178.4 178.4 182 200.3 223.4 247 269.3 292.4 320.7 348.8 378.6 408 439.5 475.4 519.5 550.4 577.4 606.8 631.3 660.4 692 721.3 746 769.6 788.7 808.9 826.3 840.8 848.5 846.4 829.3 814.2 789.5 774.4 764.4 760.1 770.7 791.9 818.8 845.8 867.9 844.2 805.9 764.3 725.2 696.1 674.7 656.2 652.2 650.1 649.6 651.1 665.1 681.1 705.3 735.2 766.8 796.2 824.1 848 852.8 842.3 831.6 817.1 804 793 781 765.5 751 738 722.8 701 686.5 675.3 662.3 650.1 633.5 638 641.7 643.8 645.5 651 656.4 666.7 679.3 691.1 700.1 697.4 685.3 671.4 656.7 643.4 626.1 607.9 588.5 574.2 557.4 544.9 535.2 523.3 503.5 480.8 467.6 457.6 443.8 428.8 415.9 403.9 389.9 384.2 379.1 363.8 349.8 329.9 314.1 298.8 285.9 271.2 259.6 246.9 234.7 228.1 220.4 214.8 209.2 203.5 196.3 193.7 191.8 192 192 191.7 191.1 191.4 194.1 198.1 201.5 209.3 208.8 209.7 205.1 192.6 183.8 175.1 171.2 172.9 175.8 180.5 185 188.5 193.7 196.6 193.2 181 171.4 161.2 157.9 158.6 160.8 161 153.3 152.6 150.4 147.8 148.5
456 458.6 453.4 416.3 401.6 395.8 393.6 380.8 378 372.4 366.5 373 365.3 330.3 275.1 269.4 255.2 255.3 249.5 235.2 216.6 203.8 189.6 181.2 178.4 178.4 178.4 178.4 178.4 178.4 178.4 178.4 178.4 178.4 178.4 178.4 178.4 178.4 190.6 212.7 237.5 257.6 281.9 310.7 344.5 371 403.7 433.3 467.6 503.1 540.1 571.4 601.8 631.4 663.3 693.2 720.2 743.2 766.7 785.3 802.3 821.7 837.1 852.8 858.3 856.6 844.2 823.5 805.8 792.2 784.6 791.6 812.2 838.9 865.7 885.4 846.3 806.8 766.4 730.5 705.8 683.3 673.8 671.4 667.1 667.6 669.4 682.7 702.5 728.2 756.1 786.6 817.4 837.5 835.7 827.8 816.8 805.1 792.3 780.5 768.7 756.2 745.6 736.5 728 716.5 703.5 691.2 677.8 664.9 652.3 647.9 650.4 652.2 654.6 660.3 665.6 670.1 678.7 688 696.9 695 681.6 666.5 652.4 638.5 624.4 608.2 591.9 573.7 554.8 541.2 528.4 515.6 503.7 484.3 461.8 443.6 432.3 418.6 405.8 391 379.2 373.9 364.1 350.1 331.5 314.9 299.1 282.4 266.3 252.7 242.6 234.2 225.2 221.2 214.1 208.1 205.9 203.4 198.8 193.8 193.5 195.7 196.2 196.7 196.3 196.8 203.9 206.5 213.3 219.1 221.6 221.4 211.8 205.6 196 189.1 181.1 177.2 180.2 189 191 195.9 199.4 206.5 209.6 205.6 191.1 186.1 177.9 166.5 163.8 172.2 166.8 161.2 159.5 152.4 147.8 148.4
454.7 449.8 438.1 418.4 411.3 397.1 402.8 385.4 372.2 371.3 367.8 365 351.2 312.3 313.7 299.9 287.2 282.1 275.8 259.3 245.5 233.3 209.5 189.7 178.4 178.4 178.4 178.4 178.4 178.4 178.4 178.4 178.4 178.4 178.4 178.4 178.4 178.4 180.4 203.8 225.8 247.4 270.3 299 329.6 357.1 389 430.4 466 502.3 531.6 566.2 597.2 632.8 666.2 694.2 721.8 743.1 763.8 783.4 797 812.6 828.1 845 850.1 852.9 855.7 851.4 841.1 824.4 817.8 822.2 839.8 863 888.8 894.3 850.4 814 765.2 730.6 710 699 693.1 689.1 689.5 692.6 698.9 711.5 730.8 757.8 784.6 813.4 830.8 823.5 814.1 804 793.4 781.5 769.6 757.1 743.2 732.7 724.2 720.6 715.3 707.8 698.2 689.2 678.5 668.8 655.8 660.9 662.8 664.5 668.8 673.6 677.6 680.5 689.5 696.1 694.5 682.1 664.2 647.5 632.6 616.3 600.8 586.9 571.2 555.4 537.6 522.6 509 495.9 482.5 458.1 433.8 416.1 405.7 395.4 380.4 365.9 358 347.4 331.9 320 299.9 284.4 268.3 252.8 240.2 230 221.9 216.7 213.2 207.7 202.6 200 198 194.8 194.3 194.2 198.2 198.8 198.2 199.5 203.8 209.8 220.1 224 227.2 233.8 236.6 236.1 214.1 209.8 204.7 201.1 192.3 184.5 189.2 200.1 203.7 210.4 214.1 219.4 225.9 216.4 205.5 202.6 196.9 183.3 176.6 177.9 174.8 174.7 156.4 152.3 148.4 148.5
452.9 444.1 431.4 415.2 407.1 397 393.5 380.9 370.1 366.7 368 364 352.2 331.7 351.7 350.4 347.6 313 304.2 299.6 313.8 274.1 234.5 210.7 184.9 178.4 178.4 178.4 178.4 178.4 178.4 178.4 178.4 178.4 178.4 178.4 178.4 178.4 178.4 190.9 214.3 236.6 260.4 287.7 317.2 348.2 384.9 422.7 469.1 502.9 525.6 557.1 590.8 628.2 664.4 696.6 719.9 741.9 760.1 778.6 798 811.6 821.4 832.5 840.2 843.6 849.1 857.7 865.8 858.3 853 855.9 869.9 890.9 913.5 901.2 857.8 817.7 766.3 737.3 727 717.4 710.3 713.1 719.1 726.6 734.8 749.5 770.4 793.2 813.7 826.5 815.2 803.4 792.2 781.5 772.7 761.6 750.6 739.8 730.4 724.6 720.9 716 711.5 704.1 696.4 688 680.6 669.5 660.2 673.5 674.8 677.9 681.1 685.2 687.2 692.5 698.3 694.9 682.9 665.9 648.6 632 616.8 600 583.8 568.7 554.6 535.9 521.2 507.2 489.3 472.7 454.1 431.5 405 393.2 377.8 368.3 352.5 344 329.1 318.8 302 287.6 275.1 258 243.3 229.2 220.7 216 210.4 207.2 204 200.8 198.4 196.5 195.5 195.1 194.1 199.4 200.2 200.3 205.1 210.4 219.3 227.6 237.2 247.2 251.6 254.9 259.3 245.6 232.9 224.5 216 210.5 200.5 193.8 206.5 211.3 215.3 223.9 228.9 237.7 240.8 228.6 224 216.1 204.7 200.4 191.5 184.3 188.9 175 151.7 148.8 148.3 149.6
449 440 430.6 411.9 399.3 391.5 381.1 375.4 369.9 366.6 364.4 365.5 350.8 346.6 386.5 385.2 376.1 378.6 330.7 321 324.6 296.2 256.1 226.1 201.7 182.9 178.4 178.4 178.4 178.4 178.4 178.4 178.4 178.4 178.4 178.4 178.4 178.4 178.4 185.3 206.5 228.9 252.2 280 309 340.9 376.5 425.9 468.8 496.5 524.7 552 587.7 622.2 658.9 692.3 716.9 738.1 758.1 776.7 795.1 815.7 824 826.2 828.7 832.9 838.9 847.6 856.7 868.5 877.5 888.2 899.1 912.5 921.4 898.5 856.5 809.8 770.3 756.3 748.2 739.7 740.2 741.9 752.2 774 787.5 798.3 814 831.3 822 806 791.4 781.3 776 766.5 755.6 745.9 738.3 730.5 723.1 718.6 715.4 712.3 708.2 702.4 695.7 688.7 675.6 670 680.7 683.8 686.7 688.9 691.8 694.1 695.8 700 704.1 697.5 675.6 653.1 636.4 617.9 596.1 578.6 561.9 545.8 530.1 516 500.2 485.3 470 449.5 430 404.2 387 368.8 357.2 342.9 326.9 316.3 306.8 292 275.2 259.9 246.1 235.4 226.5 217.5 211.5 206.2 202.9 201.6 200 198.4 196.7 196.2 195.5 195.5 198.3 203.6 203.7 211.3 222.1 227 238.1 251.9 260.6 275.1 285.8 285 280 261 246.5 233.1 223.6 217.7 210.5 203.5 212.2 222.4 228.1 232.2 243.1 259.3 257 253.5 244.4 227.4 216.4 212 204.7 203.6 192.8 175.6 153 148.5 148.8 149.9
439.3 429.4 418 410 400.7 386.5 373.6 369.7 371.8 381 375.3 365.3 363.6 370 398.2 403 402 391.8 367.5 341.6 343 316 289.9 256.2 217.8 198 178.4 178.4 186.9 178.4 178.4 178.1 178.4 178.4 178.4 178.4 178.4 178.4 178.4 180 202.8 223.8 245.8 272.4 299.6 331.6 367 419 449.6 478.3 509.4 543.4 583.7 614.3 649.9 677.4 710.9 735.9 755.2 772 788.4 803.8 812.6 815.7 818.8 823.9 830.2 837.8 846.6 858.6 872.4 884.7 895.1 906.4 912.3 883.5 843.3 809.6 790.9 777.4 778.2 777.8 775.9 779.8 783.2 809.9 841.7 857.6 835 812 794.1 779.6 770.8 766.4 759.8 750.5 741.7 735.5 728.8 721.5 718.5 716.7 711.2 708.3 702.1 695.9 690.2 691.7 690.6 691.4 693.2 695.7 698.1 700.5 701.7 702.6 703 712.8 712.5 693.4 664 640.3 617.7 596.1 577.9 556.5 539.9 523.3 508.6 494.6 479.2 463.6 441.4 423.2 404.4 381.7 363.6 346.8 333.3 318 304.5 299.8 288.5 264.2 250.6 240.9 229.5 221.7 213.3 208 204.8 203.6 202.5 201 199.9 197.3 197.1 196.9 196.7 196.5 203 211.6 219.3 229.9 236.6 247.3 257.8 277 288.4 302.1 308.3 306.8 292.7 268.4 254.8 239.4 229.4 224.4 219.9 210 221.1 228.1 238.9 247.8 262 273 275.6 275.4 265.5 259.2 243.9 223 213.8 209.2 195.9 174.7 155.9 152.9 148.7 148.2
429.4 421 411.1 400.6 394.6 381.9 372.4 366.7 364.9 368.9 365.7 361.4 368.4 384.3 402.4 418.6 421.1 415.8 409.2 378.2 368.8 349.6 323 279.4 240 220.3 197.8 197.3 211.3 206.4 188.2 175.4 178.4 178.4 178.4 178.4 178.4 178.4 178.4 178.4 190 212.8 237.1 264 294 327.8 378.4 395 427.4 468.9 497.6 531.1 567 601.6 617.5 666.2 703.7 731 748.1 766.2 777.6 788.1 795.1 800.3 805.8 812.7 819.7 827 836 848.2 863.3 878.7 889.4 901.8 909.2 889.7 855.2 837.9 818.7 807.9 807.3 811 816.8 824.8 828.1 845.9 851.7 826.4 801.3 779.9 764.8 753.5 745.5 743.7 738.1 732.1 726.4 725.4 722.9 720.4 717.1 714.4 710.2 708.3 705.6 703.5 701.6 700.1 699.7 702.4 706 707.5 708.1 709.5 709.5 710.2 712.1 720.2 712.4 680.9 647.9 621.2 595.9 574.7 555.9 535.1 516.5 499.3 485.2 470.1 454.9 436.4 417.2 393.7 375.7 357.5 339 323.1 310.3 295.8 283.2 271.3 254.9 243.6 232.8 223.4 216.8 212.3 207.6 206.4 204.7 203.6 200.1 198.9 198 197.6 197.3 198.5 200.9 209.8 216.9 226.8 239.5 251.1 264.8 273 283.8 301.4 314.4 319.9 325.5 321.9 303.9 283.2 266 247.7 237.2 233.4 225.7 219.7 231.8 240.9 250.5 266.2 276.8 282.9 296.2 300.3 285.9 268.9 257.7 238.5 234 220.3 204.7 176 156 154.2 148.3 147.8
