ncols 200
nrows 82
xllcorner 340000
yllcorner 505150
cellsize 50
474.4 449.6 428.1 404 382.3 357.6 352.5 367.9 383 405 428.8 453.2 480.6 511.7 544.2 569.7 588.1 608 623.2 637.8 642 645.6 649.4 647.2 647.6 647 639.9 629.8 617.6 604.5 584.3 563 560.9 560.1 552.6 562.1 574.1 585.9 568.3 527.9 504.7 465.8 426.5 401.3 380.6 365 348.7 344.5 342.3 328.8 342.4 354.7 368.3 384.8 406.6 429.7 454.8 484.1 516.1 552.7 590.4 623.4 645.3 665.4 680.9 695.3 695.4 658.4 623.6 592.2 564.7 529.7 499.2 471.6 447.4 424 407.9 395.5 387.7 401.5 414.4 440.6 471.9 506 530.4 552.9 580 604.4 625.7 647 664.3 667.9 642.1 612.9 578.3 549.8 524.3 510.2 492 484.7 480.4 476 481.3 494 507.4 525 541 558.9 578.2 599.8 624.4 650.3 677.6 706.8 733.4 752.1 763.1 771.5 774.3 774.7 770.1 761.5 748.1 730.8 712.9 694.2 675 669.1 657.3 647.6 638 629.7 621.7 624.3 630.2 636.7 642.5 650.6 658.2 661.9 659.3 647.9 637.7 630.3 622.2 612.6 602.6 593.6 584.5 578.7 570.1 565.3 559.4 554.1 553.5 553.2 552.1 550.6 551 553.3 561.6 565.8 578.6 587.1 590.3 591.5 592.2 590.1 589.7 585.6 581.5 580.7 576 568.1 562.1 553.3 538.9 530.5 524.7 517.3 515 512.8 511.5 502.4 477.4 468.1 465.3 455.1 447.6 445 442.9 445.1 442.2 442.5 448.5 458.7 461.6 471.7 483.4 497.9
482.5 462.7 439.2 414.9 387.3 364 357.9 375.1 392.6 413.1 437.5 463.1 485.3 517.7 536.4 561.4 579 598.4 612.3 625.5 635.3 640.4 639.9 639.5 638.7 635.5 630.4 622.4 607.9 590.2 579.8 552.3 546.1 544.4 544.5 549.7 563.4 576.1 560.2 516.4 496.5 451.7 419.7 393.3 372.9 355.9 343.6 335.5 334.9 326.4 338.2 347.7 363.1 381.5 402.8 427 451.8 479.3 511.9 549 584.3 615.4 641.1 660.5 678.9 693.2 689.1 651.7 617.7 583.2 552.2 520.9 490.4 462.8 435.9 415.8 399 388.1 383.7 393.3 404.1 428.8 455.3 489.5 519.6 545.9 571.5 597.9 615.5 642.2 658.4 657.9 627.7 593.5 555.6 523.3 505.7 489.7 475.5 468.8 466.8 466.1 477.4 489.4 504.3 519.3 537.2 552.4 569.1 590.6 614.3 642 672 702.3 728.2 747.3 760.5 769.2 771.6 770.2 765.9 757.2 745.5 730.4 714.2 693.6 677 661.3 648.1 635.2 627.3 619.7 613.6 614.7 622 628.2 634.4 645.3 653.9 660.2 653 652.8 647.6 641.8 633.8 624.4 616.1 607 595 583.5 574.2 566.4 559.7 550.4 546.2 546.6 545.5 544.2 541.3 542 546.6 552.3 561.2 567.5 576.4 579.7 581.9 580.9 580 575.9 573.1 573 568.8 558.8 552.5 543.1 530.2 523.3 517.2 511.5 509.4 507.9 510.4 495 476.9 470.4 465.6 455.5 451.5 443.7 443.3 446.3 447.7 453 460.4 465.5 474.2 486.5 503.7 516.8
499.1 473.5 452.5 423.3 393.1 370.6 366.5 383.8 397.9 421.7 444.7 468.8 494 525.2 546.4 559.8 572.8 588.9 603.2 616.4 632 638.7 635.2 631.8 629.6 628.4 621.9 613.9 597.5 574.9 552 539.1 532.2 530.9 530.5 532.5 545.2 562.3 555.6 508.3 476.6 445.3 410.6 384.5 362.6 348.7 340.8 330 328.5 326.4 332.7 341.7 360.3 380 399.9 423.4 448.9 475.9 506.3 542.8 576.4 608.9 633.6 655.8 673.9 686.8 680.4 645.3 612.4 579.6 543.3 512.2 483.9 458.6 433.7 410.2 393.1 380.5 377.2 381.4 393.6 416.1 438.4 467.8 498.8 530.4 556.8 584.3 606.6 627.8 647.7 642.3 616.1 575.5 536.2 505.1 489.2 474.7 464.9 460 462.4 463.4 473.2 485.5 499.9 516.4 532.9 547 564.8 587.5 613.1 643.3 671.8 700.8 724.2 745.5 755.6 766.2 770 766.7 761.4 753.6 742.7 729.5 715.6 700.1 686.4 671.6 658.3 646.1 632.9 622.4 612.1 603.5 611 618 629.2 641.1 650.1 656.3 658.3 659.3 655.6 652.3 645.9 638.1 626.2 617 604.1 592.3 580.5 569 558.6 550.9 543.8 540.2 542 538.7 532.9 530.3 530.6 538.9 545.1 547.6 551.7 556.2 563.2 562.8 564.1 559.9 558.7 557.2 553 544.8 533.2 528.3 522.2 514.1 507.3 502.7 502.5 500.2 494.4 485.7 478 471 467.7 460.4 458.7 446.6 449.1 452.8 457.3 465.9 472.3 478 488.8 503.4 514.1 526.2
518.3 486.1 463.9 431.4 397.6 373.8 377.9 393.9 411.5 434.2 457.2 479.9 504.3 530.3 549.4 560.3 569.2 581 595.3 608.7 621.7 628.8 629.8 627.3 624.8 621.2 617.7 608.3 591.8 563.1 541.9 528.7 519.4 520.1 520.8 522.8 533.5 546.9 546 503.8 466.8 432.4 399.1 374.9 354 339.7 331.7 326.2 321.1 318.1 323.3 337.2 354.5 375.8 394.5 418.4 443.6 471 501.5 534.2 568 599.1 627.3 648.1 665.5 677.4 671.3 634 604.4 571.4 536 505.9 476 454.1 431.8 408.6 392.5 383.7 372.4 377.6 384.5 400.2 426.4 447 477.1 507.5 538.4 566.2 590 616.5 632 620 590.9 554.2 520.4 491.3 474.8 459.9 455.9 451.2 455.6 460.1 469.3 482.6 496.8 513.1 527.7 541.7 561.3 586.2 616.3 643.1 672.6 699.4 722.7 740.4 752.1 764.3 767.4 764.7 758.9 750.4 740.1 727.6 715.3 699.5 686.1 671 658.6 648.3 637.5 625.2 611.9 599.4 599.8 608.4 621.2 632.8 643.3 652.5 659.3 663.3 662.7 655.7 645.8 635.6 626.4 614.7 604.3 594.4 580.8 571 559.6 547.7 540 532.3 537.6 531 521.8 516.7 519.2 523 527.8 528.2 532.2 536.1 539.5 541 540.5 540.5 539.8 538.9 533.5 525.5 520.9 520 511.7 505 498.6 496 493.4 490 486.8 481.8 476.7 473.6 469 461.8 451.5 455.9 460.5 462.7 470.9 477.2 483.1 488.8 501.8 511.8 522.7 532.9
525.1 498.9 478.9 439.3 400 382.2 385.7 401.4 422.1 443.2 464.2 489.9 512 537.2 554 560.2 568.4 576 587.3 601 614.2 622.7 630.1 621.9 620 615.3 615.1 602.4 574.8 552.4 531.8 519.8 512.8 510.8 513.9 512.5 521.1 531.7 532.9 487.7 447.2 415.3 389.1 366.7 348 334.5 326.9 320.3 315.3 314.4 318.1 330.7 350.1 368.2 391.2 412.7 437.7 465.2 494.7 525.2 557.5 591.7 619 638.7 654.1 668.2 658 617.1 585.3 555.9 530.6 498.6 469.7 448.5 427.8 409.1 392.3 382.5 366.3 368.1 371.3 384.3 402.7 426 452.3 478.5 507.3 539.1 563.6 587.3 606.6 595.2 573.8 536.5 503.1 477.7 458.7 448.9 444.3 445.3 449.5 457.8 468.1 482.7 495.8 509.6 522.9 539.3 563.5 588.2 616.6 645.3 674.7 701.7 723.4 738.5 752.3 762.6 764.8 762.3 756.7 748.4 737.9 724.9 711.9 695.3 681.2 666 654.5 644.4 634.8 622.1 610.3 597.6 587.3 596.1 607.3 620.8 634.6 647.8 658.4 663.1 662.2 654.2 647.5 637.2 626.2 616 604.7 592.7 582.8 569.8 555.2 543.9 533.5 524.1 531.5 519.6 513.7 505.6 500.8 505.2 510.1 506.5 517.1 520.1 521.5 522.2 521.5 521.9 522.9 524 519.2 513.9 512.2 510 503.8 496 494.2 489.2 486.2 483.9 480.3 481.3 475.1 469.3 465.7 459.9 462.1 466.6 471.2 474.3 480.6 487.1 492.7 500.1 509.9 521.3 529.6 537.5
549.2 523.3 488.5 442.2 409.1 388.7 387.6 409.2 430.7 453 478.6 498.8 520.9 540.1 553.8 560.2 566.7 573.1 579.9 592 604 614.7 627 617.1 613.6 609.3 601.3 586.5 566.6 547.6 526 514.6 507.2 504.7 508.1 502.5 511.8 517.1 517 478.3 436.1 400.9 379.6 359.4 343.4 332.7 321.3 315.6 307.5 313.2 316.4 328.9 347.5 365.7 384.8 407.9 431.8 463.5 491.8 519.1 551.6 582.2 607.7 627.3 644.2 655.9 643.8 606.9 570 547 524.7 498.4 469.2 448.3 425.9 407.3 390.2 380.4 371 361.9 362.3 372.8 390 409.9 429 454.4 483.4 511.7 536.6 557.6 571.7 565.9 544.5 513.7 487.2 465 445.7 436.1 433.6 442.2 449.8 456.7 467.6 480.5 494.4 506.2 519.8 540.8 565.6 592.4 619.4 647.9 676.7 702.9 723.3 739.9 751.9 759.9 762.6 761.1 754.8 746.5 735 720.9 705.5 686.3 670.5 658.5 648.8 639.7 628.4 614.4 601.8 590.2 578.1 587 595.7 610.2 624.4 638.8 652 653.6 651.9 646.7 638 627.9 620.3 611 600.3 590.6 582.1 566.4 549.7 537.2 525 515.7 514.5 507.2 496.7 487.3 479.3 493.8 498.5 502.2 505.1 507.1 508.9 511.1 510.6 512 513.7 514.5 509.3 507.2 505.2 505.5 501 492.1 491.5 488.9 483.5 481.4 482.9 481.8 479.1 473.2 474 467 470.8 479.1 483.6 485.6 491.7 497.4 501.8 506.7 517.9 527.2 534.4 542.7
564.9 527.8 485.8 447.9 414.5 394.4 395.3 416.5 435.9 463.7 491.3 504.3 528.4 543.3 554.7 558.9 561.6 569.9 577.5 588.3 597.8 603.6 608.9 607.9 606.2 602.7 590.9 573 559.8 540.4 521.7 511.3 502.7 498.4 497.1 498 501.3 507.5 497.7 460.8 421.8 393.7 373.2 355.4 340.9 326.9 316.3 308 299.7 306.1 313.4 329.2 347 365.2 384.7 406.4 429 454.4 484.2 513.3 544.9 573.4 596.7 614 631.9 642.6 626.7 590.5 564.8 551.3 521.5 492.8 467.4 448.6 428.7 412 392.4 380.4 377.4 363.1 359.3 364.5 376.3 391.5 410 430.6 457.6 485.3 506.1 523.9 536.9 531.5 514.8 492.9 469.1 452.1 433.5 426.1 431 439.9 447.6 455.3 467.4 479.3 490.5 502.8 519.2 540.7 565.3 594.1 623.1 652.2 678.1 700.9 723.3 742 755.6 762.9 763.2 759.2 751.9 743.3 730.7 714.8 693.6 673.1 658.2 649.5 641.6 629.6 616.6 604 591.9 582.1 571.5 578.6 585.7 596.2 610.2 626.9 640.1 643 642.9 633.5 623.2 613.9 608.9 603.9 592.9 584 575.4 559.3 542.1 528.4 514.8 504 507.8 502.3 483.1 471.5 475.1 482.7 486.1 491.9 495.7 498.3 501 501.9 504.9 506.5 506.7 505.2 503.1 500.1 498.2 498.7 493.6 490.4 490.2 484.4 484.4 486.4 487 487.7 482.7 484.4 483.2 480.4 483.6 491 494.2 497.4 502.3 507.2 510.9 517 525.6 533.4 542.6 547.7
560 526.2 488.1 453.4 416.3 400.4 400.1 424 449.6 474.9 496.7 513.3 535.1 548.1 552.5 555.6 559.9 569.7 574.6 585 593.4 597.4 601.9 601.4 600.8 593.3 578.5 564.5 548.8 537.8 518.7 508.4 500.4 494.2 492.8 492.8 493.1 497.4 495.2 453.5 415.9 391.3 371.9 352.7 339.4 328.9 313.5 300.3 294.9 301.7 312.1 326.3 343.8 360.2 381.5 401.8 424.4 452 477.3 507.5 536.7 563.8 586.3 605.2 622.9 633.2 614.6 581.6 564.8 543.8 522.2 495.6 476.3 458.6 439.3 421.5 394.5 382 376.9 363.3 348 349.3 354.9 371.8 392.6 404.6 426.7 445.6 474.3 496.8 502.2 500.6 488.2 475.3 454.1 438.8 422.5 419.2 428.8 436 445.2 455.4 466.7 477.8 489.4 502.1 517.1 540.7 567.1 595.4 624.1 652.9 678.2 703.1 727.1 746.6 760.9 765.2 761.3 756.2 748.3 736.9 723.5 703.4 681 660 643.5 630.2 628.2 618 605.8 595.6 586.3 576.4 567.8 570.1 574.5 582.5 597.1 611.3 624 625.8 622 613.6 609.9 602.2 595.8 591.6 582.9 573.9 564.8 549.9 528.8 513.2 502.8 491.2 488.9 483.9 467 461.7 464.7 473 478.9 483 491.9 490.3 495.2 498.7 501.7 503.4 503.9 501.1 498.2 496.6 495.1 493.4 491.2 490.7 492.1 489.4 494.7 497.5 497.8 499.7 496.2 494.3 494 489.2 495.8 501 503.4 509.8 514.4 517.8 521.1 528.3 534.9 541.5 546.9 551.8
572.2 529.8 495.2 455.8 420.7 404.4 409.8 435.1 460.2 485.8 510 536.8 547.6 549.3 549.9 551.8 557.1 563.6 568.6 579.1 592.1 588.9 591.2 594 594.1 586.6 571.5 560.7 544.2 523.5 510.9 504.4 498.1 494.2 485.8 485.6 487 491.7 485.9 454.3 412.8 387.7 365.9 346.6 336.4 324.4 309.8 293.5 290.5 299.7 309.9 324.7 338.5 356.3 374.4 394 417.1 443.6 472.3 504.1 533.3 560.4 583 600.6 617 629 620.6 592.6 565.7 544.1 525.2 511.8 493.7 475.2 455.8 434.7 407.6 388.3 371.9 357 344.9 335.6 344.7 353.5 364.8 374.8 394 417.3 451 461.3 458.1 463.4 461.6 453.1 441.7 426.2 418.7 415.9 424.9 434.3 444.5 454.8 464.6 476.8 487.9 500.4 518 539.9 564.7 594 623.1 648.1 675.9 703.3 727.6 748 759.6 761.2 758.9 752.2 743 730.5 711.7 688.1 667.3 647.4 631.4 629 614.8 602.8 596.7 585.5 576.9 571.2 566 561.7 565.9 571.1 581.2 594.7 605.6 609.9 606.6 599.1 592.7 588.2 584.3 579.5 572 564 552.6 536.1 517.8 498.6 487.4 473.6 465 456.4 453.6 455.4 458.6 464.7 468.9 484.8 485.5 488.7 493.6 499.7 506.2 505.2 505.1 503.7 502 498.8 497.1 497 497.7 497.6 498.2 499.7 503.3 507.6 506.4 509.3 512.5 504 500.4 501.9 507.5 512.1 516.1 522.6 525.4 529.3 532.8 539.1 544.1 549.2 550.8 552.1
570.1 536.2 499.4 457.5 426.1 408.1 420.5 441.9 465 490 518.3 544.9 554.1 556.1 549.7 543.1 549.9 554 555.7 566.6 587.1 585.5 586.9 588.6 591.6 584.8 568 550.7 538.9 521 508.2 500.7 495.4 490 484 480.9 479.1 478.7 469.2 440.9 405.9 381.1 359.5 343.4 329.5 316.4 301.8 286.9 286.2 296.4 306.3 320.2 337 351.1 369.8 389.2 413.6 440.4 470.4 500.8 529.8 559.6 582.7 600.8 617.4 632.5 639.9 613.2 589.6 566.1 548.7 529.3 515.5 502.3 471.8 442.8 420.8 396.7 374.2 352.7 340.5 336.4 333.2 338.3 347 358.6 374.6 393.9 421.4 425.2 421.2 425.3 432.9 432.2 425.6 413.9 409.2 409.7 421.1 431.4 441.6 450.8 462.7 477.1 486.8 499.3 518.3 539.2 565.2 593.5 618.6 645 673 699.9 723.4 740.4 753.6 756.6 753.8 747.6 738.6 722.7 700.8 679.5 657.2 653.9 650.4 643.6 627.7 609.5 595.3 588.7 580.9 570.8 564.3 558.9 556.6 560.6 570.1 577.4 589.4 591.3 588.1 582.4 574.6 570.9 569.2 567.5 563.1 557.1 540.9 518.4 499.2 485.9 478.3 468.5 448.9 447.7 447.2 451.8 454.3 458.3 464.8 477.2 484 488.6 495.2 504.8 510 508.7 508.4 509 509.1 506.8 507.6 507.1 508.4 507.7 506.5 513 512.6 516.6 511.2 512.3 513 505.4 507.6 515.7 520.7 524.1 528.8 535.7 538.9 542.4 545.5 550.5 552.7 554.9 556.8 554.7
584.6 535.2 493.5 457.6 428.6 416.9 428.7 447.5 470 494.6 521.6 553.3 559.4 556.3 545.8 540.3 541.6 543.6 548.4 558.1 565.6 573.5 582.6 585.9 589.5 588.2 569.6 548 532.1 518.7 506.4 499.6 494.3 488.4 482.3 477.7 471.9 467.3 459.7 434 400.1 374.1 356 340.1 322.4 307.8 296.7 283.2 283.2 293.2 301.5 314.5 329.6 347.5 366.7 386.9 409.2 435.7 466.4 496.9 526.2 555 579.9 601 621.6 639.3 647.8 629.7 629.1 602.4 582.2 563.7 553.2 532.6 495 460.8 436.7 405.3 375.3 356.8 339.7 333.7 331.6 330.7 334.2 343.3 357.5 376.9 390.5 393.5 394.5 400.7 404.4 410.2 407.2 402.2 397.4 403.6 416.6 428.8 439 448.6 459.7 473.3 486.9 501.1 519.4 541.3 563.4 588.6 609.7 631.2 661.5 692.6 717.9 736.9 749.7 752 749.8 744.1 735.1 721.2 698.6 681.7 674.5 672.1 666.8 654.1 635.8 618.2 611.4 604.3 597.5 583.6 573.4 564.2 558.2 552.8 557.4 562.3 566.8 565.3 566.1 557.6 559.6 550.1 551.1 549.6 542.1 537.3 518.9 498.5 487.1 480.2 472.6 452.5 440.7 440 442.8 446.7 447.6 457 465.2 476.2 486.1 494.6 500.8 509.1 511.7 513.5 512.3 515.6 514.3 516.2 517.3 518.9 518.4 517 519.5 519.6 520.7 522.3 517.3 519.9 516.4 515.1 522.3 531.7 537.4 541.9 547.5 552.3 555.3 556.7 557.7 558.5 559.6 560.5 558.8 556.1
571.1 541.3 490.4 455.9 436.8 424.1 431.4 449.4 475.2 499.2 530.3 558.3 562.9 562.5 542.5 537.5 535.2 533.1 536.6 551 559 566.1 573.6 583.1 590.8 591.2 574 550.8 533.1 517.6 507.7 499.5 492.2 485.4 478.8 474.7 465.8 457.2 451.3 420.5 391.8 370 351.4 329 311.4 302 287.2 279.9 283.4 289.5 298 309.8 323.9 340.2 359.1 383.2 406.9 432.8 463.1 496.2 525.5 550.7 574.7 599.9 625.8 647 656.9 658.1 659.5 642.5 623.4 598.2 588.5 559.3 521.8 482 439.8 404 376.1 358.3 340 331 330.3 327.6 327.1 332.5 341.1 355.4 368.4 369.8 369.7 367.4 375.6 380.6 387.3 389.3 385.1 396.9 409 425 436.6 447.5 457.4 469.7 486.7 503.2 522 543.8 566.6 591.7 617.3 641.1 666.8 690.7 713.2 733.1 746.4 748.9 746.5 741.1 733.3 722.8 709.9 696.4 691.2 688.1 679.7 660.7 643.8 634.6 629.1 622.4 614.8 602.2 584.2 572.7 564.9 557.8 548.1 549.6 553.4 553.8 550.9 545.3 540.3 541.6 533 524 518 507 502 490.1 472.4 464 450.7 443.1 437.2 433.2 435.5 438.5 444.8 452.2 469.9 480 492.1 501.1 508.5 513.7 517.3 521.4 520.9 522.2 522.1 523 524.3 529.1 528.2 528.7 530.1 530.6 530 527.9 525 529.1 525.1 529.6 539 547.1 554.2 559.9 563.6 568.5 570.7 571.1 569.8 566.1 565 563 558.7 555.7
561.7 524.2 482.1 453.3 444.2 430.9 435.5 456.4 480.7 505.6 533.1 556.5 562.2 556.9 539.2 531.3 527.4 523.9 526.8 534.4 536.7 546.9 559.2 574.8 589.6 599.8 578.7 552 534.8 520.4 505.8 497.4 491.9 483.4 470.7 464 457.8 448.5 434.6 406.6 383.3 365.1 348.8 322.2 306.3 294.8 284 277.9 280.1 284.9 294.5 308.3 322 335.1 349.1 367.8 396 426.1 458.2 492.2 521.9 547.2 572 598.3 620.4 644.4 654.3 665.3 683.6 678.1 656.6 640.2 611.9 576.5 541.3 500.1 451.8 414.9 384.2 364.3 345.4 333.6 330 326.7 323.9 326.1 328.8 338.6 345.9 346.9 350.8 347.2 352.1 360.1 368.5 375.6 380.3 390.1 406.3 420.9 433.3 443.5 453.3 468.6 487 506.6 528 548.3 571.3 594.6 617.7 640.8 666.1 688.6 710.3 730.6 743.7 747.2 744 738.3 731.4 723.2 714.7 706.8 701.8 697.6 690.7 675.9 661 655.1 647 639.2 628.1 615.3 600.7 582.6 572.1 565.5 552.1 544 540.6 540 537.9 537.1 533.2 526.9 517.5 506.2 496.3 489.5 488.1 473 459.2 451.5 443.3 436.5 432.8 431 431.5 434 440.4 458.1 472.7 486 498.4 506 513.8 519.5 525.7 528.4 531.1 533.3 533.9 534.4 537.1 540.8 542.3 541.3 541.9 543.6 540.6 537.2 537.4 540.4 539.1 541.6 552.3 561.9 572.6 576.8 583.3 586.7 586.2 582.6 578 574.2 569 565.5 559.9 557.3
546.1 505.6 480 453.3 443.3 433.7 442.7 461.5 487.9 512.1 544.4 558.1 566.3 554.6 545.6 525.9 520.3 512.1 512.5 508.3 517.1 529.9 543.4 566.2 587.9 599.9 588.5 563.5 537.8 522.3 510.7 496.6 488.3 477.5 462.7 454.4 447.4 433.7 417.5 396.3 374.5 361.2 345.4 318.6 300.6 289 279.7 275.6 276.7 280.9 292.1 303.9 316.4 326.5 341.9 362.8 385.3 419.5 453.1 485.1 514.1 540.5 570.1 593.6 618.7 636.3 649.2 661.4 689 704.4 686.5 672.3 634.8 593.7 556.9 513 469.7 427.8 398.2 373.2 351.1 338.9 334.9 330.8 326.8 320.5 322.8 325.2 328 329.6 331.5 330.8 332.5 342.6 352.8 359.1 366.8 381 399.4 416.9 429.7 443.7 456.8 473.2 490.5 511.9 532.7 553.8 575.3 595.2 616.7 639.2 661.2 685 706 726.5 741.8 745.8 741.8 736 729.2 721.4 714.5 707.9 701.8 697.8 693.7 685.1 679.6 667.9 657 648.3 634.8 626.6 614 598.4 579 568.4 554.2 544.5 534.6 532.8 530.3 526.8 524.5 521.7 509.2 493.6 491.1 469.3 461.3 467.3 462.4 457.3 450.7 436.6 430.7 428.8 431.9 438.1 441.2 462.4 478.6 490.6 503.2 511.7 519.5 528.2 535 540.6 543.9 547.3 546.4 550.9 552.4 552.1 552.6 551.8 553.6 553.2 551.7 550.1 551.3 552.7 555.2 558.5 565.8 576.5 585.9 592.2 598.5 598.9 596.4 589.7 584.3 578.9 572.2 569.6 566.1 563.1
523.9 494.7 471 451 442.1 444.4 448.9 467.3 496.1 522 552.3 562.4 568.1 560 542.9 522.9 511.3 498.4 500.7 498.3 504.5 517.1 533.2 558.2 587.4 593.1 585.4 561 542.4 521.3 508.5 499.6 487.4 469.1 457.6 444.4 432.4 419.5 399.7 383.6 368.1 358.2 345 317.9 295.2 282.7 277.7 272.9 274.2 276.8 290.7 299.3 309.3 322.5 339.3 359.2 381.6 415.4 449.6 481.5 506.5 537.9 565.4 591.3 608.7 619.2 616.8 642.3 676.3 706 717.7 691.3 651.1 609.2 564.4 520 476.6 441.4 406 380.9 361.2 351.4 343.8 336.6 327.8 323.4 317 316.8 313.1 315.2 318.1 317.8 318.9 324.9 336.7 340.9 360.3 378.5 397 414.4 433.7 448.6 463.5 480.1 497.4 519.2 538.9 557.4 576 595.7 614.9 633.6 654.8 677.7 698.9 722.3 737.4 743 738.6 733 726.5 720 711.9 706.2 700.8 696.9 693.4 688.2 680 670.2 660.3 648.4 635.9 630.3 621.5 608 589.1 574.8 560.8 548.2 539.3 534.7 527.9 523.3 516.5 502.1 495.6 482.4 490.6 497.1 479.9 461.9 454.3 456.4 455.4 450.6 427.6 427.8 432.3 432.4 440.1 463.2 480.4 496.1 508.8 518.7 529.8 538 545.7 552.2 554.4 557.1 557.7 561.6 562.9 566.2 568.1 566.4 568.2 567.6 566.5 565.1 564.8 567.4 572 576.5 580.2 588.4 599.1 606 608.4 607.1 598.8 593.2 589 582.8 578.3 574.4 570.6 572.1
508.3 488.6 463.6 450.2 443.8 448.4 454.3 472.8 501.8 526.6 556.9 571.6 573.4 568 546.8 519.8 503.6 486.7 485.4 488.4 489.1 502.2 519.7 544.1 570.3 583.4 576.9 562.2 549.4 524.9 510.9 501.5 491.3 475.9 455.9 438.9 417.8 405.2 396 372 361.4 353.5 338.6 313.6 294.6 283.4 275.2 271.5 272.5 279 284.9 294.7 305.1 320.4 339.5 357.8 381.8 415.4 448.2 478.6 504 532.4 563.1 579.8 576.5 581.7 593.2 629.8 666.1 697.4 709.6 682.8 645.8 609.7 567.5 526.4 481.5 445.1 411.1 390.2 373.2 365.6 352 345.7 336 326.8 316.9 304.1 300.8 305 307.9 303.5 305.1 313.1 321.4 341.7 358.9 373.8 393.1 410.8 432.9 451.6 467 485.5 502.8 524.8 543 563.8 581.2 598.4 613.8 630.4 644.3 665.3 688 711.3 729 736.7 732.9 726.7 721.6 715.5 709.9 704.9 700.7 695.4 689.5 684.4 677.1 667.9 657.8 648.4 641.1 634.6 625.9 611.1 595 582.1 567.5 555.1 545.5 540.8 535.9 531.7 521.1 497.7 511.8 509.9 511 497.5 480.7 470.1 455.8 440.2 436.7 431.1 426.5 426.3 430.7 432 445.1 460.6 478.4 498.3 516.6 526.4 534.5 545.7 554.3 561.4 570.3 568.1 571.2 573.2 577.6 583.9 588.2 587.3 585.9 583 581.6 580.6 581.3 584 589.1 593.3 597.6 604.3 611.6 615.5 614.8 610.8 603.6 599.6 593.8 589 582.9 580.4 578.5 576.1
502.9 481 458.3 453.1 446.5 449.3 460.5 476.4 500.3 533.6 560.8 576.2 578.8 573.5 547.1 528.3 499.8 480.8 474 473.8 477.7 487.7 503.1 531.1 556.1 559.9 565.3 562.3 548.3 526.6 511.5 501.7 489.9 472.8 456.8 434.5 411.9 392.1 385 371.1 356.6 345.5 328.7 305.8 288.3 282.7 273.6 271.5 270.6 274.8 282.4 290.4 300.8 318.1 336.5 353.6 378.8 406.1 433.3 462.8 490.7 516.7 542.6 551.4 540 554.2 591.3 625.5 658.2 688.4 692.6 667.4 634.6 591.7 555.2 517.3 480 448.4 422 400.7 390 377.1 369.6 354.1 339.1 325.5 311.2 299.9 295.6 295.6 299.1 301.4 309.2 315.9 327.8 343.6 351.4 368.6 388.8 409 431.4 451.3 471.2 489.6 505.2 525.9 546 562.3 579.8 597.8 613.7 627.5 637.3 654.5 675.3 695.1 719.6 724.6 722.8 721.2 715.7 712 707.6 703.5 698.7 693.2 686 681.9 673.4 664.8 657.7 649.6 640.9 632.7 622.3 611.1 598.4 586.5 573.2 560.9 557.1 549 543.5 534.5 527.3 522.8 517.6 513.2 505.5 498.6 487.9 474.3 457 440.8 427.4 427.4 427.7 425.6 428 432.9 448.5 466.3 484.6 497.9 512.7 528.5 538.3 552 562.7 571.3 577.7 578.7 583.3 586.9 594.3 598.5 601.8 603.5 602.1 597.5 598.4 597.6 599.3 604 607.6 610.7 613.7 617.1 620.1 622.7 620 614.9 609.1 604.2 597.4 592.5 588.2 585.3 582.9 580.7
487.6 467.7 457 452.3 448.7 455.5 465.1 480.5 501.6 539.6 570 580.1 589.4 574.3 547.1 530.2 497 479.3 463 463.1 467.3 475.4 490.2 514.2 534.3 540 549.1 558.8 548.9 533.7 509.8 498.9 483.9 472.5 454.3 429.9 408.1 392 379 358.3 346.7 327.7 310 297 292.9 280.1 273.4 269.7 267.6 274.3 280.8 289.4 300.5 315.9 332.1 351.7 374.1 400.8 424.1 448.5 475.3 498.6 520.5 520.6 514 547.4 584.3 617 649.4 678.5 680.4 648.8 615.5 578.9 540.4 508.8 479.6 451.5 429.3 416.6 399.3 391.4 380.8 363.8 345.2 325.2 312.1 299.9 295.6 295.6 296.4 300.1 306.9 313.7 320.1 329.6 346.9 368 389.3 412.6 433 455 475.8 495.1 508.3 521.3 544 561.2 574.4 591.5 604.9 608.9 621.3 634.2 649.5 672 688.4 702.3 707.1 711.7 708.5 708.6 706.1 702.6 700.6 693.4 682.6 672.4 666.1 660.8 654.2 646.8 638.8 628 617.1 608.2 598.5 587.7 574.1 574.3 565.8 551.1 548.3 542.2 533.7 532.3 532.4 524.5 513.7 504.3 494.5 480.7 462.9 439.5 423 425.4 430.4 423 424.8 437.3 456.7 473.7 488.8 503.5 516.2 528.5 538.8 551.7 562.1 572.6 583.2 587.6 592.4 598.4 605.3 611.6 615.6 616.8 615.5 613.8 614.2 615.8 618.4 620.3 622.6 622.9 624.9 625.9 626.3 626.4 623.1 618.8 611.6 602.4 597.3 591.8 589.2 586.2 583.9 580.1
473.9 459.1 454.9 453.7 452.4 464.3 473.2 492.8 510.2 542.7 576.9 584.5 585.7 570.2 551.5 519.1 487.1 475.8 459.4 453.9 454.7 462.5 475.5 494.8 514.1 524.8 541.9 547.2 546.9 533.8 517.7 496.4 484.1 477 453.9 427.3 406.8 388.4 370.1 356.9 337.2 313.3 298.5 292.7 288.5 273.1 270.1 265.8 267 273.5 280.9 288.6 299.6 315.6 331 349.5 373.8 395.7 417.7 441.2 461.3 479.1 492.1 482.7 513.8 547.3 580.9 614.9 645.8 670.9 669 635 598.2 561 528.6 498.6 470.4 452.3 442.7 428.9 415.1 409.8 396.7 377.5 354.1 334.8 316 307.8 295.6 295.6 295.6 296.3 301.4 306.9 313.8 326.1 347 360.8 388.1 413.5 435.1 459.7 476.6 500 510.6 519.5 538.5 555.3 565.2 570.4 574.2 581.9 594.8 606.6 625.7 645.1 663.2 678.4 685.4 696.2 702.3 705 704.3 702.5 700.7 694.7 686.3 675.2 661.5 650.7 647.2 639.3 626.3 616.4 611.2 602.9 597 591.2 585.2 578.9 567.8 563.6 546.1 542.2 536.9 536.7 533.9 533.4 519.2 509.4 501.7 491.4 461.3 442.4 426.5 425.8 424.8 419.6 427 443.3 463.6 479.7 493.9 507.3 520.3 530.6 539.8 548.6 561.1 573 582.1 591.9 599.5 609.1 614.9 621.9 627.2 629.8 626.1 626.4 628.4 629.8 631.8 632.2 633 633.2 632.5 630.9 629.4 629.6 626.5 620.7 612.4 601.7 595 591 588.9 584.7 580.9 577
460.6 455.2 455 454.2 457.1 464.8 476.2 491 514.2 547.5 574.1 585.3 582 572.1 546.2 509.1 482.1 469.5 456.9 447.4 444.3 448.3 460 473.8 490.5 505.8 531.4 534.1 540 530.8 516.3 498.5 487.7 473 458.2 430.2 406.3 387.6 369.3 346.7 328.9 316.3 300.3 283.2 277.9 271 266 266.5 267.9 274.3 279.4 284.1 299.6 313.4 329.3 351.7 371 386.7 405.8 427.1 444.9 461.7 448.6 479.9 514.8 545.2 577.4 611 642.7 662.7 663.4 626.4 585.1 551.2 519 490.1 467.2 456.2 444.5 436.8 432 425.9 412.5 391.4 368.5 346 324.1 309.8 295.6 295.6 295.6 295.6 295.7 302 311 325.6 345.3 365.2 389 412.6 435.3 455.1 477.2 494.3 509.9 513.3 529.4 537.4 546.4 550.6 550.9 556.5 569.4 584.1 608.3 626.3 648.1 660.2 672.8 683 691.7 696.1 702.3 705 703.2 697.6 688.8 678.1 665 643.8 632.8 624.7 616.9 611.3 614.2 613.1 606.3 597.5 591.8 585.9 569 557 548.7 544.1 542 538.4 534.3 529.9 526.4 522.7 516.9 484.1 461.1 440.1 426.9 410 410.5 418.7 429.4 443.7 465.9 485.6 499.7 512.9 523.9 532.4 542.8 549.2 559 570.1 581.1 595.2 607.6 615.9 624.1 631.6 637.3 637.4 636.8 635.5 636.3 638.5 640.4 641.3 640.7 637.6 636.4 634.3 631.2 630.1 624.3 617.4 608.3 599.4 593 587.4 584.1 582.1 578.3 574.8
455.5 453 453.1 455.8 457.7 467.2 476.6 505.9 521.8 558.1 582 582.6 576.5 560.5 532.1 500.2 477.1 465.6 454.1 442.6 436.8 438 444.9 456.7 471.6 495.2 512.8 512.4 527.6 520.1 510.5 503.3 484.8 476.2 458.1 434.9 406 387.7 368.8 348.9 330 307.6 294.4 282.4 271.3 266.7 264.5 262.9 266.1 270.2 276.9 285.1 296.6 311.1 326.9 342.4 359.4 374.2 389.4 407.8 424.6 423.2 453.8 483.7 516.2 545 576.1 605.6 636.9 657.2 659.5 627.5 583.2 542.5 509 484.4 468.2 455.5 451.6 445.9 444.7 450.6 428 391.3 375.4 354.7 339 324.3 299.7 295.6 295.6 295.6 295.6 298.7 307.6 322.6 338.1 360.3 384.9 409.6 436.1 453.5 473.7 491.7 498.2 503.1 512.9 519.2 520.2 521.1 528.8 537.5 546.9 568.1 589.6 610.6 626.3 643.2 657.8 670 679 691.3 700.8 705.4 704.1 698 689.9 681.3 669.2 650.7 638.6 636.2 632.8 629.6 628 625 613.8 604.6 593 582.6 574.4 560.4 553.7 552.4 548.8 545.8 543.5 539.8 536.8 527.5 504.4 473.9 449 430.8 418.5 405 402.7 413.7 430.7 450.3 474.5 490.3 501.2 512.3 522.4 533.5 541.5 549.5 557.2 570.7 586.3 600.5 612.9 622.3 630.6 637.3 642.2 644 644.8 644 644.2 645.7 645.5 644.7 641.9 641.9 640.1 637.4 633.6 626.1 620.5 613.4 603.3 593.3 588.7 583.7 581.3 577.9 575.3 573.8
449.5 448.3 452.6 456.3 461.8 467.8 485.4 516.2 533.1 551.8 588.3 584.7 570.8 552.9 525 505 475.3 463.3 452.1 438.9 428.5 425.3 431.3 433.3 453.4 466.1 476.5 485 500.1 507.8 508.1 501.7 488.3 478 464.1 439 407.6 387.7 369 348.9 331 310.7 291.9 284.4 269.5 266.3 263.6 261.2 264.4 268.5 274.9 286.3 300.1 313.7 326.2 339 352.6 365.6 378.3 394.4 406.8 427.9 454.8 486.8 516.6 547.3 579.1 609.8 635.3 653.5 649.9 612.3 579.7 535.9 508.2 483 470.8 463.8 459.7 456.6 464.9 452.1 414.2 383.4 370.6 367.3 330.8 302.7 295.6 295.6 295.6 295.6 295.6 297.9 308 327 338.2 359.2 381.2 403.4 427.6 447.6 468.7 488.7 493.4 492.2 497.5 500.7 500.6 503.7 510.2 519.3 531.6 553.1 573.9 596 613.5 628.3 641.1 652.6 670.1 688.8 700.4 704.9 704.8 699.1 691.1 681.2 672.2 659.7 657.2 654.6 653.3 649 641.9 632.7 620.3 608 594.9 583.2 573.2 567.7 567 560.4 558.5 555.1 553.7 552.2 543.3 519.4 485.4 455.8 436.3 421 409.2 397.6 394.1 412.8 435.1 457.9 482.2 497.7 510.1 516.8 523.1 529.8 538.8 548.7 558 571.3 589.8 605.5 615.5 624.7 634.5 641.1 646.9 649.5 650.4 649.3 648.7 649.5 647.4 646.6 645 643.7 640.6 636 632.3 624.2 615.1 610.3 595.7 589.6 583.7 579.9 577.2 575.3 575.7 576.4
446.3 444.5 450.2 456.8 464.3 475.3 491.9 510 533.2 558.5 573.2 581.7 563.6 543.8 527.4 497.8 474.8 460.5 450.8 431.1 419.2 412.4 415.3 421.7 433.8 441.6 450.3 463.5 479.2 495.8 498.3 498 493.2 480.4 468.6 442 411.9 389.2 371.7 350.9 334.1 312.3 293.4 279.3 270.6 268.6 265.8 259.8 265.3 268.6 277.5 289.3 303.1 314.5 326.5 335.6 345.8 357.5 368.3 376 401.5 427.6 458.3 485.6 515.7 546 575.3 604.2 631 646.6 623.9 582.1 555.3 532.3 514 498 485 472.9 473.8 480.5 484.3 456 420.9 387.4 363.6 342.2 309.3 297.9 295.6 295.6 295.6 295.6 295.6 299.6 311.8 322.6 336.1 353.7 377.4 400.5 422.9 442.5 465.8 485.6 482 478.3 480.1 485.6 483.7 477 485 495.1 511.9 532.2 553.6 576.8 596.5 611.7 634.1 650.8 667.8 683.6 694.7 702.4 704.6 701.4 694.2 689.2 682.1 674.5 671.6 671.7 669.1 665.4 658.7 640 623.4 609.7 599.6 591.7 583.1 580.6 576.3 570.2 572.2 572.5 572.7 568.2 537.9 496.1 461.8 437.5 420.5 409.4 399.7 391.7 392.5 412.2 438.3 462 487 499.7 515 522 526.2 529.1 543.1 551.2 560.7 570.8 589 602.7 616.7 626.6 635.7 643.3 648.4 650 651.9 651.9 651.6 651.5 647.5 646.6 642.2 640.6 638.3 631.9 624.8 619.4 606.6 597.7 591.7 586.8 581.5 578.6 578 578.2 578.2 579.9
439 438.8 448.1 456.5 463.8 478 496.4 518.4 535.3 558.1 570.2 573.4 561.1 545.9 531.9 493 474.6 453.4 443 423.1 408.3 403 407.7 412.1 418.8 427.6 437.7 449.9 465.9 485.8 493.7 496.9 495.3 484.1 469.8 450.2 410.3 388.1 368.5 351.9 336.7 315.7 296.2 279.9 268.8 265 261 259.3 262.4 275.5 281.2 293.7 309.9 316.7 323.9 329.7 337.8 346.9 355.2 376.7 400.1 425.7 456.1 489.7 516.4 545.5 577.8 607.2 634.8 647.8 608.5 572 549.7 535.1 522.1 512.4 500.6 492 488.9 505.2 489.6 461 415.8 384.3 363.3 326.7 314.7 296.8 295.6 295.6 295.6 295.6 295.6 299.9 311.7 321.7 335.3 355.1 373.8 395.7 418.5 440.6 460.6 476.9 463 463.8 464.5 470.3 461.8 458.1 464.8 471 491 517.3 534.9 554.2 581.4 611.4 625.6 647.1 662.5 676.3 688.4 699.7 704.1 701.3 694.2 689.8 687.6 686.5 684.9 683.6 680.4 675.9 667.5 642.3 628 618.2 610.4 600.7 595.5 592.9 588.6 580.8 578.2 578.8 578.8 574.5 525.1 479 442.8 419.8 402.2 392.3 387.4 379.9 389.7 409.8 442 462.9 484.1 507.9 516.3 524.7 531.5 539.1 546.6 555 561.8 569.8 583.1 599.6 612.6 624.7 633.5 643 648.4 651.5 654.5 655 653.9 650.9 649.7 648 641.7 635.4 634.6 627.7 622.3 612.1 602.9 594 590.2 585.8 580.9 578.1 581 581.6 582.3 583.6
431.1 437.1 448.4 456.6 464.7 479.2 497.7 517.8 539 555.4 568.4 575.5 563.5 538.4 521.7 491.6 471.7 448.9 438 413.4 401.7 394.7 398.7 400.7 407.8 416.4 425.8 438.8 455.1 474.5 486.8 494.7 495.1 488.1 470.7 453 416.4 390.2 371.6 354.8 342.7 323.7 299.9 280.5 267.7 261.9 259.6 257.9 262.8 271.1 278.5 289.4 301 312.3 316.6 325.9 333.1 331.4 350.9 371.8 397.7 427.6 460.7 492.6 520.9 550.8 580.9 610.8 637.3 649.4 617.5 587.3 565.2 553.2 542.2 521.8 510.1 509.4 521.4 531 495.8 447.5 410.6 382.3 343.9 315.4 295.6 295.6 295.6 295.6 295.6 295.6 295.6 300.2 307.4 317.4 331.8 346.7 368.4 394.5 419.6 435.8 446.3 449.8 444.9 451.6 451.2 450 449.2 440.7 441.5 451.1 468.4 488.1 499.2 536.4 555 580.4 605.6 637.6 650.8 659.5 671.3 687.4 693.9 694.2 691.6 690.8 694.3 696.4 695.7 694.5 692.1 687.1 674.6 656.6 641.2 630.5 620 612.6 606.5 603.8 596.1 590.6 590.5 588.8 577 565.4 544.9 466.2 435.4 407.1 386.3 377.1 371 368.6 383.4 404.7 432.5 467.3 484.1 509.1 516.5 528.1 531.1 536.7 544.2 553.8 565.8 575.2 586.8 599.8 611.2 625.3 635.9 644.9 650 654.3 655.5 655.3 652.2 652.1 649.5 646.2 638.7 632.3 626.8 622.9 616.8 607.2 598.1 591.7 588 585.1 580 581.2 583.3 588.1 587.5 591.5
424.7 439.4 451.2 459.6 466.5 480.3 491.8 511.2 532.7 550.7 562.7 568.1 559.4 531.9 497.4 474.4 455 437.6 423.2 410 399.2 390.4 391.3 389.8 397.6 408.6 418.7 432 446.1 464.6 481.9 491.9 496.9 492 478 449.3 422.5 392.5 370.6 356.3 343.3 328 303.4 281 266.7 259.3 256.9 259.5 264 271.7 279.7 288.3 297.2 305.1 310.1 319.1 319.6 324.9 345.5 366.6 394.4 426.3 461.3 493.2 525.9 557 589.9 624.1 650 667 643.6 610.2 588.7 579.3 561.1 552.1 539.1 543.9 559.8 539.7 496.3 455.4 416.6 376.9 343.9 315.1 295.6 295.6 295.6 295.6 295.6 295.6 295.6 295.6 303.1 310.4 323.3 341.2 359.3 377.1 403.8 422 433.3 429.3 432.9 439.7 440.7 439.4 433.5 424.7 423.9 434.8 451.4 471.3 491.6 510.4 535.6 560.1 589.1 624.2 636.4 646.9 656.9 668.5 678.8 682.5 684.6 693.5 700.9 704.3 706.5 703.6 700.8 694.4 684.3 669.1 652.4 641.1 630.5 624.6 619.5 609.9 592.1 586.9 587.1 582.6 575 546.7 494.4 454.3 420 394.5 374.5 362.9 355 360.3 377.5 399.9 430.5 461.1 487.8 503.3 523.4 531.7 534.6 540.1 543.9 552.8 563.3 579 592.2 606.2 618.9 630.6 642 649.2 653.1 655.1 654.5 653.4 651.2 647.3 642.9 637.9 633 628.3 618.1 615 605.3 602 592.4 589.7 587.2 582.1 584.4 586.7 591.3 593.5 598.9 602.7
425.5 435.9 452.6 461.2 471.1 487.2 502.3 513.2 532.2 549.7 565.5 562.8 549.5 523.3 488.4 461.8 447.4 436.1 420.1 405.1 394.7 389 386 381.8 389 398.2 410.7 426.1 442.6 459.4 478.9 493.2 498.5 496.8 471.1 453.6 422 394.5 371.7 360 342.5 329.2 306 282.8 262.6 257.5 255.7 260.2 265.2 272.7 280.3 287.4 292.6 298 301.7 307.1 308.5 322.7 338.8 361.7 389.5 423 460.7 496.7 528 562.6 598.1 631 659.5 678.4 670.4 640.3 620.2 612.1 602.5 597.6 592 601 590.4 548 502.8 462.3 426.4 387 352.5 321.3 297.1 295.6 295.6 295.6 295.6 295.6 295.6 295.6 297.3 303.2 318.6 337.6 351.2 368.8 385 397 404.9 416.4 422 428.7 430.6 424.6 417.5 409.7 408.3 417.9 436.7 452.6 467.3 488.1 516.4 538.2 567.9 595.4 616.6 633.2 645.5 656.3 666.8 670.5 683.1 698.5 708.2 713.7 715.5 715.3 710.4 702.5 695.5 683.7 669.5 652.9 642.7 636.2 623.8 605.3 592 589.6 586.3 577.6 555.9 518.6 469.2 440 411.5 386.1 363.9 350.5 342.9 344.5 362.2 391.7 421 461.7 480.3 504.9 523.9 532.7 539.1 541.4 546.4 555.9 566.2 580.1 596 613.3 627.8 637.8 649.3 656.5 660.1 659.2 657.4 653.5 649.5 644 636.8 632.6 626.4 624.4 614 603.9 599.7 595.5 590.2 589.1 588.3 587.4 588.5 592.6 597.7 604.7 610.9 614.3
425.1 437.1 455.3 463.8 467.8 482.6 501.9 523.1 533.1 547.6 562.7 558.8 540.9 514.6 483.1 453.9 444.1 433.3 418.9 400 386.9 380.5 371.9 372.2 379.2 390.1 403.8 420 434.6 452.3 473.2 485.6 491.8 492.3 466.4 447.4 413 377.6 356.6 345.6 334.6 325.1 313.2 283.2 263.1 253.3 255.3 259.4 269.9 280.3 284.7 288.6 290.4 292.9 295.2 300.5 300.9 313.4 333.6 357.5 384.4 419 454.7 493.5 532.5 567.5 602.8 636.2 663.4 682.4 691.2 682.8 659 655.2 652.4 646.9 646.8 645.2 610.7 560.8 519.9 474.3 433.8 395.3 360.7 332.1 307.6 295.6 295.6 295.6 295.6 295.6 295.6 295.4 291.2 301.5 322.7 340.2 348.5 364.5 377.3 386.4 396.7 406.2 412.9 419.6 423.6 415.9 409 399.8 396.8 402.7 418.1 430.4 445.7 466.6 490.7 513.3 545.2 575.1 599.7 616.4 630.3 645.2 654.8 668.6 687.4 701.7 713.1 718.1 722.5 723.9 719.9 714.4 704.4 693.6 682.9 668.2 654.3 637.5 621.2 608.2 600.6 598.9 594.8 581 549.8 504.5 460 427 402 379.4 358.6 342.8 333.7 334.1 351.5 377.7 406.2 440.5 472.8 509 522.6 532.7 537.8 545.9 550.1 557.2 570 577.4 597.1 615.3 631.5 646.2 654.7 663.2 663 660.9 657.7 656.1 652.2 641 630.9 624 613.1 611.1 610.3 600.4 595.3 591.1 590 590.4 588.9 590.7 595.2 599 605.4 611.7 617 622.6
422.7 439.4 454.8 461.8 468.7 479.5 502 521.4 540.8 550.3 559.1 558.4 542.4 506.9 475.6 448.1 422.9 406.3 396.2 383.7 370.5 368.3 355.7 357.9 368.6 381.8 396.7 412.7 427.5 446.4 464.2 480.7 492.5 483.6 454.1 422.8 395 365.1 346.2 332.6 323 307.8 304 279.2 263.1 249.8 256.1 266.2 272.3 285.5 290.3 291.6 289.8 288.2 284.6 287.9 289.9 304.5 327.2 352.3 380.6 417.2 450.8 493.8 531.1 566.8 601.8 641.4 667.9 688.7 705.3 715.9 709.5 703.8 697.3 692.7 682.1 658 621.3 574.5 527.1 486.7 446.2 410.5 373 345.3 325.8 308 295.6 295.6 295.6 295.6 296.4 285.2 289.1 300.9 320.2 335.8 349.6 361.3 369.4 378.5 390.8 398.4 406.1 413 414.9 409.8 400.3 388.5 386.3 392.9 402.1 414.1 429.5 447 468.3 492.3 524.4 550.7 579.6 597.4 609.7 632.2 652.2 664.5 681.9 699.5 713.2 721.2 728.2 728.4 726.3 721.2 711.8 701.8 690.9 677.6 663.6 651.1 630.3 616.1 609.9 602.3 591.9 566.8 552.5 498.6 454.2 419.5 393.4 371 352.1 335 324.6 324.2 347.2 388.4 411.2 435.8 483.2 504.1 518.7 531.9 539 545 551.5 560.6 572.4 582.1 592 613.9 635.5 648.5 656 660.9 663.4 657.7 656.6 652.8 647.2 635.5 624.8 615 609.9 602.3 599.8 596.2 593.9 592.6 593.4 591.8 593.5 596.6 601.4 606 612.9 617.9 621.9 626.7
420.5 434.9 449.2 456 462.9 475 491.6 512.2 537.1 549.9 558.9 553.8 539.6 501.1 472.6 445.1 416.7 390 375.9 366.9 356.1 352.2 342.5 348.5 360.6 374.2 390.5 406 421.3 437.2 454.4 471.4 481.8 475.8 445.1 406.2 374 350.8 334.7 317.1 304.9 303.4 289.4 274.2 258.2 249.7 261.7 272.5 281 285.9 293.1 297.7 293.9 280.1 277.1 280 282.8 300 319.3 345.1 376.9 411.2 446.2 482.6 526.2 565.4 601 637.1 666.2 688.6 708.3 724.3 744.4 748.9 736.1 706.3 680.2 652 621.3 575.6 533.3 498.2 459.9 427.8 391.7 365 343 323.3 305.7 295.6 295.6 295.6 282.1 279.4 283.6 297.3 312.8 331.9 342.1 353.7 366.1 374.1 383.3 392.3 401.2 409.6 411.4 407.5 396.7 382.4 375.8 380.4 388.7 393.1 407.9 424.9 449.5 472.8 501.3 530.3 556.5 576.5 597.7 617.2 637.4 656.1 672.1 691.7 707.6 720.3 725.5 726.7 724.6 720.4 713.5 706.1 695.4 687.7 676.5 658.5 643.1 631.3 625.7 609.1 597.6 574.3 553.5 501.9 454.4 417.1 386.2 363.6 346.1 329.3 311.8 317.1 334.5 358.4 391.6 433.6 470.4 500.9 520.2 519.1 534 544.8 551.1 559 568.8 585.5 594.5 612.3 635.4 647.4 651.5 654.9 655.5 649.5 648.7 641.2 632.2 624.1 616.6 607.9 600.8 596.4 595.7 597 597.5 597.5 598.9 597.5 599.9 603.8 606.7 612.8 618.4 621.6 624.7 628.3
416.4 434.3 442.8 451.6 455 464 483.6 503.6 521.7 534.6 546.5 547.9 536.8 500.9 471.5 442.4 415.6 382.8 363.2 353.8 341.5 339.5 332.8 339.8 353.7 368.3 384.4 399.8 412.2 429.7 447.6 466.1 473.9 461.7 422.8 388 360.9 338.9 320.9 306.3 292.4 286 278 263.5 249.4 248.6 257.4 270.3 281.6 290.2 296.4 300 296.3 279.5 271.2 273.2 281 299.4 320.9 344.2 373.7 405 435.1 470.5 513.7 559.4 594.7 630.2 661.6 688.1 710.1 731 747.4 753.6 728.7 699.2 672.1 637.9 609.3 572.7 543.3 503.7 469.6 438.8 410.2 380.1 361.4 338.4 323.7 305.1 295.6 286.2 286.4 279.7 278.1 294.3 307.4 327.9 337.5 348.9 362.8 371.9 379.8 389.8 397.6 408 409.8 406.2 398.1 383.8 369.6 369.7 374.4 380.4 394 409.8 431.3 453.2 478.4 506.1 522.2 559.7 584.5 608.6 629.1 647.7 664 678.8 694.4 708.5 717.5 720.3 721.9 719.5 714.8 708.7 702.2 692.9 683.2 666.1 653.2 643.4 632 613.5 599.7 567.2 534 496.5 446.3 410.1 379.8 357.4 337 320.3 306.5 305.2 322.5 348.2 380.3 430.4 465.2 500.2 508.2 512.9 533.5 547 552.2 555.5 565.9 585.2 593.3 599.7 628.9 639.8 634.9 639.7 638.4 642.3 635.8 625.7 625.1 618.2 611.6 601.7 596.8 594.8 595.4 596.8 597.8 598.1 599.9 601.1 604.9 609 613.5 615.8 621.2 625 625.9 629.7
419.4 429.9 439.6 448.6 451.8 463.5 477.5 496.6 515.8 531.2 539.2 540.7 532.8 499.4 466.5 441.3 411.8 378.4 353 342.6 331.7 328.7 327.8 335.6 347.8 362.4 378.1 392.6 406.4 422.2 441.9 463.5 467.3 451.2 412.8 377.1 349.1 324.5 303.8 287.8 273 259.6 262.5 252.4 244 253 268.4 280 288.7 295.3 299.4 299.2 296.1 277 265.3 267.1 279.9 296.2 316.7 341.8 370.5 405.5 441.9 484.8 522.6 559.7 595.7 630.6 660.7 688.6 710 732.9 743.8 737.3 712.4 685.2 654.7 622.3 592.7 564.5 542.6 511 478.4 438.6 413.4 394.8 374.1 355.8 335.6 323.4 317.2 304.2 288.1 285.2 277.6 289.7 304.3 317.7 336.8 346.6 357.7 366.6 375.3 384.4 397.2 403.8 406.9 405.7 398.2 383 367.5 360.7 362.2 377.5 385 398.7 422.5 436.1 460.7 484.9 514.4 544 575.5 602.7 624.6 643.5 661.9 678.2 693.8 706.6 712.6 717.9 719.3 717.9 715 711.7 704.1 696.2 686.4 674.8 665.1 653.4 635.9 625.1 601.6 564.4 531.1 485.2 440.2 402.4 373 351.8 331.7 312 298.5 290.5 310.8 332.6 345.3 377.9 397.2 461 467 469.1 497.9 522.5 543.2 551 560.3 563 575.5 581 591.5 609 618 616.3 611.2 612.8 618.9 617.2 620.9 613.3 602.3 597.7 594 594.6 595.3 596.2 597.2 598.7 600.8 604.7 609.5 613 616.3 619.6 623.5 625.9 627.3 627.6
407.3 427.3 437.7 443.1 447.8 466.9 484.4 498.2 513.7 527 531.5 529 518.1 495.4 462 433.8 405.8 369.3 342.8 332.4 323.8 323.5 325.5 334 344.9 358.3 373.4 387.7 400.2 415.2 432.1 449.1 459.2 437.1 400.1 363.6 335.5 311.1 284.5 268.6 261.1 249.3 249.6 244.1 244.8 251.7 273.2 282.3 290.6 300.4 300.9 300.4 294.1 268.2 260.8 262.3 276.4 290.3 307.8 333.8 365 403.2 442.1 478 518.7 566 606.5 636.2 665.2 687.3 708.6 725.9 733.1 724.2 690.2 662 632.2 601.4 577 555.7 532.7 504.3 476.4 446.2 423.9 404 381.5 365.7 356.3 347.6 336.5 322.3 304.3 287.3 278.3 274.9 289.2 310.6 327.7 340.5 352.1 362.6 373 384.5 392.4 397.4 404.3 399.2 386.2 370.8 360.3 345.8 354 365.3 372 386.4 403.1 415.2 436 460.6 494.1 528.3 558.8 591 612.9 635.1 657.5 676.6 691.5 704.6 714.1 716.1 716.2 716.6 714.8 710.9 704.9 698.4 690.3 681.4 673.8 661 633.9 604.3 571.4 541.6 503.5 465.6 421.9 389.3 362.8 341.9 320.7 304.6 290.1 280.6 295.7 308.4 313 334.3 355.3 381.9 407.4 425.3 453.7 480.7 509.5 530.7 544.2 546.2 556.9 569.2 580.3 589.4 595.5 595.3 595.7 600.6 604.9 612.4 613.1 606.8 598.7 593.9 593.3 593.7 595 596.3 598.4 600.6 604.2 609.9 613.9 615.9 620 622.9 623.5 625.2 624.7 624.6
399.9 419.4 429.1 430.1 443 463.7 483.5 498.2 517 526.9 524.7 515.1 507.8 481.6 453 433.9 396.6 365 338.3 326.6 320.5 320.2 322.1 327.8 341.1 355.3 371.1 384.5 396.9 410.8 427.3 442.2 444.4 419.8 387.4 347.5 325.6 295.9 272.2 256 249.9 242.7 242.3 242.7 246 259.4 279.2 285.3 295.8 304.5 301.4 299 284.3 262.9 257.4 258.7 274.2 286 305.1 332.2 363.8 400 438.7 477.2 518.8 566.8 599.9 630.4 658.9 679.8 699 713.8 717.4 699.8 663.8 627 599.6 580.8 560.6 541.4 523.4 500.5 477.9 453 432.4 409.1 390.7 382.7 370.9 366.8 354.3 337 312.3 293.9 281.2 270.8 280.3 301.2 318.8 332.8 346.3 357.6 368.2 380.7 390.8 393.8 397.5 391.4 381.2 361.6 347.3 340.8 340.6 349.8 361.9 370.9 382.4 396.3 422.6 444 472.5 506.4 545.3 578.2 605.4 633.2 656.7 673.6 686.6 698 706.6 712 715.2 715.5 711.7 706.7 703.3 698.4 690.7 683.3 673.3 657.8 622.6 581.3 548.7 515.5 488 447.7 411.9 377.7 356.3 340.1 318.7 300.9 285.1 276.4 280.5 285.2 287.8 306.5 323.7 346.6 362.1 383.6 409.1 439.5 486.8 501.3 510 528 549.9 566.8 584.8 586 590.8 590.2 591.4 599.4 602 604 607.5 599.5 596 593.8 592.7 593.5 596.4 599.1 600.4 603.2 607.5 611.3 617.5 619.6 620.2 621.5 622.5 623.5 623.6 622.1
393.2 407.4 414.9 425.9 437.9 459.9 482.8 501.3 513.8 527.4 521.9 509.2 496.5 475.5 453 421.7 391.3 358.7 333.1 323.4 318.4 318.7 322.2 329.2 342.8 355.2 369.6 382.2 393.5 405.8 420.2 438.3 434.9 405.3 365.2 331.4 306.4 281.4 261.1 246.3 242.4 240.8 241.5 243.9 252.9 270.8 283.3 291.7 302.2 307.6 303.9 291.4 274.5 255.4 253.6 257.9 269.6 285.6 306 332.6 363.2 398.1 441.4 477.9 515.5 554.6 591.4 625.5 649.3 670.1 686.4 699 703.3 676.4 633.8 594.1 566.1 553.6 538.7 526.7 511.4 494.1 479.5 458.8 437.5 420.4 408.9 396.2 384 372.1 348.5 318.9 301.1 292.3 278.7 267.2 277.4 293.6 315.6 331.2 343.9 352.1 362.1 374.8 386.5 393.9 389.7 383.5 375.5 357.8 347.5 338.2 328.7 335.4 347.7 357.3 371.6 388.2 407.6 430.4 455.2 487.5 529.4 556.3 597.4 626.4 654.9 664.2 675.2 686.6 693.3 700.4 708.3 711.1 709.2 704.4 699.7 691.7 687.1 681 670.9 654 615.5 559.9 529.7 505.8 472.7 441.9 402.7 370.5 350.7 337.3 317.9 300.2 284.1 267.1 270.4 272.7 273.8 287.9 305 320.1 337.1 367.5 426.5 453.4 483.8 501.6 521.1 533.9 544.9 561.3 579 581.5 590.4 584.7 592.5 597.4 598.7 604.1 606.8 599 596.8 593.3 592.9 595.6 599.3 602.3 603.9 605.6 609 615.9 620 622.4 622.2 622.6 622.5 621.8 620.4 619.2
384.1 397.8 408.6 420.5 433.6 456.6 479 495 508.3 513.3 515.4 506.6 485 461.1 436.1 413.6 389.4 355.3 331.8 320.4 318.3 316.6 322.9 328.4 342.9 355 366.9 378.3 389.8 403.9 416.4 434.5 421.1 383.3 341.8 314.5 290 270.7 251.3 240.9 239.8 240.1 242 246 257.9 277.9 290.2 298.3 305.7 311.3 304 287.3 268.2 250.3 250.9 255 268.3 285.1 306.6 332.3 363.1 402.6 439.5 476.7 513.7 550.1 589.3 616.2 638.2 656.8 670.7 685.1 692.2 653 607.3 574.6 546.8 533 524.7 511.4 493.8 478.7 469.9 457.2 445.4 433.2 419.4 406.8 388.7 359.2 329.7 302.7 281.6 272.9 266.5 264.2 278.6 292.6 308.4 323.1 327.5 347.2 354.9 366.8 377.5 393.2 386.6 379.8 373.2 353.9 337.9 336.2 330.3 328.7 338.2 348.7 362.7 377.7 394.9 415.8 440.6 472.1 505.6 536.3 565.8 604.7 624.3 641.2 656.6 664.7 671 680.1 693 698.9 699.9 697.9 693.3 688.1 682.5 673.1 661.9 645 612.5 564.1 518.4 489.7 462.1 431.8 403.4 371.6 351.4 334.1 318 299.6 284.4 270.5 264.1 265.9 264.4 272 283.3 298.9 317.6 347.4 407.5 428.4 464.6 485.6 507.9 518.6 541.2 557.8 573.9 579.5 578.7 580.2 589.8 591.9 596.8 604.3 600.9 597.7 594.2 595.4 593.3 595.8 601.1 605.1 607.7 610.1 615.5 619.1 621 624.4 624.9 622.9 622.2 620.4 618.8 616.4
376.1 391.9 401.7 415.8 431.8 457.8 477.1 491.3 503.1 507.5 508.9 501.2 479.6 461.4 426.6 406.2 383.9 353.3 329.5 318.2 316.1 315.5 320 326.8 338.9 352 363.9 376.6 385 401.5 412.1 426.8 407.1 365.3 331.5 306.3 281.9 260.3 245.9 241.2 239.1 241.5 246.3 252.3 269.8 283.8 295.4 303.8 309.7 314.2 305 280 261.4 247.1 248.2 255.9 269 285.5 307.9 335.1 363.8 396.9 433.1 470.2 506.8 547.8 582.3 604.8 623.6 640.7 657.1 670.8 681.6 644.1 604.2 564.5 540.6 524.1 512.1 493.3 476.6 465.3 455.8 454.2 448.3 439.5 428.6 408.4 369.7 339.3 314.5 287.2 275.1 268.6 268.3 262 269.7 281.5 298 318.5 330.8 340.5 348.8 361.7 374.5 388.8 390.4 367.2 356.9 347 334.1 330.8 326 320.6 331.6 342.5 355.4 367.1 384.5 405.4 429.4 454.3 482.4 508.6 541.3 565.9 586.1 610.8 626.1 631.6 639.8 656.2 666.3 678.1 685 686.9 683 677.9 673.4 666.7 660.3 649.4 603 564.6 527.1 491.2 459.7 436.1 417 391.2 363.3 348.7 327 302.5 284.1 269.9 257.2 253 252.8 257.1 268.7 281.5 301.5 324.6 349.6 381.3 402 445.6 482.2 496.9 514.9 545.6 569.5 572 573.5 578.3 578.4 584.5 598 598.2 593.7 591.1 593.6 592.2 589.1 599.4 603.8 606.2 607.9 609.3 611.9 620.2 622 622.9 626.4 624.5 621.9 618.6 616.7 613.7
372.1 388.6 396.8 411.5 426 450.2 475.2 487.6 497.9 507.7 502 495.2 474.9 450.3 422.8 396.2 371.1 342.6 325.7 317.2 314.6 314.8 321 330.6 341.1 349.9 361.3 373 381.7 395.8 409.3 411.8 387.6 354.1 323.2 299.2 277.2 254 242.3 238.4 238.8 246 252.1 260.5 275.2 288.8 301.8 310.3 313.1 316.1 304.3 275 253.2 244.7 245.8 255 271.1 287.2 307.4 333.4 360.8 391 428.9 465.9 506.3 546.9 573 592.9 610.5 628.3 645.1 661.9 672.4 639.4 600.3 569 540.9 522.1 494.4 475.3 468.1 465.9 459 454.3 449.9 443.2 437.5 410.9 361.4 328 301.6 290.7 273.8 268.5 266.1 259.9 274.1 277.6 273.2 310 324 335.4 343.5 354.5 367.8 383.5 393 367.5 348.6 336.6 327.1 319.4 319 313.5 320.9 334.5 344.4 357.5 375.4 393.3 414 436.2 458.6 490.7 518.6 540.3 564.8 584.5 602.4 604.7 615.9 629 644.3 657.9 668.5 668.8 670.4 667.7 664.4 660.3 653.4 644.9 626 604.7 541.1 498.1 474.1 468.5 446.9 415.2 392 361.7 329.8 304 281.7 266.4 254.6 242.9 242.1 247.9 255.6 261.4 280.9 305.1 325.4 346.8 378.2 422.7 449.8 482.8 501.6 533.7 564 570.6 572.1 570.8 572.1 585.3 587.8 581.7 583.3 584.5 586.4 580.5 590.1 600.7 606.4 601.3 603.7 608 614.2 622.5 625.4 626.8 628 627.5 621.8 617.7 614.1 611
361.3 374.4 389.9 407 422.8 441.7 462.7 480.8 490.2 491.1 495.2 490.6 466.2 439.8 413.1 389 366.1 342.1 322.8 315.6 311.6 314.7 321.6 331.6 342 351.3 360.6 372.7 380.1 392.8 402.9 402.5 376.1 347.4 316.7 292.8 272.6 253.5 240.1 236.7 242.4 250.6 255.5 266.3 278.6 294 308.4 316.5 316.5 308.7 297.4 270.7 248.5 242.8 247 256.5 268.7 288.2 308.5 331.7 355.8 388.5 426.3 463.3 505.7 539.1 563.6 580.4 598.7 617.2 636.3 652.9 665.8 657.3 605.2 580.1 543.8 521 490.4 476.7 468.5 462.9 460.9 456.3 449.9 446.9 446.9 400.7 356.6 295.3 298.7 280.3 273 264.1 265.5 260 262.4 271.9 287.2 301.9 316.7 328.5 338.4 350.8 365.8 379.8 384.4 365.5 345.9 331 317.2 308.1 305.7 310 308.8 321.8 335.6 349.5 364.9 383 402.5 421.8 447.2 469 492.9 522.7 541.3 557.5 570.8 582.2 593.8 609.6 629.4 642.5 651.1 657.3 661.2 659.2 657.8 654.6 647.5 638.7 624 591.3 548.5 515.4 494.1 476.7 478.6 456.6 419.4 383.4 350.7 311.6 284.2 265.3 251.1 238.8 234.8 238.2 242.7 247.6 267.3 290.3 311.5 329.5 356 396.3 433.8 462.1 480.5 513.3 551.5 562.7 559.3 561.7 572.4 574.3 572.8 576.2 572.4 575.5 574 575.3 592.7 601 595.2 594.5 598.4 609.4 621.8 627.2 630.2 629.6 630.8 629 624.3 617.7 612.9 606.5
357.2 370.7 388.1 401.7 414.5 438.1 451.4 471.1 474.1 473.9 482.9 480.1 452.7 430.5 399.3 375.7 358.2 342.1 321.1 312.9 311.3 315.9 320.7 330 339 348.3 359.5 368.9 378.6 389.6 399.7 394.4 363.4 340.1 310.6 289.4 271.6 249.7 237.8 237.8 243.6 252.9 258.8 267.8 281.2 299 310.7 319.6 319.8 308.8 293.7 267.6 244.5 240.5 246 255.5 269.6 286.4 306.2 329.9 358.3 392.1 424.1 457.3 493.6 529.7 553.4 572.4 591.1 610.3 630.2 647.5 663.4 660.9 622.5 591.1 561.6 533.5 500.7 489.3 476 474.9 466.9 455.7 449.9 450.9 438.3 389 354.6 309.6 283.4 267.9 261.4 258.7 260.7 262.7 260.9 260.7 274.5 289.7 309.6 321.8 333.4 348.6 363.4 376.1 374.6 357.3 339.5 318.9 310.5 301.5 295.2 300.2 300.5 316.2 327.9 342.5 357.7 374.3 392.4 409.5 430.1 455.1 482.5 503 517.5 535.9 551 561.7 574.8 593.2 611.7 625.4 638.3 644.6 648.2 650.3 649.3 646.7 641.2 633.1 621.1 591.7 569.1 544.9 522.9 517.8 499 473.3 441.8 408.5 371.9 330.3 294.6 266.8 249.1 236.4 229.9 231.2 234.2 245.2 255.8 276.3 293.6 312.7 335.1 365.5 407.2 438.5 462 514 543.6 549.7 547.8 562.5 566.4 564.7 568.2 560.6 564 560 555 568.5 587.3 590.1 583.8 587.2 600.2 614.7 622.5 630.5 636 634.4 634.3 631.3 627.1 620.4 612.3 603.6
358.4 371.2 382.9 396.3 411.7 429.1 443.5 454.5 465.5 464.9 467.8 464.7 444.8 417.2 399.2 369.7 349 334.7 323.4 314.8 311 314.7 318.6 327.8 336.8 345.8 358.4 367.6 377.6 386.7 394.8 379.7 360 324.4 304.5 284.9 263.7 242.5 235.2 237 245.3 251.9 260.6 272.7 288.7 303.5 310.5 316.2 322.2 310.7 291.2 264.7 241.6 239.1 245.5 254.7 267.6 283.9 305.1 329 357.1 386.3 422.7 463.8 498.3 526.2 545.8 566.7 584.6 604.2 625.3 645.8 663.3 672.4 651.3 608 577.9 548 518.3 498.3 490.9 492.3 474.4 457.1 448.3 432.5 413.2 373 330.7 300.4 283.9 271.7 262.4 257.4 255.5 254.6 248.7 254.3 265.6 280.1 299.7 320.5 332.1 339.9 357.5 371.5 374.3 355.3 326.6 312.5 304.1 291.3 288.7 286.9 300.4 313.7 325.6 335.6 348.5 361.4 381.1 399.3 420.3 446 468.9 484.6 496.5 514.7 531.6 546 557.8 572.4 591.8 607.6 619.2 628.3 635.1 640.4 641.6 640.9 636.3 629.7 620 604.6 590.2 578.2 566.7 543.6 514.6 490.4 467.5 432.8 391.8 359.5 309 278.1 253.9 238.5 229.7 224.1 226.9 235.8 248.5 268.1 280.6 299 322 348.6 380.6 414.5 442.7 486 512.4 524.9 536.1 551.6 552.3 558.7 554.3 552.8 547.1 548.7 550.6 563.4 583.1 573.6 577 589.7 600.4 613.4 621.7 632.1 636.8 636.9 637 632 632.3 623.4 614.3 606.5
351.1 365.6 376.7 390.9 402 414.2 433.7 436.1 444.2 447.4 447.6 444.2 428 406.2 391.7 371.1 346.8 333.7 323.2 312.2 310.3 312.7 318.1 324.1 333.4 345.5 357.7 367.3 376.4 384.8 390.3 372 342.1 318.4 299.1 281.6 259.2 239.6 232.3 235.6 246 257.6 267.9 282.3 298.8 307.9 313 320.1 325.6 310.6 286.9 261.3 239.3 238.4 245.4 254.9 267.2 282.8 304.2 326.7 355.2 389.1 428.9 471.3 497.6 522 542.1 561.3 581.3 602.9 624 644.9 663 675.6 669 630 595.6 558.9 538.3 514.8 515.5 499 474.4 454.2 431.5 411 388.2 359.5 330 304.9 285.7 272.3 261.2 255 251.8 247 243.9 248.9 256.6 270.5 291.4 312.3 323 337 343.8 350.8 353.3 344.1 324.1 306 294.3 283.2 280.2 284.1 297.9 308.8 318.1 329.8 342.1 354.4 370 389.2 410.9 433.2 455.7 469.4 480.6 499.1 518.4 532.3 544.2 557.8 574.8 589.2 605.6 617 625.7 632.4 635.9 635.4 631.6 626.1 618.8 605.9 597.1 589.7 572.7 551.6 521.4 492.8 470 449 407.8 365.4 325.5 289.4 263.7 242.8 230.7 224.3 223 232 240.5 259 270.3 293.4 314 336.7 360.7 393.7 424.7 454.7 479.7 493 513.7 537.3 545.9 546 542 538.8 539.6 541.2 545.2 556 558.9 561.1 577.6 587.4 599.8 607.7 615.4 625.6 630.3 636 635.6 631 629.3 625 618.4 607.9
346.7 359.1 372.4 385.1 393.9 403.2 415.3 420.3 424.1 431.1 427.4 424 415.9 401.1 390.3 369.6 348.9 337.3 320.2 312.2 308.7 310.5 314.9 322.3 331 343.6 355.3 363.2 372.9 381.5 390.5 366.2 331.6 316.1 298.1 275 251.4 235.6 231.8 234.4 242.9 256.7 273.2 289.7 306.7 316.3 322.4 324.7 324.5 308.7 283.5 257.1 235.4 236.7 243.2 254 267.7 284.2 303.8 327.7 356.7 392.7 432.3 471.4 498.7 520.5 540.3 560.9 580.4 601.8 622.7 644.6 664.1 679.4 684.4 646.8 593.1 560.5 541.7 541.2 526.4 498 471.7 450.1 438.3 422.7 397.1 376 344.5 315.6 288.7 273 261.3 251.4 246.6 243.1 242.5 246.5 253.9 261.9 281.2 302.9 319.4 330.2 335.4 344.3 345.1 342.1 313.9 302.7 283.3 277.2 272.3 279.8 292.3 303.4 312.7 324.6 335.2 348.7 365.2 382.1 400.1 422.3 440.1 453.5 469.6 488.3 504.1 515.4 530.8 544.7 559.9 575.8 591 606.1 617.7 627.2 630.6 629.5 627.1 623.1 617.3 610.5 607.1 602 593.8 573.5 537.8 503.3 471.3 442.9 409.4 376.5 341.3 307.8 268.8 241.9 226.1 222.3 222.9 227 236.2 245.7 262.3 281.6 304.4 322.6 345.7 371 400.5 426 441.8 478 516.6 530.3 532.1 530.9 536 532.7 532.1 536 541.5 547.8 548.4 555.4 561.7 575.4 585.7 595.4 599.8 610.4 617.8 623.1 623.9 623.6 626.5 625 619.4 610.4
342 353.9 365.9 379.9 387.2 392.8 398.8 401.7 406.7 412.9 410.5 409 403.4 400.3 383.4 368.5 352.6 336.1 320.6 311.4 307.8 308.8 313 319.3 331.2 341.3 350.9 358.6 368.3 377.5 386.6 363 330.1 308 291 265.8 245.4 233.3 230.6 234.7 248.1 265.6 276.5 294.2 308 319.5 325.3 326.4 329.6 310.1 280.1 252.6 233.6 235.5 243.6 253.8 267.5 284.6 304.2 331.9 359.8 398.6 434.2 473.2 500.4 520.6 539 559 580.2 600.4 621.7 642.9 662.7 680.8 685.5 650.9 598.8 572.7 568.7 568.3 541.1 503.4 477.3 457 452.2 442.1 440.7 426.5 368.7 321.9 295.6 276.4 259.3 248.7 245.2 241.4 239.8 242.3 249.7 254.8 269.1 293 303.2 314.8 328.6 306.2 314.1 315 299.5 286.6 272.7 270.3 266.9 277.3 286.2 298.4 311.1 321.7 329.7 345.3 360.5 375.8 394.9 413.7 429.9 445.4 457.9 475.5 486.3 502.8 516.8 530.3 546.3 563.3 581.6 598.5 611.7 619.2 621.1 622.4 622.1 620.2 615.2 614 611.5 608.9 604.1 593.2 566.3 525.9 491.5 470.8 441.5 398.7 355.9 313.3 276.4 248.3 227.2 220.6 220.9 223.3 229.5 240 253.5 272.3 290.4 310.9 330.3 353.8 376.3 413.2 447.7 482.9 508.4 522.9 520.5 524.2 527.6 528 527.4 526.7 534.2 537.7 542.9 547.6 555.3 558.4 571.4 578.6 592 599.6 609.8 616 618 619.5 624.1 624.6 616.8 612
338.2 348.2 362.2 375 380.2 383.7 387 385.5 390.1 393.4 394.6 395 390.6 388.5 376.3 363.5 354.2 338.2 324 310 309.8 307.5 309.1 315.5 323.7 336.8 346.3 356.7 363.2 377.9 381.6 354.9 323.5 307 285.4 259.5 238.9 229.3 230.8 242.4 255.5 273.7 282.4 295.1 302.8 314.8 322.1 329.2 332 311.1 276.5 249.6 231.8 233.7 241.5 250.7 267.2 283.5 307.8 341 379.6 410.5 448.6 468 496 516.2 533.5 555.6 577 598.3 618.4 639.4 659.9 678.9 688.2 660.3 615.4 594 596.3 588.8 549.8 526 492.2 469.9 462.1 472.5 489 452.4 380.4 341.3 305.5 279.8 260.6 247.7 243.6 244.9 240.2 238.4 242.8 245.6 251.4 259.3 273.4 297.7 276.3 272.8 273.2 272.7 270.4 263.1 261.1 263.6 261.1 270 280.7 290.5 306.9 316 327.7 338.5 356 373.6 389.6 405.7 420.7 435.3 448.1 462.5 473.3 487.3 502.1 515.1 534.5 553.1 570.5 585 596.5 606.3 609.2 612.4 614.5 613.5 611.1 614 614.4 612.5 611.4 610.1 588.5 547.9 528.4 499.2 472.6 445.3 358.9 319.2 280.5 249.7 230.8 219.8 219.9 221 224.8 234.1 246.4 260.1 276.6 296.3 320.3 346.5 376.2 407.1 441.3 478 499.6 506.8 508.3 516.5 521.7 525.4 523 525.2 532.1 536.3 538.1 540.5 544.9 551.5 559.9 569.8 576.2 590.9 598 608.8 615.5 618.2 622.7 619.7 613.6 602.9
330 343.8 357.7 369.3 374.8 378.3 377 377.7 378 381.6 387.8 381.3 379.9 381.1 371.8 361.2 352 337.5 325.4 312 308.2 303.8 305.9 312.4 326.2 332.5 343.6 351.9 357.7 371.6 363.2 337.2 314.1 306.2 272.2 254.3 234.9 228.6 232.3 249.3 267.1 281.8 288.8 297.4 306.1 315.7 328.4 337.3 325.3 298 271.4 247.4 229.3 232 239.6 253.8 266.6 287.6 312.8 344 377.1 414 448.2 482.3 508 521.4 528 550.6 572.4 593.1 614.6 635.9 656.7 674.5 688.7 686.5 650.5 637.6 630.6 610.7 580.8 553.1 518.3 495.4 488.5 502.2 518.2 472.5 412.7 340.1 309 283.3 258.7 246.6 240.5 239.7 237.5 237.5 240.4 240.3 240 245.8 253 259 256.7 258 256.3 247.3 245.9 249.4 252.1 255.1 255.1 261.4 273.4 286.3 298.4 316.6 328.2 335.8 347.3 364.2 379.5 394.4 411.8 424.2 436.8 449.7 458.7 470.3 492.3 509.6 525.9 541.8 555.6 569.4 582.6 590.7 596.5 601.1 604.9 605.3 607.4 610.7 613.1 617.2 614.4 613.4 611.2 586.9 555.4 525.3 484.1 445 392.4 322.2 284.7 251 228.4 218.7 218.4 217.7 221.8 230.7 242.3 256 271.8 294.7 318.8 342.5 366.9 395.1 427.2 461.5 484.1 491.1 505.5 515 522.6 523.8 519.3 523.2 524 525.8 530.5 533.9 537.8 542 551.1 560.2 568.1 571.8 590.6 595.6 605.9 609.2 613.8 614.3 609.3 599.7
325.4 339.6 353.6 363.6 369.3 369.4 369.4 370.4 368.7 372.4 375.3 369.1 369.5 371.8 369.2 354 347.8 337 325.4 310.4 306 304.6 303.9 312.8 322.6 331.4 339.2 346.9 352.5 357 347.1 327.9 307.6 286.2 260.7 243.2 231.5 229.3 236.8 255.1 274.6 283.5 296.7 304.1 313.4 324.9 335.1 338.1 323.1 296.3 269.5 244.2 228.5 228.9 237.3 249.3 268.2 289 314.9 343.9 375.7 414.9 455.1 490.4 522.4 541.3 554.1 563.8 568.3 591.3 608.7 627.9 652.4 673.9 690.9 698.1 699.2 681.8 665.4 639.9 624 586.4 549.4 525.1 524.5 536.4 548.6 500 427.6 357 313 285.6 266.2 248.3 240 237 234.8 236.1 238.1 235.9 235.7 238.3 240.5 242.1 244.6 242.3 244.9 234.6 232.7 236.1 245.4 244.5 249.2 257.6 269.5 280 293.3 308.3 321.2 330.1 343.9 354.8 366.9 381 395.9 412.5 422.3 433.4 453.3 469.1 483.7 500.4 517.2 530.6 543.4 556.2 566.8 576.9 582.5 588.1 593.7 596 603.4 608.1 614.5 619.6 621.8 617.7 616 602.2 581 525.1 490.3 449.8 398.8 333.6 293.5 257.5 230.7 216.6 216.8 216.7 220 227.3 235.6 249.4 268.2 291.5 316.8 339.5 359.2 386.2 415.1 447.4 468 488 503.8 512.2 517.9 518.4 516.6 517.6 520.1 521.2 527.5 528.4 530.6 539.3 544.4 550.3 557.6 569 575.9 581.9 588.6 594.7 598.3 599 590 587
322.8 335.4 350.1 360.1 364.8 364.3 365 368.6 362 361.6 361.1 362.4 362.7 362.1 358.2 356.1 346.9 335.7 323.6 310.1 303.8 301.8 308.1 314.3 319.6 323.8 331.9 338.4 345.4 349.7 347.1 328.9 298.8 282.2 255.5 239.6 232 228.9 241.7 260.4 276.4 289 303.3 310.1 318.2 326.9 336.6 343 317.9 293.7 265.4 240.1 227.3 227.7 236.4 251.7 269.9 292 317.1 345.9 380.2 415.7 457 496.6 532.6 556.9 572.3 584.6 595.4 606.2 619.6 635.5 657 677 692.9 699.3 697.5 693.7 684.1 666.7 657.6 620.4 598.4 564.2 581.5 583 566.3 524.6 425.2 362.3 324.5 291.8 270.5 252.4 240.9 236.5 234.2 233.4 232.9 233.1 232.8 234.7 237.5 237.2 235.5 231 232.7 226.2 225 231 235.2 233.6 240.6 250.8 264.2 275 289.1 302.8 316.3 328.6 339.2 351.7 361.9 374.8 389.4 399.1 416.8 433.7 446.1 461.8 471.4 486.3 498.8 512.5 525.5 539.1 551 562.7 568.9 575.8 581.3 589.8 599.4 608 613.1 615.3 620.1 615.7 598.2 593.2 569.8 528.1 494.9 452 411.7 341.5 299.5 263.9 236 219.4 215.2 215.9 215.9 221.9 229 240.8 262.9 284.3 305.8 333 350 373.6 393.2 427.1 457.7 484.2 496.8 503.1 509.7 508.1 509.7 513.6 512.2 514.5 515.4 515.9 524.8 526.5 532.3 541.2 546 554.6 563.6 566.4 566.4 571.1 567.8 569.1 564.8 566.7
317.1 331.8 345.4 354.7 359.5 360.9 362.2 364.6 359.9 356 356.5 356.4 355.6 356 351.4 348.2 340.8 332 318 310.3 302.2 300.3 303.3 310.7 312.7 321.7 327.7 334.6 338.4 337.4 334.3 310.1 283.1 265.8 252.4 238 229.1 229.4 247.7 269.2 281.5 295.3 306.2 316.9 324.6 332.7 337.1 339.4 315.2 289.1 259.1 235.8 225.8 225.4 235.5 249.8 269.6 294.2 322 351 387.7 422.2 464.6 504.1 538.9 564.5 585.4 603.4 616.4 626.6 640.5 652.8 670.6 684.6 695.6 701 700.3 693.5 686.7 678.5 664.2 647.5 617.5 611.5 623.9 615.2 589.5 541 471.4 371.6 333.9 299.9 276.5 256.8 245.3 237.3 235.1 231.2 231.4 231.6 231.6 232.6 233.3 231.1 229.4 225.8 225.1 222.8 223.2 225.9 228 229 236.7 244.9 258.9 271.5 282.3 297.1 311.2 322.7 335.1 346.6 356.9 366.2 381.8 397.2 410.4 422.2 432.6 444.7 455.6 468.5 483.9 495 508 520.3 535 545.1 553.4 562.2 573.5 586.7 594.7 599.7 603.7 608.8 610 609.6 590.4 567.2 559.8 522.7 483.4 446.6 396.1 347.5 297.6 261.2 237.4 217.7 215.3 215 215.1 217.8 222.8 237.2 255.5 273.4 292.9 309.9 334.1 372.9 403.1 437.6 465.3 478.1 486.8 491.3 493.5 494.1 501.8 505.5 503.5 500.9 498.6 498.7 507.3 514.4 524.8 532.4 536.7 540.2 552.4 548.7 550.4 553.5 552 551.9 550.3 549.6
313.9 323.4 339.7 350.9 355.6 357.7 358.7 360.2 357.3 352.6 354.7 355 351.7 345.5 343.5 339.5 332.2 328.8 315.7 309.5 306.5 300.9 300.7 302.7 304.2 314.4 320.6 330.7 334.5 337.9 329.7 311 275.8 259.9 245.4 231.3 226.6 232.3 250 271.1 286.6 299.5 310.8 321 332 339.4 337.9 332.2 311 280.5 253.6 234.1 223.5 224.8 233.6 251 269.7 293.5 323.7 354.2 387.5 429.7 471.5 506.3 542.7 573.7 594.9 612.3 626.7 638.8 651.3 665.4 678 691.1 700.4 704.1 701.2 696.2 685.7 673.5 660.3 647.4 637.9 637 627.5 617.7 583.5 534.4 481.6 392.6 348.7 305.4 281.2 266.2 252.2 241 232.8 231.7 229.7 229.3 230.9 231.4 230 227.3 225.1 222.9 223 222.7 222.1 221.9 226.3 227.3 232.2 238.9 248.4 256.9 272.1 292.4 305.5 315.5 334.7 345.2 353.1 364.5 376.5 390.4 404.9 415.1 424.8 435.5 446.7 456.9 467.7 480.1 490.6 502.6 514.8 526.8 537.9 552.4 565.8 578.4 588.8 595.8 599.2 601.7 600.9 581.2 557.8 538 525.5 509.6 469.4 427.1 388.7 340.4 297.8 264.9 237.2 215 214.5 213.5 214.3 216.4 222.9 233 248.4 267.1 283.2 306.3 330.4 364.8 405 441.4 457.4 473.3 479.4 485 487.4 490.8 497.2 497.8 495.4 490.2 485.9 490.2 500.6 505.2 513.9 515.3 518.4 531.1 535.3 536.8 542.3 541.1 542.2 543 541.9 542.8
309.4 321.6 331 341.6 349.2 352.5 354.2 353.8 352.1 348.3 349.5 351 346.6 343.9 338.8 337.6 333.9 329.4 318.6 310.2 303.4 298.6 298.5 299.1 300.8 310.9 318.3 322.3 327.5 330.9 313.2 296.7 266.1 256.8 242.6 228.2 222.7 235.6 255 274.5 288.2 299.9 313.3 325.1 336.2 342.1 340.3 319.9 297.3 275.9 251.7 230.4 221.9 225.7 237.5 251.3 271.2 296.5 326.2 357.2 394.4 432.6 467.7 504.2 545.2 574.2 602 619.8 632.8 642.9 655.8 669 682 695.2 702.9 705.3 702 694.7 683.8 671.7 656.1 643.2 639 630.7 619.9 602.1 564.4 518.8 471.1 410.8 351.7 312.5 289.9 270.7 258.6 245.3 236.2 232.6 229.6 229.5 227.6 228.3 226.9 225.1 224 223.4 222.7 222.1 221.3 221.7 224.5 223.8 226.6 231 239.8 251.4 265.5 285.5 308.4 319.9 331.9 341.8 346.9 359.4 370.9 386.8 402.1 410.6 421.9 428.6 438.8 449.1 459.1 470.2 480.7 489.5 500.2 512.1 527.6 543.5 558.1 572 581 589.2 594.1 598.1 591.5 571.6 530.6 502 491.2 478.4 440.9 396 360.7 323.9 288.4 261.7 238.7 214.3 213.5 213.3 211.9 215.4 220.2 228.6 244.4 261.7 278.8 298.4 325.5 356 395.1 429.3 451.7 467.1 474.1 477 487.3 490.5 496 491.2 484.5 476 468.6 467 473.9 476.2 484.8 489.6 494.7 506.5 523.9 524.7 522.5 523.3 526.4 530.1 534.6 536.4
307.3 319.5 330.2 339 345.2 348.4 349.2 348.8 346.8 344.4 345.2 346.1 343.5 339.8 338.3 335.3 333.6 329.5 322.1 314.2 305.8 299.4 295.5 298.7 299 306 315 320.7 322.5 320.4 305.1 279 250.8 243.6 238.4 229 225.8 238.2 259.8 276.8 289.3 301.9 313 327.6 341 347.8 346 317.8 294.1 272.9 246.6 225.2 221.1 226.2 237.4 255.1 276 302.2 330.1 359.2 396.9 434.4 470.6 506.7 544.8 579.2 598.8 616.3 629.4 640.2 653.7 669.2 682.9 694.9 703.2 703.4 699.8 693.4 680.8 666 649.4 634.5 631.9 615.6 604 574.9 548.2 502.2 454 412.7 359.1 316.3 293.3 276.1 265.3 255.8 243.7 235.2 233 232.1 229.9 228.1 226.1 226.5 225.1 223.2 220.9 221.3 220.8 221.6 222.8 220.8 222.6 225.2 235.4 246.4 262.9 278.7 296.6 311.2 326.6 336.3 343.3 352.9 367.6 383.5 397.4 400.6 407.1 416.6 430.2 441.1 452.4 463 471.1 479.1 490.9 505.7 521.3 538.2 554.3 568.1 577.4 582.7 584.1 580.2 562.7 535.5 512.3 476.4 460.9 440.4 424 389.5 348.4 313.2 284.8 266 239.6 218 214.7 210.3 210.6 211 216.7 227 245.7 260.1 277.7 294.3 317.3 345 380 405.6 439.7 461.3 471.6 481.5 487.1 490.8 492.9 487.9 477.6 467 456.1 451.1 452 451.5 455.4 459.6 468.2 485 497.1 508.1 508.9 514.2 520 521.8 525.2 528.7
303.7 316 325.7 334.1 340.3 342.3 342.3 342.1 341.3 340 341.4 342.1 340.6 339 338.1 335.4 332.8 328.5 321.3 315.7 306.3 301.6 294.5 295.4 294.8 298.8 309.9 313.9 323.2 310.9 302.7 265.6 243 237.5 239.8 225 225.1 243.7 266.3 280.1 292.5 302.3 316 332.1 347.2 353.1 342.5 318.1 292.2 269 242.2 224.3 219.4 226.1 238.3 255.2 278.9 305.6 331.2 362.4 396.6 435.7 472.8 508.8 548.7 581.3 598.7 611.3 622.8 636.5 651.4 667.8 680.2 693.4 701.7 698.8 695 685.7 673.7 656.8 641.1 620.3 617 601.2 579.3 560.7 525.3 486.6 430.3 399.6 355.4 320.7 302 277.7 272.1 261.4 250.1 237.6 235.5 234 232.3 231.1 234.1 232.5 227.7 224 223.5 221.8 220.7 220.3 220.1 220.5 220.2 223.4 227.4 240.2 253.7 272 287.5 305.5 319.9 330.4 336.8 343.4 357.6 368.1 378.3 387.7 395 403.8 419.1 425.3 441.4 450.7 464.4 479.7 493.6 507.3 524 539.6 551.6 565.3 572.6 577.6 579.5 576.2 541.4 505 479.4 456.5 441 422.1 403 385.8 345 311.5 287.5 265.9 246.7 225.4 219.5 213.1 209.2 209.3 211.8 223.5 241.8 254.6 270.5 286.7 308.6 332 360.4 400.2 441.7 462.3 472.4 481.1 486.4 492.1 491.3 479.7 466.8 455.4 444.8 439.3 437.2 436.9 434.8 439.3 454.2 467.7 480 491.6 500.9 505.5 508.8 515.7 520 520.9
300.1 312.3 321.3 329.2 334 336 335.3 336.1 336.9 336.8 337.9 339.5 339.1 337.8 335.9 332.9 331.7 327.7 323.5 315.1 308.2 305.2 296.8 293.2 292.4 291.9 296.4 303.5 311.9 297.3 283.8 255 238.6 236 227.9 219.8 223.9 246.7 268.4 281.4 295 307.2 322.9 341.3 354.7 354.7 338.8 314.2 289.4 264.2 239.7 223 217.7 227.6 239.7 259.8 282.6 308.2 333.4 362.3 395.4 437.9 473.3 506.6 549.4 573.4 587.9 598.5 614.2 630 646.5 663.7 676.8 689.2 694.2 692.8 686.6 675.7 663.9 640.4 619.4 600.6 590.8 578.1 561.6 540.6 503.4 463.6 412.4 381.6 348.1 318.1 301.7 282.2 276.8 265.3 254.5 246.1 239.7 239.5 241.5 240.4 241.9 239.2 237.1 232.6 228.3 227.4 223 221.1 221.3 218.9 218.3 220.3 221.1 229.4 243.4 264 290.4 304.5 315.9 324.8 328.9 331.5 345.2 359 367.9 378 386.7 394.2 401 413.7 428.7 444.4 460.4 476.2 492.6 507.6 523 537.6 547.3 561 568.3 573.7 576.9 575.9 560.8 510.9 475.2 447.3 430.4 407.4 389.9 370.8 347.7 318.5 292.1 268.4 246.5 235.5 223.4 214.2 208.7 207.1 212.9 220.8 233.4 242.5 263.6 279.7 303.8 337 373.9 413.5 440.5 458.3 471.5 481.7 488.6 491.3 486.3 473.2 460.2 448.4 437.3 428.6 427.7 426 427.2 433.9 446.1 460.5 471.7 479.8 495.9 505 510.3 513.5 520.2 527.5
298.4 307.7 315.7 321.8 327.2 328.4 329.2 331.9 333.9 336.1 337.5 339 339.9 338.7 336.6 332.3 330.9 327.8 322.3 314.4 309.8 303.8 298.2 293.3 286.8 286.6 287.5 291.7 292.2 283.7 262.7 249.5 240 229.8 222.8 208.4 228.2 250.9 268.2 282.2 296.5 311.5 332.2 353.2 361.4 358 339.8 312.9 285.4 262.2 238.5 222.3 218 228.8 243.6 262.3 284.4 308 335.1 363.6 397.6 438 471.3 505.7 538.9 559.2 571.4 588.6 604.9 621.9 639.7 657.9 672.1 681.9 685.7 683.1 670.9 657.4 635.8 617.2 593.2 578.7 567.5 557.5 540.5 511.6 485.3 431 396.2 359.6 332.5 314.3 296.5 283.9 277 270.6 262.1 250.3 253.1 253.9 255.9 256.2 251.3 248.1 242.5 238.6 233.2 229.4 225.4 222.4 220.2 218.6 216.2 217.7 218.4 222.5 235.3 263.3 282.7 296.9 305 313 322.3 326.6 335.4 348.1 362.7 370.8 376.5 381.7 392.9 404.1 421.6 440.4 457.8 474.4 490.1 507.6 521.9 533.9 547.2 558.2 566.6 572.4 575.3 577.3 552.8 511.2 475.6 444.3 427.7 413.2 385.9 362.7 341.4 317.4 294.4 274.1 255.1 237.9 223.8 213.2 208.6 207.7 211.3 220.9 230.1 243.3 257.8 276.8 303.8 336.7 372.8 416.7 441.8 457.2 473.8 483.4 489.9 489.5 483.5 467.1 452.5 437.7 427.2 419.1 416.8 417.4 420.3 427.7 439.9 455 472.6 486.1 496.5 505.2 513.2 519.6 523.7 529
297.8 305.2 311.6 316 318.3 320.8 324 330.7 334.6 337.2 339.1 341.5 342.8 341.4 339.4 334.3 330.8 326.1 323.1 316.1 310.1 303.8 299.1 294.7 290.1 287.8 281.9 284 276.6 272.3 258.7 243.3 232 221.9 211.9 206.9 225.8 250.3 268.7 284.4 298.2 312.8 340.9 355.5 362.7 357.6 344.5 313 286.5 261.5 238.4 220.5 217.6 229 245.5 266.3 288.6 313.6 340.7 369.5 406.7 441.2 473.7 505.1 531.8 545.8 560.4 575.9 596 615.8 635.2 651.6 665.6 673.7 678.6 669.9 649.9 631.6 604.4 590.3 575 562.4 554.7 541.6 515.4 490.6 451.9 419.9 382.4 348.2 324.6 309.9 296.8 287.8 283.3 278.7 266.9 259.8 267.3 269.5 265.4 264.4 266.5 257.2 249.1 243 238.7 232.2 227.1 224.9 220.7 217.7 217.6 217.4 216.8 216.9 220.8 235.6 256.7 273.4 277.7 297 311 317.5 318.8 334.8 355.9 366.9 364.9 375 387.1 398.8 415.8 432.5 450.7 469.2 488.9 505.8 519.8 532.9 544.8 557.9 566.6 571.9 576 572.4 550.3 506.8 470.6 442.2 418.5 403.2 385.2 365.7 344.7 325.2 303.4 284.4 267.9 247.1 224.4 212.4 208.8 206.2 210.8 217.4 225.1 236.3 254.8 276.8 304.3 338.6 376.1 417 441 459.6 474.4 483.7 490 488.6 477.3 455.3 441.2 426.5 418.3 411.1 406.8 411.1 413.4 423 435.1 452.2 470.1 483.5 495.2 505.4 516.8 522.6 526.4 529.6
295.4 301.6 304.9 308.4 316.8 322.8 327.2 331.9 336.2 339.6 342.8 345.1 346.4 345.3 342.5 338.2 333 327.3 323.1 317.7 313.9 309.7 303 298.8 290.6 284 276.7 274.8 266.1 257.2 254.8 245.8 224.4 216.5 205.4 207.9 226.8 251.3 269.1 281.6 295.1 309.3 327.3 346.7 361 360.8 342.6 314.2 286.1 259.8 237.6 218.9 216.1 227.5 243.8 263.9 288.4 316.2 340.5 366.2 401.9 434.8 467.2 497.7 517.3 533.5 546.7 570.2 593.4 614.7 632.5 647.3 660.7 668.3 669.5 654.5 631.3 604.4 584.9 571.7 559.4 551 541.2 528.8 505.2 464.9 425.1 398.8 370.4 347.4 327.7 310.6 299 290.8 285.1 282.9 280.1 273.8 278.9 278.8 275.9 272.5 270 266.5 258.8 251 245.6 240.1 233.7 229.1 224.4 218 217 216.8 216.5 216.2 215.9 222.4 240 251.1 269.9 283.4 302 305.4 308.6 320.9 342.8 345.4 352.9 370.3 384.2 398 413.1 432.8 449.8 467.9 488.7 502.6 517.8 529.2 543.1 556.7 565.4 572.7 576.8 575 548.3 512.8 474.8 441.5 419.3 401.1 384.4 369.1 356.1 332.2 310 294.4 276.2 257 230.7 215.5 207.2 206.1 208.6 213.9 223.4 233.7 253.3 276.6 303.2 338.3 375 411.6 438.4 459 474.4 486.1 492.5 485.5 469.6 446.8 433.2 419.8 409.2 403.3 398.3 401.6 407.8 416.1 431.6 448.2 464.9 479.6 490.8 500.9 512.2 519.3 524.6 531.3
285.2 293.8 304.3 311.2 318.2 323.6 329.9 334.4 338.2 342.7 346.5 349 349.5 348.5 345.8 341.5 334.7 331.1 323.6 318.7 314.8 306.4 302.4 302.4 294.4 285.4 277.8 260.2 258.9 254.7 249.7 240.6 213.3 207.4 196.1 209.7 230.2 252.9 261.8 275.9 288.4 305.3 323.6 345.3 359.4 358.1 342.8 314.3 283.2 260.5 235.3 216.9 214.9 227.5 244 267 293.7 318.9 344.1 371.3 397.3 433.1 468.8 500.5 520.4 544.5 564.3 583.4 598.6 617.4 632.8 645.5 659.6 665.9 657.8 636.2 615.1 589.8 574 559.8 548.1 536.2 527.1 517.8 502.5 484.4 452.3 405 376.1 340.9 323.2 308.2 298.1 291.9 291.5 288.4 284.5 285.6 285.9 285.3 281.8 282 279 274.8 266.2 260.1 253.8 250.3 245.1 237.6 228.4 221.2 216.5 217.6 217 215.9 216.3 215.8 232.3 239.9 247.9 258.5 271.7 288.5 294.7 304.5 323.2 321.4 345.6 363.1 379.8 396.8 414.2 429.9 447.7 466.6 482.9 503 518.4 527.4 541.8 554.6 564.5 572 578.2 578.7 551.4 511.5 476.1 450.6 432.2 415.9 393.8 370.4 350.9 339.9 318.3 300.4 290 269.5 243.3 225.5 210.3 205.4 205.7 211.6 218.8 231.3 249.3 271.5 302 334.4 373.5 406.1 433.4 455.6 472.7 488 488.3 479.6 459.1 442 426.2 411.3 401.9 393.4 388.5 392.1 399.1 408.8 427 443 459.2 472.5 482.8 493.9 505.4 514.2 520.7 527.6
291.4 299.1 306.3 312.2 319.5 326.3 332.1 337.2 341.4 346.2 350 352 352.7 351.5 349 344.6 337 331.1 325.2 318.6 312.4 309.5 308 299.6 290.4 289.4 279.6 267.8 252.7 238.8 236.9 224.3 210.6 203 193.8 210.2 227.7 249.2 258.9 267.9 280.9 294.1 313.2 333.8 341.9 348.4 338.3 314 281 255.8 230.4 213.6 213.4 223.1 243 267.5 299.3 320.5 346.2 373.5 408 445.5 477.7 504.5 536.6 559.8 580.8 601.9 617.6 630.9 644.7 654.6 662.1 665.2 645.2 621.7 600.5 580.3 565.5 552.4 537.6 523.3 514.6 503 491.9 474 442.5 403.8 367.5 338.2 318.6 307.5 301.5 301.7 296.5 292.3 291.8 294.1 298.5 300.9 293 295.9 290.3 281.9 273.9 268.2 265.3 260.9 251.7 243.1 238.6 229 217.5 216.4 216.5 216 215.6 215.2 218.6 223.2 225.6 234.4 249.2 272.2 275.6 284.5 296.8 318.4 330.7 356.8 374.9 393.1 411.8 429.8 450.6 464.1 477.9 496.7 508.9 521.7 538.4 552.7 565.4 573.5 580.4 582.4 558.6 533.6 492.7 473.8 453.2 419.9 394.1 369 346.5 334.8 324 302.4 289.6 268.8 246.6 226.6 210.6 206.2 203.7 208.4 213.7 226.8 243.5 269.1 295.6 330.4 374.5 406.7 429.6 454.7 474.4 479 472.9 468 451.4 431.8 416.1 402.2 392.1 382.7 379.4 384.1 391.9 407.1 421.8 440.6 455.7 466 472.6 483.5 496.9 506.8 513.9 517.2
290 298.6 306.8 314.8 322.3 327.8 334.8 340.3 345.4 350.7 353.5 355 356.4 355.8 353 348.2 340.4 333.8 327.5 321.1 317.2 314.5 309.9 305 297.6 294.4 284.6 278.7 268.2 257.3 230.9 216.6 205.1 196.5 192.3 204 221.8 236.4 251.6 253.4 264.1 276.1 297.1 316.3 334.4 347.2 336.7 313.8 278.9 254.7 228 209.5 209.6 226.9 243.9 262 288.1 319.6 346.4 374.5 408.4 440.9 476.4 515.1 544.9 573.7 593.9 614.7 632 645.2 654 658.4 661 649.6 629.3 608.8 588.5 573.1 556.2 546.2 530.6 513.6 498.8 490.3 475.1 456.3 428.7 391.7 358.9 334.6 320.6 310.8 310 304 298.7 299.1 301.7 306 311.8 309.2 301.8 299.4 293.5 290.2 281.7 275 268.9 266.1 259.2 248.7 243.7 236.1 222 215.7 216 215.5 214.8 214.8 214.5 215.5 224.1 222.4 229.5 248.3 259 258.3 283.5 296 317.9 349.3 370.8 388.4 408.9 430.7 446 460.5 473.5 485.5 503 515 532.2 547.3 563.1 574.9 581.3 578.5 564 542.3 508.7 481.1 463.6 436.5 397.3 376.3 354.9 341.4 324.6 314.2 286.3 260.1 244.1 226.9 212.9 204.3 204.2 204 212.8 226.4 242.2 264 291.7 333.8 370 400.5 429.2 454.1 479.4 475.1 468.4 456.4 444.1 425.4 407.9 391.5 380.4 373.8 373.8 378.3 389.3 403.4 421.8 435.4 450.9 455.2 464.4 474.7 487.3 500.3 505.6 505.7
295.1 301.5 310.6 318.6 325.6 333.3 340.5 346.2 353.1 357.8 360.6 362.1 364.4 364.5 357.4 351.7 343.7 335.6 330.3 324.3 320.8 317.6 312.6 307.3 301.6 296.8 288.9 283.9 276.2 255.4 245.2 225.5 206.9 191.8 183.2 196.1 204.5 218.6 226.9 239.2 249.7 265.8 282 301.7 326.2 340.8 337.1 307.1 277.5 250 226.9 212 207 225.3 245.2 249.6 287.8 321.4 348.9 377 410 446.1 483.5 523 552.2 579.5 601.7 622.3 638.7 649.1 658.1 660.3 649.7 631.6 613.6 598 579.1 563.7 550 533.9 519.2 503.4 485.7 475.4 458.9 441.7 411.3 383.4 351.8 330.5 322.1 316.8 314.7 309.9 306.4 312.3 317.8 323 322.2 314.9 307.6 306.5 304.2 302.1 295.9 277.9 273.5 269.6 263.2 249.9 239.6 227 219.3 215.6 215.4 214.9 214.5 214.3 214.3 214.5 213.9 215.2 220.9 229.4 241.3 252.9 267.6 276.8 301 330 358.4 384.9 407.1 429 441.3 454.2 470.6 481.5 495.2 511.8 527.3 542.2 557.1 571.2 581.1 578.9 559.8 532.3 503.1 472.3 449.2 424.1 396.7 375.4 359.2 349.3 343.1 324.4 299.6 271.6 252.5 232.9 214.1 203.8 203.9 203.1 209 218.7 238.2 262.9 288 320.1 353.5 389.3 425.4 455.9 463.2 460.1 455.4 447.5 432.5 413.5 400 382.8 366.9 360.6 365.1 368.4 381.6 398.5 416.9 429.7 438.7 447.7 458.5 469.8 483 493.9 493.8 486.2
299.7 307.8 316 323.8 330.9 338.6 347.3 355 361.9 367.2 369.3 372.4 374.9 373.6 364.3 356 347.6 338.7 333.6 327.9 323.4 318.4 314.6 311.3 305 300.5 294.4 284.8 279.9 269.4 256.1 234.6 215.1 193.2 179.6 188.7 195.2 202.5 209.3 222.9 235.1 250.1 270 286.6 313 331.1 328.7 303.4 273.7 243.9 220.3 206.4 206 224.2 240.7 266 298.3 324.4 351.2 382.9 424.6 454.3 488.4 524.6 557.2 581 603.6 623.6 638.6 650.3 654.8 647.1 634.1 620.1 605.3 588.1 573 558.8 540.6 523.5 507.2 492 474.9 462.6 444.5 422.3 402.3 373.5 348 334.5 328.2 325.6 324 318.1 315.4 323.5 330.6 331.7 329.7 319 314.1 310 309.9 312.1 298.2 285 276.6 270.8 260.5 255.1 251.7 239.2 224.5 216.2 215.5 214.6 214.7 214.2 214.1 214.2 214.3 214.5 217.4 222.5 229.9 241.7 254.3 263.9 285.6 320.4 347.8 375.3 396.1 427.6 433 446.4 460.3 476.9 489.7 508.1 522.6 538.7 554.1 571.5 572.2 578.3 561.6 524.8 506 474 442 419.3 389.2 376.1 366.2 359.5 352.2 332.6 310 286 264.3 242 222.8 207.8 202.7 202.8 206.7 218.5 235.3 257.8 285.2 316.8 347.3 390.4 413.8 440.9 452.2 449 446.4 437.7 423.3 407.1 391.2 368.9 354.6 341.3 352.7 361.8 376.8 392.7 411.3 424.7 433.1 442.4 452.2 466 470.4 475.2 472.7 468.8
304.9 313.9 323 330.3 338.8 346.2 355 363 368.8 372.9 380.9 383.3 385.4 386.9 375.2 361.2 350.4 341.8 336.3 331.2 325.2 322 316.8 313.6 307.3 303.2 295.9 291.1 287.2 276.6 262.5 243.8 218.6 197.1 170.1 182.3 187.9 190.2 198.6 212.3 225.6 243 254.9 276.1 292.9 318.7 316 293.8 267.1 238.8 213.6 196.4 207 222.5 244.3 271 300.6 328.7 355.5 396.3 429.2 457.4 498.6 530.6 557.1 579.6 601.7 618.7 636.6 639.6 637 632.7 621.7 611.4 596.4 581.1 567.5 554.4 536.3 521 501.7 483.2 459 444 425.9 408.6 388.9 366.9 348.8 342.6 337.2 332.4 326 329.7 329 333.7 341.2 342.8 339.6 328.4 322.1 314.5 316.1 311.9 300.9 292 282.1 275.6 267.1 259.1 250.5 241.3 229.7 223.4 223.4 221.1 214.2 214.2 213.3 213.4 213.4 214.5 217.3 219.1 226.1 233.6 244 255.2 273.9 302.1 331.3 362.2 387.2 409.2 418.8 438.2 454 469.4 489.3 506.7 522.3 538.2 550.6 564.5 565.1 572.3 559.9 526.9 496.7 479.3 446.7 416 396.5 377.5 376.1 368.3 357.4 342.6 321.4 296.9 272.7 251.6 229.1 215.4 206.3 202.3 203 213.2 231.5 255.8 282.6 319.8 355.5 388.4 412.7 422.3 438.8 438.5 437.9 431.3 414.8 388.4 371 354.6 343.7 333.8 344.5 355.1 371.8 389.3 407.3 419 428.4 436.6 442.9 450.2 460.1 458.6 456.8 461.1
310.9 321.9 331.1 340.4 346.9 355.2 363.2 370.5 376.2 383 388.4 394.9 398.1 395.3 385.1 367 357.6 344.9 339.8 334.8 329.8 325.3 321.4 317.7 312 306.5 303.1 298 292.2 286.2 273 251.3 226.1 206.3 184.4 161.8 174.9 180.3 188.1 199.2 213.9 227.6 242.1 264.4 286.6 307 303.8 281.5 260.2 232.6 207.9 195.8 208 223.5 251.5 279.1 302.6 331.2 362.4 399.6 433.5 467.8 504.2 530.8 560.4 578.6 597 608.7 615 622.7 622.8 616.5 611.3 601.6 588.4 573.3 561.6 549.2 532.9 517.4 500.3 480.6 465.8 449.1 421.1 395.4 380.8 367.6 356.6 347.4 343.9 335.9 329.9 333.1 341.8 343.5 347.9 354.3 349 337.3 331.3 320.7 315.4 307.4 302.8 299.1 287.1 286.5 275.8 264.7 250.4 238.9 228.3 229.4 223.1 223.3 213.6 214 213.4 213.5 213.2 214.3 215.9 216.2 219.5 224.5 231.6 246.6 270.5 293.4 320.6 347.6 371.2 390.2 408.8 429.2 448 465.4 481.4 505.6 524 533.7 545.8 560.4 558.3 546.9 547.4 516.9 488.9 464.3 438 415.6 394.7 391.1 387.3 378 366.4 346.1 332.5 305.7 282.8 261.8 244.7 226.6 207.9 201.3 200.6 213.8 229.9 252.3 279.8 310 354 383 402 413.5 420.5 426.3 426 415.9 390.5 373.1 360.3 344.8 332.7 327.5 337.5 352.4 369.9 386.9 402.7 412.9 422.1 425.7 430.6 436.5 440.9 444.9 449.3 453.3
317.5 328.2 338.5 347.2 355 365 373.4 378 384.9 390.2 396.9 403.9 406.9 398.6 392.1 370.9 357.2 350.7 342.9 338 333.1 329.6 325.5 321.3 316.9 311.2 309.3 303.1 301.7 291 277.6 256 236.5 218.3 200.3 184 154.9 169.7 172.2 184.1 203 207.6 219.8 241.9 260.2 275.9 283.5 266.4 249.2 224.5 201.3 195.4 209 229.5 257.2 281.3 308.1 337.2 373 405.2 438.9 470.4 497.6 529.1 552.3 571.1 584.7 592.7 601.7 609.3 607.8 604.9 599.6 591.9 581.5 569 558.6 544.6 531.3 514.2 499.5 478.3 460.6 447.6 433.5 406.4 385.2 369.7 362.1 352.1 343.4 341.3 341.2 346.2 349.8 352.8 355.7 353.2 345.4 341.2 336.4 329.6 321.9 315.1 304.3 295.7 291.3 289.8 281.6 272 254.6 243.7 225.4 223.4 222.9 217.6 212.9 213.4 213.1 212.9 212.9 213.4 214 214.2 214.3 216.9 228.3 240.9 264.1 289.3 311.6 334.2 356.2 377.2 402 422.1 438 461 477.6 503.4 519.3 529.7 538.9 549.2 548.3 534.2 531.3 503.2 482.8 464.2 433.6 418.1 401.2 406.3 389.5 381 367.8 347.5 330.6 312.4 291.2 269 249.5 230.4 210.9 200.4 206.9 214 228.6 247.7 276.8 301.9 340.2 354.8 384.8 398.1 408.2 416.6 414.9 400 374 357.1 346 331.9 321.8 320.9 332.5 348.6 366.1 381.8 396.4 407.3 411.9 416.5 421.6 426.5 431.5 436.3 440.7 438.7
325.8 335.6 344.7 354.4 365.2 372.3 383.3 388.1 392 396.3 401.3 407.6 409.2 398.8 390.5 373.5 363.6 355 346.8 341.7 337.8 333.9 329.6 325.2 321.6 318.8 315.1 311.6 308.9 297.7 283.5 258.4 240.7 230.9 212.5 185.2 158 161.5 164.2 171.9 182 190.9 212.2 225.5 239.2 254.5 267 254.8 238.9 214.1 195.2 194.1 209.8 231.3 256.4 286.6 314 346.6 379.2 408.8 438.5 470.4 499.4 525.2 548.2 565.8 577.5 583 588.2 591.3 596.3 592.5 588.1 581.4 573.4 564.4 554.5 542.4 529.2 511 498.4 479.5 454.9 440.7 430 406.2 385.8 371.6 359.3 349.8 349.4 351 356 358.1 357.5 355.9 353.7 349.2 344.9 343 340.1 334.9 329 318.1 309.4 304 301.4 298.3 285.8 277.8 269.9 259.6 240.7 228.4 224.5 214 212.9 212.6 212.8 212.6 211.4 212.4 212.1 212.7 212.8 215 227.2 238.2 258.3 282.4 298.7 323.7 350.7 369.9 390.2 410.1 435.5 457.6 471.7 495 508.1 526.8 531.3 537.3 538.7 526.4 517 496 481.8 455.3 439.9 418.4 410.2 411.3 392.9 381 369.6 358.8 334.3 320.8 299.1 279.6 256.7 234.9 215.6 201.3 201.5 210.7 223.1 245.8 274.8 298.9 321.2 342.5 369.6 387.3 404.5 405.9 398.1 384 364.3 346.5 335.8 322.4 315.4 313.9 328.5 344.1 361 375.9 388.5 396.9 403.2 408.9 412.6 417.5 422.4 419.6 431.5 452.8
336.4 343.5 352.8 363.2 375 382.9 389.3 399.4 398.9 404 406.5 408.2 407.3 398.9 389.3 376.3 368.1 359.2 349.6 348 344.2 339.5 334.5 330 325.8 325.3 320.2 319.9 316.7 305.5 286.1 261.2 243.2 238.4 216.3 190 168.4 155.5 158.4 163 178 186 199.6 208.7 222.4 241.8 248.2 237.4 216.4 196.9 186.8 195.1 215.2 239.1 266.6 296.5 325.3 355.4 384.8 414.7 446.8 476 501.4 525 541 555.6 565.7 573.6 575.5 577 582.1 581.1 577.6 572.3 566.9 558.5 550.5 535.6 517.9 505 489.6 473.5 450.1 434.3 418 399.2 383.7 366.7 363 363.4 364.4 365.7 369.2 369.9 364.6 361.9 360.8 356.6 354.8 351.6 346.8 343 332.9 327 317.3 310.3 305.6 300.1 297.8 292.6 277.1 263 245.7 230.8 218.5 212.9 212.3 212.2 211.9 212.1 210.5 212.2 211.7 211.6 212 214.9 221.6 234.4 246.6 263.9 285.1 316.7 339.6 364.1 380.9 402.2 422.5 445.9 462.9 476.6 500.6 514.8 522.9 532.4 532.5 520.4 502.2 489.2 473.6 456.4 439.6 420.4 413 403.3 393.5 386 377.5 362.2 344.7 326.1 308.2 289.3 264.9 241.3 217.6 206.2 196.9 209.5 219.7 242.7 269.2 290.3 305.5 329.9 356.9 381.8 390.7 389 376.3 369.3 357.8 337.1 325.2 309.7 300.5 311 325.7 341.3 354.3 367.1 380.4 388 394.7 398.1 402.8 407.7 402.9 425.8 443.4 462
344.6 353.9 362.1 373.5 381 390.3 397.6 406.7 409.4 411.3 411.7 410.3 410.7 406.8 391.6 383.8 372.5 361 358.4 353.8 348.6 344.7 343.7 335.5 334 330.5 327.9 326.9 322.6 314.4 289.1 259.5 241.2 229.1 206.9 192 171.4 153.3 151.8 158.2 168.8 182.9 191.1 199.9 219.1 232.1 223.5 219.6 206 185.3 183.2 198.5 222.2 248.5 280.5 307.9 338.7 369.8 396.5 425.4 453.8 480.5 505.9 521.9 533.8 548.5 549.3 553.7 560.6 562.7 565.6 569.7 567.5 564.6 560.5 554.7 545.9 531.9 516 501.5 485 467.5 451.8 435.5 417.3 399 387.1 388.6 379.8 374.9 374 376.7 377.8 378.1 375.5 372.4 369.5 366.4 364.6 359.6 356.1 353.9 343.6 331 325.2 317.7 311.9 308 315.4 311.1 295.4 275.8 253.9 239.7 223.8 212.7 211.8 211.8 211.5 211.6 212.6 211.8 211.9 211.1 211.7 215.3 224.7 232.7 240.2 253.6 273.7 301.8 331.1 356 372.1 392.7 412.6 433.7 450.8 471.1 488.5 502.9 513.9 514.8 512.9 504.9 485.9 476.2 467.8 455 437.4 428.4 415.7 402.7 400.4 393 383.1 369.2 352.6 331.3 317.6 303.1 274.8 247.2 223.4 204.7 197.8 206.5 220.6 239.8 262.1 274.9 296.6 318.6 341.5 363.3 374.9 372.6 365 353 341.9 328.5 312.8 298.5 296.3 306.5 320.8 334 344 358.6 372.4 379.6 383.5 387 390 404.9 421.1 438.3 456.7 475.5
353 364.5 375.2 381.2 390 397.7 402.2 410.9 423 421.9 419.4 421 417.5 408.8 395.7 386.1 376.2 372.1 366.2 358.7 351.1 348.1 348.2 343 341.1 336.1 337.9 338.2 330.8 312.9 284.8 260.7 239.1 224.9 206.2 186.3 168.1 154 147.9 151 161.4 172.4 183.3 192.7 205.4 206.7 206 206.8 196.3 178.6 188.1 203.3 231.4 258.5 289.6 320.2 349 378.5 405.9 433.2 461.3 480.1 497 513.2 522.9 528.4 532.7 538.9 546.7 550.3 553.2 557 557.7 558.3 555.7 549.7 540.9 530 515.5 497.2 483.5 469.4 454 437.1 422.1 404.5 402.5 396.8 394.4 390 387.1 387 387.8 386.3 389 382.1 376.3 373.4 371.2 366.1 360 356.2 347.1 343.2 331.2 325.3 319.3 317.9 316.9 310.6 304.2 293.5 268.9 250.7 235.2 218.3 210.8 211.5 211.2 211.7 211.2 211 211.4 211.2 211.2 213.1 223.1 230 234.3 248.2 267.4 291.4 320.4 347.2 368.4 387.8 405.2 424 443.4 469.8 483.8 494.8 501.9 505.1 509 491.6 486.6 478.6 469.1 462.3 449.4 440.8 422.4 411.4 405.9 392.4 388 375.1 352.4 333.3 317.8 289.6 266.6 235.4 219.6 204.9 195.7 204.5 219.1 236.4 255.8 269.3 288.4 308.2 329.7 345.1 357.4 363.3 353.9 342.1 329.8 314.2 299 287.5 287.8 295.4 309.1 320.2 331.9 345.7 357.5 360 362.8 375.7 399.7 416.4 436.2 455.5 472.4 489.5
361.3 373.9 384.2 392.9 397.7 407.1 411.2 416.7 423.8 422.9 423.3 422.7 418.8 414.1 400.8 394.6 386 381.6 376 368.1 360.8 355.3 349.6 350.3 347.6 346.1 346.7 344.8 327.2 308.9 287.4 263.2 237.8 218.9 200.9 179.5 164.4 152.6 143.6 147.1 154.2 166.4 171.4 180.9 186.7 190.3 194.8 196.4 187.9 178.2 192.7 212.9 238.1 265.4 297.4 329 358.2 387.9 413.1 436.4 456.3 470.2 483.9 496.9 502.8 509.1 517.9 526.1 533.2 539.4 545.2 547.7 551.6 553.3 550.9 545.7 536.8 527.3 512.6 495.8 482.9 469.1 458.1 446.6 431.6 424.2 416.8 408.8 405.3 403.1 397 400.8 398.9 396.2 394 384 380.7 379.9 379.8 374.8 368.7 361 351.7 347.6 336.8 331.6 332.6 331 330.9 322.3 310 297 280.7 261.5 249.9 232.2 216.1 211.4 210.7 211.5 211 211.4 211.2 211.2 210.6 212.1 216.3 224.4 234.9 253.5 269 290.9 317.1 338.7 361.1 381 395.2 412.8 433.4 452.3 469.2 481.4 493.5 502.2 500.6 491.9 486.4 480.5 472.2 460.6 464.4 450.8 427.5 413.7 409.6 392.6 384 374.3 352.4 331.8 301.2 271 248.6 227.2 210.7 199.1 194.4 203.7 220.5 234.9 248.3 264.2 281.6 297.9 315.1 326 345.8 351.8 341.9 330.3 317.5 299.9 286.2 275.5 275.6 281.4 294.8 306.9 320.7 328.5 336.7 343.5 368 392 412.2 432.6 451.8 471 487.4 502
371.4 382.2 393.8 401.2 409.7 416 420.1 421.8 429.4 429.5 430.4 424.7 422.6 420.6 415 400.2 395.1 392.9 387.1 378.8 370.7 363.9 357.2 355.9 355 354 354.1 348.2 328.7 306.9 282.3 261.4 232.5 212.1 194.7 177.7 164.7 156.3 147.5 144.6 150 155.6 159.4 166.1 176 178.6 184.4 187.2 180.3 181.2 198.3 220.2 245 275.3 308.5 338.3 363.2 393.9 417 431.2 446.7 458 465.8 476.4 489.8 497.2 506.6 518.1 524.5 531.6 537.1 543.5 547.3 548.1 547.6 542.3 533.8 522.9 510.9 497.6 485.4 471.9 463.9 452.6 441.1 433.2 426.3 419 414.9 410.2 407.8 406.2 404.6 405.6 399.8 387.8 385.1 384.5 386 373.7 369.8 364.6 361.9 353.5 344.6 338.1 342.9 341.6 345.4 336.1 324.4 310.9 291.9 271.4 261.6 246.4 226.9 212.2 211.3 211.1 210.2 211.4 211.2 210.7 210.3 210.8 214.5 224.6 239 253.4 269.4 289.2 312 334.6 353.6 371.9 387.4 397.7 414.7 442.1 455.7 469.3 486.6 489.1 486 489.1 483.9 479.8 469.1 467.4 462.5 452.5 433.7 413.9 401.5 398.7 377.8 366.2 349 327.8 295.3 265.6 239.3 218.9 205.3 194.8 193 199 217 234.6 243.8 257.7 278.3 288.7 300 310.5 329.9 338.5 327.7 317.2 306.9 292.1 275.9 263.1 261.1 270.5 283 291.9 298.3 316.7 336.9 358.4 382.2 405.8 426 444.6 466.3 483.4 500.9 513.1
378.2 390.1 402.1 411.6 419.7 426.1 430.2 430.8 434.1 437.6 438.8 430.7 436 436.2 420.5 408.4 409 407.5 396.6 386.9 377.9 370.9 366 362.8 360.9 362.1 363.9 356.4 332.5 302.7 277.8 255.1 227.9 206.5 192.4 180 170.1 163.8 153.8 142.7 144.7 147.1 150.4 156.1 162.5 169.5 178.1 179.6 175.4 183.6 205.5 231.2 255.8 287.9 316.3 343.9 371.9 399.3 417.9 426.4 440.4 447.2 456.7 465.4 479.7 487.3 497.9 509.3 515.9 524.4 534 539.8 543.7 545.6 544.7 540.2 531.3 520.2 509.2 496.6 485.3 475.2 465.5 454.3 447.1 436.1 432.5 427.2 427.3 420.4 417.4 410.9 411.8 408.6 408.5 398.6 394.4 393.7 394.9 380.7 372.5 369 371.9 361.9 351.5 344.5 345 346.1 347.9 341.8 328.3 316.9 314.8 284.5 271.1 260.1 243.6 220.7 210.9 210.4 210.9 210.2 210.4 211 210.3 210.2 212.7 221.1 234.5 246.3 263 289.8 309.7 323.6 346 362.5 381.1 394.3 405.1 425.6 446.2 455.7 468.2 478.9 482.9 488.7 482.8 483.1 467.3 462.9 456.7 443.3 430.7 412.2 400.5 386.8 373.9 359.4 350.5 335.8 301.3 266.1 241 222.4 207.3 193.1 190.9 197 209 219.8 229.3 245.7 264.7 273.5 282.7 296.8 314.9 322.4 309.1 297.2 292.3 279.4 266.6 250.2 248.4 260 266.2 278.7 305.7 330.1 352.4 373.8 397.4 418.4 436.9 456.8 477.7 496.5 511.1 523.2
382.5 394.1 403.1 414.6 425.1 436.7 441.3 439.1 441.4 444.3 445.2 441.8 437.8 439.3 424.5 416.3 420.5 413.9 403.1 394.8 387.2 379.3 373.5 369.9 367.3 370.2 367.6 354.3 329.1 302 280.8 258.2 230.4 208.1 191.8 183.4 170.2 164.9 152.3 140.9 139.5 141.1 141.9 151.1 154.1 160.9 169.7 172.3 165 192 215.9 245.1 271.6 297.2 323.7 346 371.3 397.9 412.8 421.8 426.1 432.1 445.2 458.7 469.2 480.1 490.8 501.4 509.8 518.5 527.6 535.8 540.8 543.9 542.7 536.1 528.6 518.7 507.7 497.1 487.9 479.7 470.5 459.6 452 444.3 438.6 440.8 433.9 426.8 423.4 419.2 413.8 412.2 413.8 411.9 404.4 406.2 409.2 385.1 378.5 375 370.9 364.9 362.8 353.8 347 352.2 353.6 345.3 327.7 311.5 303.8 284.4 278.3 266.1 257.2 237.5 217.1 210.2 210.3 210.2 210.7 210.8 209.7 209.7 210.4 218.5 231.9 242.8 263.2 290.5 302.5 318.3 337.9 356.6 379.5 390 397.8 411.2 429.8 446.1 460.9 463.4 476.5 480.8 485.1 480.2 474.2 462 454.6 439.2 422.1 409 391.4 377.3 365.7 354 348.1 324.2 295.2 266.9 240.7 219.3 201.1 193.7 192.2 195.7 203.7 211.8 221.9 236.1 249.1 258.5 267.5 278.4 294.2 304.1 289.9 278.9 273.2 265.4 257.1 242.5 237.1 245.3 263.8 285.1 315.3 338.5 362.9 383.7 405 425.3 443.4 464.2 486.6 504.8 520.2 529.4
392.4 398.5 408.4 418.9 430.8 443.1 451.2 450.5 448 448.6 449.9 444.9 442.3 437.4 432.1 428.9 425.9 416.8 409.7 400.5 392.7 387.8 382.1 379.1 375.5 372.1 364.8 348.2 327.1 301.7 279.5 259.1 234.4 208.1 191.8 179.3 166.6 159 144.7 139.1 138.5 138.2 139 146.4 148.3 153.4 164.7 163 178.2 204.6 229.3 255.9 282.4 304.6 331.5 348.6 370.6 393.1 404.5 410.1 412.9 423.4 436.4 448.5 458.7 474 479.5 493.7 504.3 513 523.1 531.9 537.3 541.8 539.7 534.2 525.6 516.9 507.7 499.4 491.9 484 474.3 464.9 459.6 452.7 446.8 447.3 443.9 434.4 431.7 426.4 422 418.7 416.3 415 411.4 409.2 412.2 397.6 387.2 384 373.9 366.6 358.4 354.3 347.6 346.5 357.6 357.1 332.5 310 298.7 283.9 275.2 262.8 254.8 240.7 225.6 209.7 209.9 209.4 210.6 210.2 210.1 209.2 209.7 215.8 232.7 245.2 263 284.8 296.8 317.3 331 351.2 370.8 383.9 390.6 403.2 417.1 431.3 447.3 457.4 468.3 478.8 481.9 478.2 476.7 462.1 450.7 432.1 415.7 394.7 386.6 377.8 363.7 357.2 344 316.8 290.2 264.4 239.4 216.7 201 193.5 190.2 193.6 201.6 203.9 212.1 220.1 234.3 240.5 250.5 268.6 279.5 280.8 269.1 260.1 255.6 250 243.6 230.7 228.6 242.9 262.5 286.6 316.7 344.5 370 389.8 409 427.7 449 470.3 491.7 511.4 526.2 532.1
390.2 404 416.3 426.5 442.3 457.6 463.1 462.4 454 454.8 454 451.8 451 439.4 430.8 438.8 439.5 426.6 418.4 413.9 401 398 393.4 386.4 381.7 376.3 364.7 341.6 320.7 295.1 276.6 258.4 237.1 212.1 188.3 174.2 166.5 156.4 141.5 138.4 137.4 138.2 140.4 148 142.5 149.9 163.6 172 188.6 213.4 238.8 262.1 287.1 311.3 335 350.7 364.9 380.8 391.1 397.5 405 414.9 422.9 434.5 448.6 459.3 473.2 487.1 498.1 509.3 519.9 530.5 537.3 539.8 537.2 532 526.2 518.7 510.1 502.7 494.5 486.8 479.9 470 464.4 458.8 453.7 454.7 457.5 443 437.6 432.3 428.6 423.9 421.8 422.5 421.4 414.1 406.3 410.4 396.5 386.3 375.5 372.8 361.9 355.6 349.2 345.6 341.3 354.7 335.6 319.5 300.2 288 269.3 259.7 251.7 247.9 232.3 212 209.7 209.8 210.4 209.9 209.5 209.4 209.8 214.9 229.7 242.5 258.3 275.2 291.4 309.1 326.8 347.2 361.9 373.7 384.2 395.1 405.6 417.5 430.5 448.5 462.4 471.4 474.8 471.9 467.6 456.7 450.2 431.5 406.1 387.5 382.4 377 364.4 351.6 339.2 316.5 294.4 267.3 240.9 219.6 203.5 192.3 188.8 190.1 189.4 193.8 199.6 209.7 217.3 223.1 239.3 257 259.3 253.7 247.6 244.3 240.4 235.7 228.8 216.6 223.8 239.6 260.5 288.6 320.7 348.8 376.1 397.1 412.5 430.8 452 477.5 498.9 516.3 527.2 534.6
395.2 407.3 424 436.1 454.8 470.9 471 468 463.1 462 460.5 460.6 455.1 445.6 436.4 440.4 445.4 436.4 427.8 416.2 412.6 411.2 404.2 393 386 382.9 366.1 337.9 317.8 291.3 270.5 251.7 234.4 210.6 189.4 171.9 157.4 147.2 138.3 137.1 137.2 136.2 139.4 141.8 143.2 158.7 171.8 181.9 196.1 218.9 239.6 262.6 288.2 310.9 334.2 349.3 359.6 372.4 379.8 389.9 397.3 407.8 417.5 427.8 440.1 451.7 466.9 482.7 495.1 508.8 522.4 532 539.9 540.6 535.7 530.3 524.9 520 512 505.4 497.6 491.1 484.5 479.6 471.2 462.5 459.3 461 463.4 451.3 442.8 437 431.4 430.3 433.6 438.6 436.2 417.5 408.8 405.1 401.1 385.9 377.5 375.9 372.6 362.2 354.6 354 343.1 329.4 325.7 317.7 299.5 287.7 274.2 258.9 246.7 235.9 224.9 214.7 209.4 209.3 209.8 209.2 209.4 209.2 209.5 214.2 237.6 244.2 255.6 270.5 286.2 302.5 320.7 343.1 356 361 372.9 390.3 401.8 409.7 427.1 448.9 464.6 466.8 471.3 464.1 456.3 441.7 432.9 416.1 401.9 387.9 372.5 366.3 363.3 347.1 334.1 313 284.8 260.6 236.8 215.4 201.1 191.2 183.8 183.5 187.2 187.7 190.2 195.4 202.4 210.5 222.8 237.6 234.4 228.8 223.7 226.2 223.7 220.3 213.7 202.9 220.7 238.1 259.5 289.4 319.1 351 379.7 399.6 415.9 437.2 459.6 482.7 503 518.8 530.4 538.1
399.9 410.4 428.6 444.6 458.8 475.5 480.9 473.5 470.1 472.6 467.3 462.7 452.1 433.2 437.3 441.9 436.1 434.7 426.7 417.4 423.1 420.6 413.8 401.8 390.9 383.8 369.7 348 320 288.6 264.6 246.2 224.4 199.4 185.7 166.1 153.5 143.8 136.4 136.4 136.7 136.8 139.2 139 144.9 160.8 175.1 182.9 200.9 224.3 244.7 267 294.2 315 334.2 347.5 355.1 364.5 374.8 384.6 391.8 399 409 423.1 435.9 448.8 463.6 481.7 493.3 509.2 522.8 533.4 541.5 539 533.8 529 524.3 519.7 513.5 507.3 501.2 495.5 491.7 488.5 482.3 473 467.7 462.7 464.5 457.3 446.6 443.2 441.4 442.3 441.5 435.8 422.3 410.2 409.4 402.1 402.7 389.7 387.2 383.4 379.1 365 356.2 357.2 348.5 341.6 325.1 320 297.1 284 269.2 261.1 244.3 226.1 213.9 210.8 208.6 209.4 209.1 209.5 209 208.8 209.4 216.8 231.7 243.1 255.3 264.6 278.3 294.2 310.9 332.4 346.5 352.3 363.4 381.1 392.2 407.9 424.5 450.6 458.6 468.9 463.7 455.2 444.1 430.6 417.1 407 399 391 376.1 362.1 356.9 351.9 339.2 314.1 289.5 262.1 236.5 217.4 203.4 199.8 182.3 177.1 183 182.1 181.7 185.2 189.9 198.1 207.1 214.7 211.5 208.8 209.1 208.7 205.8 199.1 197.4 202 219.6 236.9 256.3 290.9 320.7 349.1 377.3 399.9 420.8 441.6 466 487.3 507.2 522.3 532 539.9
405.9 419.2 432.5 450.5 463.8 474.2 477.3 475.6 475.5 472.5 467.6 459 440.8 430.2 434.8 432.7 436.1 433 427.3 429.8 431 429.9 424 413.8 396 382.7 376.6 360.8 330.1 300.3 271.3 250.7 230.9 207.5 189.9 164.8 149.2 140.6 134.6 135.1 136.4 136.1 138.3 141.2 148.4 159.5 173.6 185.1 200 222.5 245.4 270.4 295.2 314.2 329 341.7 348 354.4 364.4 373.9 381.9 390.8 404.6 416.6 428.6 442.2 459.3 474.3 491.5 506.5 523 530.6 539.9 533.2 530 527.7 526.7 521.1 515.2 509.7 504.6 499.6 497.1 495.3 489.4 481.5 467.7 460.6 461.8 458.7 452.6 448.6 447.3 450.8 441.5 430.6 419.1 409.3 405.8 401.7 399.9 391 396.3 391.3 393.7 375.4 357.9 347.2 345.1 346.2 341.1 330.1 297.1 276.3 272.7 267.7 251.6 226 211.3 209.1 208.4 208.7 208.6 209.3 209 209 211.1 221.1 229.3 239.2 250.7 260 267.8 288.6 302.9 315.5 330.2 343.2 357.6 372.2 388.3 401 420.3 446 460.2 471.4 463.8 455.3 437.1 417.8 414.6 409.9 399.3 389.6 370.7 362.8 359.1 349.5 336.5 319.3 294.2 269.3 241.9 227.5 211.7 198.4 184 178.9 176.4 177.8 177.2 180.9 184.9 193.3 197.8 199.1 206.2 206.5 204.3 190.2 188.3 190.5 192 200.1 219.1 234.1 257.3 290.2 317.2 346.5 375.5 400.7 424.4 448 470.3 492.6 513 527.6 533.1 536.9
412.7 423.5 434.8 450.2 459 469.1 478.1 477.9 477.7 470.4 460.1 450.8 428.4 424.9 428.3 423.4 426.9 436.4 432.8 441.2 442.6 443.9 424 415.6 401.4 378.8 368.4 350 328.4 307.9 279.3 250.6 233.2 210 187 161.8 142.3 136.2 135 135.8 136.1 137 138 139.7 149.6 159.4 174.1 186.6 200 221.8 248.1 274.6 296.1 310 325 333.7 338.3 345.3 351 369.2 377.8 387.6 399 411.6 423.9 437.9 454.7 470.1 488.8 504.7 516.3 525.8 525.8 526.7 527.9 528 527 524.9 519.3 511.6 505.4 501.8 500.7 498 495.8 490.3 472.7 460.6 458.9 458.5 458.1 453.5 451.9 457.7 443.5 430 421.6 410.7 405.7 400.3 401.7 391.3 389.2 394.5 400.5 381.2 360.7 346.9 344.2 329.3 335 325.6 298.8 283.6 273.2 266.3 249.3 226.3 210.7 208.7 208.2 208.4 209.1 208.6 209 210.1 213.9 223.2 228.2 235.7 246 253.5 264.6 276.9 289.4 305.4 318 338.4 355.9 369.8 384.4 397.8 417.7 443 457.9 462 451.3 439.2 422.8 409.3 407.2 408.9 396.4 380.3 362.8 360 357.1 354.8 344 331.1 295.5 271.6 249.7 235.3 220.7 207.6 194.5 183.6 178.4 177.3 177.3 176.6 181.4 190.1 189.2 183.9 187.9 199 195.3 185 185.1 187.3 189.3 201.4 218.1 233.7 256 288.8 312.2 344.7 375 402.8 429.2 453.3 474.8 498.2 517 531 534.8 534.8
417.4 427.5 439.2 451.7 463.4 471.5 481.5 480.9 475.7 472.5 457.5 435.8 417.1 415.8 413.1 419.5 432.4 434 432.6 443.3 441 436.5 425.4 409.1 400.5 379.7 366.4 350.2 325.6 300.5 265.7 247.1 229.7 204.6 181.8 154.8 140.9 134.5 134.9 134.9 135.6 136 136.2 137.4 148 155.8 170.6 181.8 198.8 221.2 249.8 275.2 294.2 306.8 320.4 325.7 330.4 340.1 350.3 358.6 369.8 382.2 395.1 407.9 421.2 433 450.7 465.4 483.4 496.1 510.7 513.5 518 525.6 527.5 526.9 528.5 530.6 522.2 514.7 507.3 507.2 509.9 509 507.9 497.8 480.6 469.3 463.8 458.8 461.5 458.3 460 460.4 451.2 437.7 426.2 416.6 409.1 407.5 396.6 394.5 390.3 394.6 396.2 384 360.5 348.4 329.9 325.3 314.8 311.5 306.9 285.8 276.7 272.5 260.8 238.6 214.6 208.3 207.9 207.9 208.2 208.6 208.8 211 219.6 225.8 231.3 233.9 243.4 251.3 266.4 267.5 276.9 295.5 314.7 331.9 352.5 374.5 385.5 397.8 414.2 438.1 453.6 441.4 419.2 411.5 405.8 394.5 394.3 395.9 401.2 374.9 362.3 363.4 358.3 352.3 344 318.8 294.8 271.6 253 242 226.3 209.8 199.1 191.8 185 183.7 178.1 176.5 177.5 178.7 176.8 174.9 175.1 186 184.4 180.5 182.4 183.5 191.2 200 211.4 229.7 250.5 273.5 305.8 340.7 372.3 401.6 431.5 456.9 477.2 498.5 517.2 529.5 534.8 532.5
422.8 435.8 446 455.7 465.5 474 482.8 477 474.6 457.2 447.4 424.2 410.9 405.3 405.4 411.9 417.9 416.8 430.7 437 444.3 425.6 416.8 401.8 388.7 377.7 357.8 345.6 327 317 276.8 252.2 233.3 207 181.4 154.4 140.6 134.6 134.4 134.3 135.2 135.6 135.3 136.1 140.3 152.7 165.4 177.4 197.4 224.2 250.8 273.6 286.7 297.8 309.2 318.7 325.3 333.6 341.7 353.2 367.3 380.9 391.5 404 415.9 428.6 442.4 460.6 473.1 484.4 495.6 502.3 509.3 514.6 523.2 523.6 524.2 524.4 518.2 514.5 509.7 517.1 518.4 516.2 512.9 505.4 483.7 474.1 465.2 465.3 462.4 466.8 470.3 464.3 455.9 448.2 438.8 421.8 406 419.3 411.9 400.6 397 393.3 394 382.6 363 349.2 326.7 320 313.1 303 309.4 282.4 274.8 277.7 265.4 238.9 216.8 207.9 207.6 207.9 207.9 208.7 208.7 212.8 226.4 234.1 235.2 240.7 245.5 253.9 259 264.2 273.9 288.1 311.4 332 360.2 375.6 385.7 402.7 415.3 423.1 433.1 416.3 401.8 399.8 395.3 391.3 384.8 389.4 383.8 368.5 357.6 354.8 354.5 346.2 332.8 316 295.1 273.9 260.6 243.7 229.1 217.1 210.2 199.7 191.1 184.2 180.6 175.9 175 174.3 173.9 173.1 173.1 174.6 176.8 178 180.3 185.6 189.1 195 207.5 227.1 247.2 269.1 299.5 335 366.2 395.3 425.5 452.2 472.5 491.5 512.3 526.6 530 529.7
430.4 440.4 453.6 462.8 470.9 477.8 481.3 477 468.5 449.4 425.6 411.3 408.2 390.9 393.1 397 401.5 411.6 427.3 429.4 424.5 414.7 408.3 397.7 384.1 371.6 349.7 343.4 331.3 312.9 284.2 254 235.4 207.8 181.6 156.5 141.1 134 133.6 133.9 134.5 134.8 134.8 138.5 141.1 155.3 166.5 175.8 198.1 227.1 245.9 267.1 282.2 294.3 303.9 307.7 318.3 328.1 339.5 350.1 364.3 376.6 387.7 398 410.2 422.3 434.8 447.2 456.7 468.5 480.4 487.2 500.5 507.4 514.3 518.8 518.7 515.2 514.9 513.8 517.3 520.1 522.5 522.6 519.2 506.5 481 475.1 471.5 470.2 469.7 483.5 468.9 467.3 445.6 439.4 434.4 415.5 404.9 408.3 409.8 410.1 406.5 396.9 385.6 375.1 361.9 345.2 326 316.5 317.1 304.1 286 273.4 267.9 284 279.6 239.5 212.5 207.6 207.4 207.7 208.4 208.6 208.3 213.7 229.8 239 248.1 244.6 251.6 258.2 261 263.9 267.4 289.5 310.2 335.9 364.2 372.5 386.3 400.4 404.5 412.4 417.4 394.2 393 389.8 391.8 383.4 376.9 378.8 371.4 355.8 346.9 347.6 347.8 348.1 343.6 328.9 302.1 282.4 265.9 249.6 238.5 225.6 216.4 209.4 196.3 184.6 180.8 175.2 175.2 174.4 173.8 174.5 172.3 173.7 175 176.5 177.9 179.9 183.6 191.7 206.3 224.1 241.4 263.2 293.2 329.6 356.3 387.8 420.5 441 465.3 488.2 506.6 517.2 525 525.8
