ncols 200
nrows 82
xllcorner 350000
yllcorner 512500
cellsize 50
325.8 320.7 316.8 310.9 308.5 306.3 301.6 298.8 299.6 293.1 281.7 270.7 256.5 253.8 252.5 254 255.3 250.7 248.8 244.9 242.7 235 227.8 219.5 214.1 209.5 207.8 209.6 207.4 202.5 197.1 196.3 199.3 202.6 204.4 202.6 198.1 189.9 186 182.5 184.4 190.1 191.5 195.2 199.4 203.2 207.1 211 214.3 217 213.9 217.5 219.9 221.8 222 220.7 220.1 215.4 212.5 211.8 208.7 207.9 206.6 196.7 194.8 191.4 191.2 191.1 191.4 192.2 197.3 202.6 205.5 207.5 212.5 218.5 226.7 240 245 249.8 258.4 263.1 266.2 268.1 269.8 270.1 269.8 270.3 272.8 274.6 275.4 276.1 276 277.8 283.8 284.9 284.3 282.3 280 277 272.6 267.9 265.1 264.7 262.2 255.4 251.3 248.2 245.2 244.6 244.7 243.5 245.8 245.3 247.7 254 261.5 263.5 265.5 272.1 278 280.3 283.5 286 289.7 296.9 295.6 294.3 292.7 291 291.2 292.5 293.1 293.9 293.9 293.6 291.9 289.9 289.8 293.1 291.9 291.6 289.8 289 287.7 286.1 283.5 281.9 280.3 280.6 281.6 282.2 280 278.9 277.9 281.9 282.9 278.5 275.7 275.8 277.2 276.7 277.9 279.1 280.4 281.9 282.4 282.2 280.2 278.8 279.8 281.6 282.7 283 278.9 278.5 278.3 278.6 278.9 279.2 280.9 282.4 282.8 284.5 285.4 286.5 283.1 281.2 287.9 294.3 298.5 300.8 302 302.8 305 308.3 309.3 307.3 303.7 299.6
333.1 329.7 320.5 319.3 317.5 314.5 310.8 317 310.5 300.7 286.8 277.9 263.3 257.7 251.7 249.3 248 243.9 239.1 233.9 231.2 224.9 220.3 215.8 211.8 208.1 206.9 206.9 204.8 200.1 196.5 196.3 198.7 201.3 201.6 199.6 195.9 189.3 186.6 182.3 186.5 190.7 191.7 193.4 196.8 203.9 206.9 209.1 212.6 216.4 217.3 219.9 222.1 224.5 224.8 225.3 223.6 219.6 215.9 214.2 210.6 209 207.6 199.5 196.3 193.9 191.5 191.4 192.5 191.9 194.1 196.3 201.6 203.8 207.2 212.9 220.5 234.8 243.7 248.3 255.7 262.2 263.6 265.5 266.6 267.5 269.9 270.7 272.9 275.8 278.2 278.3 277.4 278.7 281.9 283.3 284.2 282.6 280 276.4 271.4 267.5 264 262.4 259.9 254.9 251.5 247.7 246.6 245.5 245 244.2 247.4 245.5 248.3 255.2 263 263.7 266.8 270.8 276.4 278.6 282.7 285.5 287.7 299.3 298.3 296.4 294.7 292.5 293 293.7 294.4 294.3 294.9 295.6 294 291.9 291.2 293 294 293.3 290.9 289.6 288.8 287.6 284.9 283.5 281.9 281.6 282.6 283.7 281.6 279.7 278.2 279.8 283 279.6 277 278.2 280.2 280 280.9 282.5 283.8 283.5 283.8 283.8 281.6 279.7 279.7 280.9 281.5 281.7 279.4 279.2 279.3 278.9 279.3 279.8 280 281 282.5 284.5 285.1 286.7 284.9 280.6 286.1 291.5 295.4 298.4 301.1 303.3 304.8 306.6 307.7 306.5 303.8 300.5
338 336.2 330.5 334.3 329 320.1 319.7 318.8 315.2 303.7 290.9 279.7 269.9 263.2 253 244.9 242.6 236 230.4 223.7 223.3 219.8 217.5 216.4 213.3 207.6 205.1 203.1 201.1 199.2 196.3 195.9 196.7 196.8 196.5 194.9 191.9 188.9 185.5 182.9 188.8 192.5 196.6 198.9 203.2 205.6 207.7 208.4 213.3 216.9 219.9 222.6 224.7 226.8 227.8 229.4 227 222.9 218.7 213.7 212 209.4 207.8 202.4 201.2 198.9 193.6 192 190.8 192 193 193.9 196 198.8 202.3 207 214.9 228.4 241.6 246.7 251.8 261.5 263.5 264.1 264.2 265.4 269.1 270.9 272.9 275.8 280.8 280.6 280 280.4 282.8 284.2 284.7 282.8 280 276.6 271.7 267.2 264.4 262 257.5 255.3 253.5 247 245.2 244.8 244.8 244.6 245 245.2 247.8 256.1 264.7 264.2 266.3 269.7 273.6 277.1 280.4 285.4 285.3 293.4 300.2 299.2 297.2 294.6 294.3 295.1 295.5 296.4 297.2 297.6 296.4 294.2 293.8 294.4 295.3 294.5 292.9 291.3 290.8 289.5 287.6 285.2 282.9 282.7 283.1 284.8 282.9 281.2 280.4 278.3 282.5 280 278.1 279.8 282.3 281.5 282.9 284.4 285.4 285.3 286.4 286 283.7 281 279.9 280.1 280.3 279.8 279.7 279.6 279.9 279.8 279.8 281.1 280.5 281.1 282.9 284.5 285.3 287.3 286.2 281.2 285.1 288.1 291.6 294.7 298.2 301 302.4 304.2 305.8 305.9 300.3 298.6
334.5 338 335.3 341.8 337.2 322.7 317.1 318.9 314 304.4 293.9 277.5 277.2 267 251.7 242 233 230.2 223 216.9 217 215.7 215.8 215.8 212.5 207.4 204.1 203.3 202.4 197.9 196.3 196.1 196.2 195.4 192.3 190.9 189 187.6 184.1 182.8 190.9 193.8 197.3 201.2 204.4 208.5 211.3 213.6 216.1 218.4 221.5 224.6 227.4 229.1 230.2 231.2 229.5 225.7 221.7 219.3 215.3 210.6 209.5 206.9 206.3 203 199.7 196.2 192.3 191.8 192.2 193.6 194.5 196.1 197.6 204.1 210.1 222.5 237.1 245 248.9 257 263.6 263 262.9 264.4 269 271.7 273.9 277 282.5 284.1 283.6 282.1 285.4 285.9 285.7 282.1 279.4 275.6 271.1 267.1 264.1 262.1 259 256.4 253.3 249 245.7 245 245 244.1 245 248.3 247.9 256 264.8 264.3 265 268.5 273.2 277.7 280.9 285 286.1 287.2 296.3 301.9 299.1 296.8 297.5 297.3 296.6 296.7 298.4 298.8 299.3 297 295.8 296.6 297.2 297.2 295.5 293.1 292.7 290.8 289.7 286.4 284.7 283.2 283.7 285.6 284.3 282.7 281.3 279 279.5 279 278.6 280.8 284.6 284.9 284.3 286.1 287 288.1 287.9 287.5 285.3 282.6 280.7 280.5 280.3 279.9 280.1 280.4 280.9 281.1 280.9 281.7 281.1 281.7 283.2 284.9 285.5 287.7 286.1 283.5 283.2 286.9 289.9 291.5 293.3 297.9 303.1 300.5 303.8 303.6 300.8 297.5
338.4 338.4 335.6 340.4 338.7 322.3 313.9 309.8 310.6 305.2 285.6 282.3 279 264.9 248.7 238 230.6 224.6 218.3 215.2 213.1 214 215.5 213.5 210.1 206.5 204.5 205.1 201.9 197.3 196.4 196.3 194.6 192.5 190.4 188.7 187.1 185.4 183.9 184.1 192.9 195.9 199.3 202.8 208.8 210 214.7 217 219.5 221.8 224.1 227.2 231.8 232.2 233.7 235.4 232.6 228.7 224.7 222.9 220.1 212.6 210.8 209.7 211.1 207.9 203.8 201.4 198.7 192.9 192.3 193.3 193.9 195.3 195.1 195.7 199.9 213.1 230.5 242.2 246.9 252.2 262.1 262.5 262 263.8 266.3 270.7 275 278.5 284.1 287.2 286.3 285.1 286.2 286.2 286.5 282.9 278.5 274.6 270.3 267.2 263.6 261 258.8 256.3 255 250.5 247.6 246.5 245.4 245.6 245.2 246.8 248 255.2 264.4 262.5 263.8 267.7 272.4 276.1 278.6 284.4 287.2 285.2 290.5 301.7 300.8 298.6 299.5 299.1 297.9 297.5 298.5 299.1 301.4 299.6 298.5 298.7 299.1 298.5 296.3 295.4 294.4 292.4 291 288.4 287 285.3 284.2 287.3 286.7 284.1 282.5 280.3 278.7 278.7 279.2 281.4 286.2 287.5 286.1 287.9 289.7 290.1 289.1 288.7 287.5 285.2 282.6 281.7 281.4 281.1 281.2 281.6 282.2 283.3 282.7 283.2 282.2 282.4 283.6 285.5 285.8 287.9 286.2 284 282.6 286.8 287.2 290.9 290.1 294.5 297.1 300.5 298.6 300.9 299.3 295.1
345.4 341.1 334.9 337.3 337.8 319.3 310.8 304.6 297.3 291.2 286.6 289.2 274.8 254 243.2 234.7 225.8 221.1 217 214.5 212.8 212.3 212.9 210.6 208 205.1 203.4 201.6 199.6 196.2 196.1 196.5 192.8 191.1 188.6 187.4 186.4 185.4 183.8 185 196.2 203.4 206.7 208.1 212.4 216 217.2 219.9 222.4 226.7 230.7 233.5 234.9 236.9 238.1 239.1 236 231.8 227.4 225.3 222.2 215.8 212.8 212.5 215.1 212.5 207.6 204.1 201.8 193.8 193.7 192.6 193.9 193.7 194.9 195.7 195.7 197.8 215.2 234.2 243.5 249.3 256.1 262.4 262.4 264.2 265.8 270.1 274.5 278.1 281.3 287 288 287 285.9 287.4 284.6 280.6 276.1 272.6 268.8 266.4 263.2 260.5 257.7 256.4 255.6 252 247.9 247.2 244.9 245.4 245.7 246.6 247.8 254.4 262.7 260.3 261.2 264.6 269.3 273 276.4 282.4 286.9 286.1 285 293.3 303.4 301 299.7 301.1 299.8 299.1 300.5 301.4 303.1 302.9 301.5 300.7 300.7 299.9 298.2 297 295.9 294.2 292.7 289.2 288.4 286.4 285.7 288.4 287.9 286.2 284.7 283.7 278.6 279.4 279.9 282 287.5 288.5 289 290.2 292.1 292.2 291.3 290 289.4 286.8 284.2 282.9 283.2 282.8 282.9 283.4 283.8 285.1 284.3 284.1 283.8 284.1 285 287.2 287.2 288.7 287.4 284.4 283.1 286 285.7 289 289.6 290.9 292.5 294.7 297.6 296.8 294.6 293.1
335.8 333.9 326.4 324.3 321.5 317.6 313.8 301.6 291.6 282.5 281.2 269.3 256 246.9 239.1 230.1 224.9 219.4 215.7 213.4 212.2 210.9 209.4 207.1 206.4 204 201.8 199.7 197.9 193.5 192.9 190.9 189.3 188.8 188 187 186 184.9 183.8 187.2 199.8 205.1 210.3 213.8 216.1 221.4 224.2 224.9 227.9 231.8 234.5 236.3 238 239.7 241.7 242.7 239.5 233.6 230.5 227.1 223.9 220.8 214.5 214.9 218.2 216.4 211.7 206.9 204.4 194.9 194.5 193.9 194.3 194.3 196.1 196.2 196.3 196.5 197.6 209.1 236 247.3 251.5 259.2 263.5 264.9 265.9 269.2 273.2 278.1 280.5 284.9 287.4 287.8 287.2 285.6 284.3 280.1 276.1 272.2 267.5 264.5 262.4 260.3 256.9 256.6 256.6 253.1 249.9 249.3 245.9 245.1 245.7 246.8 249 252.4 260.5 257.4 258.2 260.9 264.5 270 272.6 279.1 285.2 287.6 283.9 285.4 294.9 302.9 301.1 302.7 301.6 301.3 302.8 303.7 305.1 305.8 304 303.3 302.5 301.1 299.2 298.6 297.7 296.5 294.6 292.5 289.6 287.9 287 289.8 290 287.4 285.5 285.9 283.3 279.3 279.5 282.9 288.4 288.6 290.9 291.9 292.9 294.1 293 291.8 290.6 288.6 285.9 284.1 283.9 284.2 284.8 284.9 284.9 286.2 286.1 286.3 286.7 285.5 286.7 288.6 288.7 290 287.6 284.7 282.5 284.8 284.5 286.9 289.7 291.5 293.1 295 296.4 296.2 295.6 293.7
325.2 322.2 324.7 323.6 318.8 311.9 303.7 288.4 274.6 265.7 258.6 251.6 245.4 239.3 234 227.9 222.4 218 214.7 211.3 211 209.1 206.6 204.6 203.5 202 201.3 198.9 197.1 193.1 190.8 190.1 189.7 188.7 188.2 186.7 185.7 185.2 184.7 190.5 200 206.1 213.1 217 220.6 225.3 228.2 230 232.5 235.1 237.5 240.2 241.7 243.2 245 245 241.9 237.1 233.8 229.8 226 223.4 216.9 217.2 220.1 219.9 214.5 209 206.2 201.4 195.4 195.3 195.1 195 200.6 200.5 197.9 197.4 197 198.1 219.6 245.2 248.4 253.7 262.2 265.5 267.1 269.4 271.9 275.6 279.4 282.1 285.5 287.2 289.2 286 283.1 279.9 276.3 272.1 267.6 265.6 263.7 261.1 257.5 256.1 256.6 253.4 251.8 251 246.8 245.2 246.2 246.5 246.4 249.2 256.3 254.3 254.2 256.2 260.2 263.8 268.6 275.6 283.2 288.3 285 283.7 288.5 292.9 303.1 302.6 303.2 303.5 304.7 304.2 306.2 308.1 306.5 305.7 304.2 302.7 300.7 299.8 300.3 297.5 296.1 294 290.2 289.4 288.5 290.7 291.2 288.8 287.3 287.4 284.7 279.4 279.6 281.3 288.9 290.4 291.7 293.5 294.6 296 295.2 294.1 292.9 290 288.2 285.8 285 285.6 286.2 286.4 286.7 287.6 288.6 288.9 289.4 288.1 289.3 291.1 290.1 290.9 289.2 286.4 282.8 283.6 283.9 285.5 288.9 292.9 295.1 296.6 297.4 297.5 296.6 295
308.4 311.4 318.2 319.3 307.2 295.4 285.3 272.2 258.1 252.3 245.8 243.7 238.6 232.4 228.3 226.7 221.3 216 211.2 208.8 208.1 207.7 205.9 203.7 200.1 197.8 198 198.6 197 192.2 190.2 189.7 189.2 188.2 188.2 187 185.7 185.4 187.7 195.7 205.5 209.5 215.5 222 224.6 230.1 232.4 234.4 236.5 239.2 242.5 246 248.3 249.2 249 248.5 246.1 241.2 236.1 231.6 227.5 224 220.3 219.6 221.3 220.1 216.1 211 207 201 196.8 196.3 195.8 195.7 204.5 207.9 208.8 204.8 198.4 197.4 206.9 229.9 245.7 249.3 253.9 264.6 268.3 269.8 271.3 273.2 277.8 281.6 283.2 287.6 290.4 286.9 283.4 280.2 276.8 272.8 268.3 265.9 263.6 260.7 257 255.3 256.2 254.6 254 252.5 247.8 246 246 246.6 246.6 248.2 253.4 252.6 252.4 252.9 254.4 258.3 264 271.4 280.3 287.5 287 283.8 286.5 286.6 287.8 300.7 303.5 304.4 306.1 306.3 308.9 310.2 309.1 308.1 306.1 303.4 303.5 303.1 301.5 299.8 297.6 295.4 292.5 290.9 290.1 291.8 292.5 290.6 289.1 288.7 287.5 282.1 279.9 281.4 288.8 291.4 292.4 294.9 296.1 297.7 297.6 296.3 294.2 292.9 290 288 286.7 288.3 288.2 288 288 290.3 291.2 291.4 292.8 291.8 292.4 294 292.1 292.2 290.7 287.4 283.4 283.1 283.8 285.7 288.6 293.5 296.7 298 298.7 298.7 297.2 295.6
288.7 286.1 291.7 292.5 284.1 276.3 267 254.7 246 242.6 237.4 234.3 229.8 224.6 223.8 218.7 215.1 213.9 210.2 213 210.8 206.4 203.3 200.8 197.3 196.7 195.5 194.6 194.8 192.5 189.4 189.5 188.3 187.6 186.6 186.5 185.6 189.4 192.9 200.6 207 212.9 218.2 224.5 227.8 232.6 236 238.4 240.8 244.7 249.7 253.5 255.6 254.4 253.7 251.3 248.5 244.6 239.7 234.4 228.3 225.1 221.6 219.7 220.6 218.6 215.1 211.1 206.6 198.9 197.4 197.4 197 196.4 210.8 212 212.2 211 203.6 198.3 196.8 217.6 236.3 247.9 250.2 255.1 265.7 270.3 272.2 272.5 274.8 280 281.4 285.5 289 288.3 284.5 280.8 277.1 273.2 268.9 265.9 263.4 260.1 256.8 254.5 255.2 254.4 254.3 254.2 248.7 246.7 245.8 246.3 246.2 246.4 250.7 249.6 252.1 252.4 253 254.3 261.6 267 277 286 288.5 284.6 284.5 286.6 280.1 288 300 305.1 307.4 309 311.1 312.5 311.3 310.5 307.6 306.6 305.8 303.5 301.3 300.8 298.3 296.1 293.8 292.1 291.5 292.9 293.7 292.1 290.2 290 289.3 283.2 280.2 281.5 288.6 292.5 293.5 295.6 296.5 298.7 299.1 298.1 297.5 295.4 292.7 290.5 290.2 290.5 291.3 291 290 291.9 292.5 294 296.6 295.6 295.4 296.4 294.5 293.7 291.3 288.4 285 283.7 283.9 285.7 288.8 294.5 296.3 299.3 299.8 299.6 297.2 295.2
270.7 269.7 268.7 265.6 261.2 257 250.5 243.5 237.1 234.1 228.7 227.5 222.5 220.2 217 215.2 213.9 211.6 210.1 214.4 212.2 209.5 202.1 198.5 197.7 197 193.5 193.7 192.7 191.3 193.6 194.8 191.4 189.7 189.5 194.7 194.4 195.7 198.7 203.1 208.9 212.9 223.9 229.3 233.6 238.3 241.5 244.8 247.3 250.7 256.8 261 262.1 260.4 258.9 256.4 251.8 247.9 243.5 236.9 232.4 226.9 222.8 219.2 219 216.6 213.3 208.9 207.4 201.4 197.9 198 197.8 195.1 215 217.1 215.8 213.5 207.6 199.6 199.1 206.9 225 238 249 251.6 255.7 264.1 271.5 271.6 273 275.8 279.5 282.4 287.9 286.7 284.3 281.3 277.2 273.1 269.5 265.4 262.5 259.5 256.5 254.7 254.2 253.3 255.4 255.4 250 247.4 245 246.2 246.4 246.5 247.7 249.4 250.2 251.4 252.5 253.5 257.2 265.3 272.5 284 289.5 286.2 283.7 285.7 281.8 277.4 285.5 295.1 307.5 310 313.1 314.6 313.2 311.9 309.3 306.5 303.8 302.2 304.4 302.7 299.1 297 294.3 293.4 292.8 294.3 294.3 293.1 291.9 291.2 290.3 284.7 280 281.4 287.8 292.8 294.5 296.6 298.2 300.6 301.5 301.2 299.5 297.9 294.9 292.6 291.9 293.7 294.3 294.7 292.8 293.3 295.1 296.2 299.2 298.8 298.1 298.3 297.7 295.5 292.5 289.4 287.2 284.9 284.3 285.1 290.2 296.1 298.7 300.5 300.5 300.6 297.4 297.1
257.3 255.3 253.4 255.2 254.1 247.9 238.2 231.5 227.3 226.3 222.2 219.4 217.1 216.5 215.6 213.2 211 210 209.7 213.3 210.9 208.2 203.2 198.6 198.6 197.6 196.7 197.6 200.2 197.6 197 198.7 198.5 196.8 199.2 202.9 206.5 204.9 205.8 207.9 214.4 216.7 229.9 233.8 239.3 243.7 250.5 254.3 257.2 261.9 265.3 266.4 266.2 264.6 262.8 260.1 255.3 250.4 242.6 240.7 234.3 229 224.8 220.4 216.4 213.7 210.6 206.2 205.7 204.3 198.9 198.7 196.6 213.2 218.4 221 219.7 216.8 208.8 200.3 201.8 200.2 216.1 226.5 235.6 247.3 252 255.5 261.4 269.3 270.1 272.7 275.7 279.8 282.7 284.9 282.4 279 275 271.8 266.5 263.7 261.3 259.1 256.7 254.3 253.9 252.5 255 256.6 250.3 248.7 246.2 246.1 246.5 246.8 247.9 249.9 250.1 250.7 252.1 253.2 255.9 262.9 270.8 282.2 289.2 286.7 283.3 284.9 283.8 276.1 279.4 284.5 296.5 307.9 313 316.7 314.9 312.9 310.2 308.3 306.2 304 305.7 302.9 300.1 297.8 296.1 294.7 294 295.4 295.6 294.2 293 292.5 292 287.3 280.9 281.4 285.6 292 295.1 298.1 299.2 301.8 303 303.5 301.4 300.4 296.9 294.5 294.6 295.8 296.8 296.7 295.8 295.1 297 298.5 302.7 301.9 301.2 301.1 300.5 296.9 293.5 290.4 288 286.2 285.5 285.6 290.5 297 301.2 301.4 301.9 301.8 301 298.9
247.4 243.5 242.8 238.1 239.4 233.6 227.9 223.3 221.3 220.9 217.8 215.3 214.5 212.8 212.4 210.6 209 209.1 208.6 208.1 207.4 208.2 207 205.3 203 204 203.9 203.3 203.7 202.5 202 204.7 206.6 207.8 211.5 213.4 214.9 214.1 216.8 220 226.2 226.2 242.3 250.7 254.4 256.5 261.4 263.8 267.4 270.5 269.1 268 269.7 267.9 264.7 261.3 256.3 250.5 245 242.5 237.2 230.9 225.6 221.2 218.2 213.9 207.1 204.3 201.9 201.1 200.1 198.8 212.1 216.7 221.2 224.2 223.6 221.1 210.4 200.9 202.8 203 210.1 221.3 226.3 234.7 246.1 251.2 252.8 258 266.6 268 270.9 275.5 279.1 279 279.3 277 272.5 270 267.9 264.4 261.7 258.2 256.2 254.2 252.9 252 254.6 256.1 250.4 248.7 246.7 246.2 246.9 246.6 247.1 248.9 250.8 250.6 252.2 254.2 255.5 259.9 268.7 279.6 288.4 287 283.3 284.1 283.8 276.5 276.4 281 288.1 298.1 309.5 316.5 315.9 313.8 311.9 309.9 308.1 305.6 306.7 303.2 301.5 299 297.5 297.1 296.9 297.5 297.2 295.6 293.9 293.5 293.3 289.2 281.5 281.3 284.3 289.6 295.9 298.6 300.4 301.8 304.5 305.4 304.3 302 299.6 297.5 296.5 299 299.1 299.5 298 297.5 299.2 300.4 304.9 304.8 304.4 304.6 302.9 298.3 294.3 291.6 289.2 287.3 286.7 287 292.5 298.6 302.7 303.6 303.9 303.5 302.8 301
238.1 238.1 238.1 238.1 238.1 220.9 218.6 218.8 219.5 217.1 213.7 212.7 210.7 209.8 210 210.7 211.1 209.3 209.2 209.6 210.8 209.5 210 208.3 206.5 208.2 210.8 211.7 210 209.4 208.5 214 215.1 219.7 222.3 223 225.3 226.4 226 228.6 231.2 233.7 247.7 256.2 261.4 265.6 267.2 270.1 274 274.9 273.4 270.5 271.1 268.7 265.8 261.8 256.8 252.6 249.6 245.1 238.6 232.2 227.5 223.1 220.1 217.4 209.5 204.4 200.9 201.1 199.7 209.7 214.1 219.1 223.3 227 226.7 225.8 217.4 200.9 202.9 203.8 207.1 216.6 222 222.5 231.4 242.7 247.3 248.9 252.9 260.8 265.4 268.2 272.6 273.1 274.1 274 271.1 269.4 267.8 265.3 262.1 258.9 255.6 253.8 252.7 251.9 253.8 257.1 250.4 248.2 247.8 245.8 246.5 246.9 247.3 247.8 249.6 251.6 253.1 255.4 255.8 259.1 265.9 277.5 286.7 287.3 282.8 282.6 283.4 276.8 275.5 279.1 286.1 292.1 302.5 313 315.3 314.7 312.9 311.2 309.5 307.8 308.5 307.6 301.7 300.1 298.5 298 298.6 298.7 298.6 296.3 294.1 294.3 294 291.6 283.8 281.1 284 287.6 296.2 299.5 300.8 302.8 306 307.1 306.7 305 302.3 299.7 298.4 300.6 301.7 301.9 299.9 299.7 301.3 302.5 306.6 307 306.6 307.9 305.1 299.3 295.4 292.9 290.5 288.8 288.6 289.4 294.1 300.4 304.1 305.3 305.5 305.7 304.8 302.7
238.1 238.1 238.1 238.1 238.1 217.6 216.1 214.4 214.6 214.3 214 210.4 209.8 210.3 211 212 212.5 211.7 211.4 211.8 212.3 211 211.1 211.2 210.3 214 215.3 217.4 216.5 217.3 223.4 228.1 229.5 235.9 239.3 243 241.4 242.9 242 242.8 241.1 241.4 252 261.4 268.2 271.4 272.7 275.3 277.3 276.8 275 273.5 273 269.7 266.7 263.4 258.7 253.7 250.7 247.8 240.9 235.1 228.1 223.8 220.4 217.9 212.4 202.3 201.7 201.8 205.6 211.7 215.6 219.7 224.1 229.1 230 229.9 226.8 213.6 202 203.5 205.7 206.5 208.2 205 212.9 220.1 230.8 241.5 243.2 246 253 261 264.5 267.8 270.2 270.8 269.4 268.9 268 265.6 262.8 258.6 255.1 253.7 252.6 251.6 252.9 256.6 249.9 250.3 249.6 247.6 246.8 247.4 247.6 248.1 249.6 251.2 253.6 256.3 255.6 258.7 264.6 274 285.3 286.6 282.5 281.1 282.4 275.2 273.9 277.9 285.6 294.5 296.5 312 315.4 315.9 313.8 312.4 311.3 309.7 310 309.6 304.1 301.9 299.4 299.4 300.1 300.2 299.6 297.3 295.1 295.1 295.1 293.2 285.7 281.1 283 289.2 291.7 300.3 301.3 302.7 306.2 308.6 308.8 307.8 304.7 302.3 300.3 302.8 303.7 303.6 303.8 302.2 304.2 303.6 308.3 308.6 309.2 310.4 306.5 301.2 296.1 293.2 291.5 290.3 289.8 292.8 297.2 302.8 306 307 307.8 308.2 306.8 304.7
238.1 238.1 238.1 238.1 238.1 217.3 213.8 211.1 211.5 213.5 211.1 209.3 210.2 211.6 212.1 212.4 213.1 213.2 213.7 213.9 212.6 213.8 213.6 213.3 216.1 219.7 220.8 223.5 223.8 224.6 231 238.7 248.9 263.1 267.2 266.7 258.1 258 257 256.5 256.8 254.4 257.4 267.5 271.6 273.7 276.8 279.6 278.9 278.4 277.2 275.3 274.9 270.6 267.7 262.8 257.9 255.2 251.5 247.8 243.3 237.4 230.9 225.1 221 217 209.5 202.5 202.3 204.1 206.8 211.3 216.3 222.4 226 231 231.8 232.7 230.6 224.1 217 205.4 203.6 203.6 206.2 206.4 206.4 206.7 207.6 213.1 231 237.9 240.2 246.2 258.2 263.3 267.1 268.2 268.9 269.2 267.8 265.6 262.6 258.7 255.7 253.6 252.3 251.7 251.9 255.7 250.4 251.9 251.2 249.4 246.9 247.6 247.9 248.4 249.6 251.2 253.7 256.4 256 258.7 263.2 271.7 282.6 285.6 281 279.3 281.2 274.7 271.7 277.2 285.3 292.9 296.1 302.6 315.1 315.9 315.4 314.2 312.8 311.5 311.6 310.4 303.5 303.5 301.3 300.6 301.6 300.5 299.5 298.8 295.9 295.7 295.5 294.2 287.4 281.8 283.1 289 290.9 297.3 301.5 302.8 305.8 309.4 310.4 309.7 306.9 304.8 303.3 304.6 305.7 306.5 306.1 305.2 306.5 304.3 308.4 309.9 311.5 312.2 308.1 302.4 297.4 294.6 293.1 291.5 292 295.8 300.9 304.6 307.8 308.6 309.9 309.9 308.8 306.2
238.1 238.1 238.1 238.1 238.1 238.1 209.6 210.2 209.6 210.4 210.6 210.8 212.2 212.9 212.7 213.1 215 215.8 216.4 216.4 215.2 216.4 218.1 219.5 225 225.3 225 228.8 231.6 233.1 240.5 252 264.4 284.7 288.7 284.9 281.9 279.8 276.8 270.7 268.1 264.4 266.7 273.4 275.7 278.1 279.4 280.7 280.6 279.2 277.7 276.6 275.2 271.2 267.6 260.8 257.8 254.7 251.7 246.5 242.7 239.3 234.6 227.5 221.1 216.7 205.1 203 203.6 208.2 212.9 214.3 218.1 223.2 227.6 231.9 234 235.6 236.2 235.4 236.5 230.3 223.6 221.7 219.7 218.6 216.9 212.8 208.9 209.1 208.1 212.6 228.7 237 244.1 256.6 263.7 266 267.3 268.5 267.7 265.9 262.6 259.2 256.7 254.5 253 251 250.9 254.1 250.8 253.2 254.9 252.4 249.4 247.9 247.6 249.4 250.2 251.2 253.7 256.4 255.8 259.2 262.6 269.7 279.6 283.7 279.2 277.1 279.5 273.9 271.4 275.9 284.1 291.6 296.8 294.6 310.5 316.2 315.2 315 314.1 312.6 312.8 311.4 304.5 305.2 302.7 300.8 302.7 301 299.1 299.6 296.1 294.9 295.5 294.3 288.1 282.2 283.7 285.9 292.5 293.8 297.6 302.5 305.2 309 311.1 311.2 308.6 305.6 305.4 306.2 307.3 309 307.5 307.2 308.9 306.4 308.4 311.9 313.9 314.2 309.8 304 299 295.8 294.4 293.6 295.6 298.8 304.3 307.4 310.1 310.6 312 312 311 307.6
238.1 238.1 238.1 238.1 238.1 238.1 212.7 211.4 211.8 214.8 217.1 213.1 215.5 216.3 217.1 219.3 219.3 219.4 219.1 218.6 217.9 218.1 219.8 224.2 237.5 235 231.5 238.7 241.3 245.7 255 267 292.1 304.7 307.4 299.1 299.7 295.9 291.2 285.8 278.9 273.3 274.5 276.9 280.4 280.1 278.4 278.9 280.2 278.8 278 275.7 273.6 269.4 264.2 258.9 257.7 253.9 250.2 244.7 240.4 237.7 235.8 228.8 223.3 217.2 202.6 204.4 205 212.1 218.3 220 221.5 225.3 229.2 233.1 236.9 239.7 241 240.8 243.3 239.8 236.6 233.7 231.3 227.9 226.5 222.9 214.5 216.3 208.8 210.1 210.5 230.1 236.8 245.2 259.2 262.9 265.1 266.6 266.7 264.9 262.3 258.7 255.9 254.6 255.3 251.6 251 252.6 251.3 256.2 258.2 254.2 251.6 249.3 248.2 249 249.5 251.6 253.3 256.6 255.5 259.2 260.6 267 275.8 281 277.3 274.7 277.3 273.8 269.9 275 283.1 290.4 296.4 293.8 299.3 317 316.5 316 315.4 314 313.8 312 308.3 306.1 303.8 299.9 303.8 303.1 300 299.9 296 294.1 294.5 294 288.5 282.6 283.8 285.8 289.6 293.3 297 299.4 304.5 309 311.5 312.6 310.1 307.2 307.5 307.5 308.9 310.7 309.5 308.9 310.2 309.2 309.7 312.7 316.1 315.6 312 306.1 300.6 297.5 296.9 295.9 298.8 303.5 308.5 310.3 311.8 313.1 314.3 314.2 313 309.7
238.1 238.1 238.1 238.1 238.1 238.1 216.1 218.9 218.5 221.1 224.7 228.5 228.8 224.8 225.7 227.8 225.5 225.6 224.6 222.5 220.4 220.6 222.8 228.4 240.4 247.7 243.1 252.3 257.2 265.6 276.7 286.5 306.7 318.2 313.5 306.9 312.7 304.4 299 298.3 288.2 283.5 281 282 282.8 279.4 276.7 277 278.3 278.9 277.8 273.8 271.9 264 258.1 256.9 255.7 252.8 248.7 241.5 237.3 234.6 232.4 228.1 223.3 217.6 205 205 211.6 215.8 221.6 224.8 225.2 228.7 233.6 237.9 240.6 242.8 244.2 244.4 246.8 244.3 243.4 241.4 239.4 236.1 235 228.2 218.1 223.3 221 210.9 211.4 215.4 231.2 238.6 249.5 259.8 262.9 264.7 264.8 263 260.1 258.8 255.2 254.8 255.4 252.7 252 250.9 252.3 257.9 261.2 257.3 253.3 251.2 249.5 249 249.8 250.2 251.6 255.6 254.5 256.7 260.8 264.8 271.7 277.1 274.4 273.4 275 272.7 270.2 274.4 282 288.3 294 295.5 293.5 304.5 316.1 317 315.8 314.4 314.3 312.7 309.4 303.6 304.5 300.5 304.9 303.4 300.6 299.9 295.3 292.6 293.2 293 287.8 283.5 284 285.3 288.2 292.5 294.5 298.8 303.6 308.9 310.8 312.6 311.3 308.4 309.5 308.7 311.1 312.3 311.3 309.3 312.4 312.1 310.8 313.2 316.5 316.5 313 307.8 302.7 299.6 300.4 299.7 304.1 308 310.5 312.9 314.7 316.2 316.9 316.8 315.1 311.2
238.1 238.1 238.1 238.1 238.1 238.1 236.6 227.2 235.4 239.9 239.1 239.2 241.8 241.1 240.8 240.6 233.7 231.7 230.2 228.1 223.2 225.1 230.1 235.3 244 252.8 257.5 264.9 275.8 287 300.8 304.7 317 324.6 315 311.4 309.7 306.5 309.7 310.3 298.3 293 289.6 287.1 283.5 278.9 276 275.9 275.9 277.2 275.5 272.1 268.7 261.6 259.1 256.1 255 250.8 246.4 240 235 231.2 228 224.8 220.7 216.6 206.5 205.2 212 218.6 222.5 227.7 229.8 232.3 235.6 240.2 243.1 246.3 248.1 247.3 249.7 249 248.8 248.7 248.6 245.3 241.7 231.8 223.7 226.7 230 209.8 211.9 213.4 222.4 234.7 242.8 251 261.1 263.1 263.1 261.6 259 257.2 255.7 256.1 256.6 254.9 254.2 253 253.7 259.6 263 259.7 255.2 253.2 251.4 250.1 249.7 251.8 252.4 251.8 253.2 255.1 258.6 263.7 266.9 271.5 272.1 270.6 270.9 270.2 269.1 273.7 281.7 288.4 293.8 297.2 295.7 296 308.6 317.6 316.4 314.2 314.4 313.1 310.2 302 305.2 300.2 305.8 304.3 300.7 299 294.2 291.7 292 291.9 287.3 284.1 284.7 285.7 287.2 291.5 295.2 298.4 299.9 306.4 309.4 311.5 312 309.8 310.7 310.5 312.5 314.1 313.2 311.6 314.5 313.2 312.4 313.5 316.7 316.9 313.8 308.1 305.7 303.3 303.6 304 308.5 312.1 313.9 316.1 317.4 317.9 319.5 319.1 317.3 313.1
238.1 238.1 238.1 238.1 238.1 238.1 238.1 237.9 247.7 256 259.9 260 261.7 260.3 261.8 258.4 243.8 237.7 233.5 231.2 229.4 229.3 236 241.8 249.3 259.3 263.9 275.1 285.4 297.8 317.3 319.2 319 322.7 318.8 316.7 322.3 320.1 322.7 315.5 306 301.5 295.5 288.8 283.3 277.2 276.3 275.4 275.2 275.8 274 269.9 264.4 259.5 256 254.2 251.8 247.4 243.4 237.8 233.5 227.9 224.1 221 217.5 211.7 207 206 218.1 221.2 224.1 229.3 233.2 236.2 238.7 245.3 247.3 249.3 251.6 251 251.6 252 254 255.6 255.3 252.4 245.4 236.3 228.1 228.7 233.5 225.7 213.9 212.5 213.2 231.8 239.7 247 257 261.5 261.5 260 258.9 257.7 256.3 256.6 257.3 255.8 255.5 255.4 254.8 260.7 264.7 261.4 257.2 255.3 253.4 251.7 250.5 252.1 254.9 255.2 252.5 252.4 256.6 260.4 258.8 267.6 269.3 266.6 267.2 266.5 268.7 273.5 281.3 287.6 294 297.8 298.8 297.9 300.2 315.6 316.2 314.6 314.4 313 309.9 301.8 305.1 300.2 305.8 303.9 299.9 297.8 292.2 290.1 290.3 290.2 287.6 284.1 284.8 285.7 287 288.7 293.3 295.7 298.2 302 306.6 311.2 311.8 310.1 311.4 312.1 313.1 315.3 314.1 313.4 315 315.4 313.8 315.1 316.8 317 314.2 310.7 309.9 306.9 307.6 308.3 312.5 316.1 317.2 319.2 320.1 320.7 322.1 321.4 319.3 315.1
238.1 238.1 238.1 238.1 238.1 244 246.6 254.4 261.4 271.8 276 279.9 285.5 291.2 289.2 266.4 255 243.7 237.4 234.7 229 233.4 242.7 247 255.9 268.9 276.1 278.3 289.9 306.4 321.5 321.8 319.4 320.8 322.1 323.2 326.4 327.3 325.6 316.4 314.8 311.1 301.9 290.2 282.6 278.3 276.9 275.4 275.2 274.3 270.7 265.9 260.3 255.5 251.8 250.7 247.1 243.2 239.1 234.8 229.3 223.7 219.4 214.2 211.3 209.5 207.7 206.6 219.5 224 227.2 231.2 236.6 240.3 243.9 247.9 250.1 252.1 255.5 254.7 254.3 255.3 257.5 260 260.8 255.8 248.5 237.8 230.3 229.7 235.2 231.6 224.6 218.6 213.6 212.4 235.2 244.4 251.9 259.1 260.2 259.8 258.5 258.2 257.2 258.1 258.9 257.3 256.9 258.8 256.3 261 265.8 263.2 259.3 257.2 254.9 253 251.4 252.9 255.9 255.6 255.1 252 252.6 259.5 263.2 259.3 266.1 264.1 264.2 265.8 269.3 273.5 280.1 286.7 293.2 298 300.2 301.1 300.4 307.5 316.3 314.2 313.6 311.9 308.9 302.5 305.3 300.2 304.3 303.3 298.4 295.8 290.1 287.2 287.4 289.4 286.5 284.7 285.5 286.3 288 291 290.3 292 295.9 299.3 303 307.9 310.2 309.3 311.5 312.1 313.2 314.9 315.4 315.6 316.6 316.8 316.3 316.3 316.6 315.7 313.5 315 313.3 311.1 311.9 313.5 316.6 319.9 320.7 322.5 322.4 324.1 324.3 323.9 321.3 316.9
238.1 238.1 238.1 239 249 258.3 265 274.8 283.6 292.8 303.3 308.3 317.5 315.4 303.4 278.6 261.3 248.3 241.2 235.4 229.6 238.7 247.9 255.1 262.6 272.8 283.3 288.1 290.5 298.4 308.1 318.3 320.8 320 323.9 327.8 329.2 331 323.6 328.4 322.9 318.6 309.2 291.9 284.2 280.5 276.4 274.9 272.5 269.7 264.2 260.1 256.3 250.9 248.6 246.6 242.6 238.4 236.1 232.5 224.5 214.5 210.9 210.2 208.8 208.9 208 215.5 222.4 226.3 230.3 234.2 236.7 242.1 245.5 249.8 252 254.5 258.4 258.7 257.9 257.9 259.8 262.7 262.5 256.5 250.1 239.5 233.4 231.1 235.8 235.1 228.8 224.4 217.9 214.2 232.4 240.9 247.8 253.6 260.1 260.6 259.3 258.5 258.6 259.2 261.1 260.1 258.4 261.5 258.8 260.8 265.2 264.2 260.1 258.4 256.5 254 252.2 255.2 257.5 254.6 255.1 252.6 251.8 256.9 263 263 263.2 262.8 263.6 265.7 269 271.9 277.9 285.3 292.4 298.2 300.9 303.2 304.8 305.8 311.1 313 312.3 310.2 308.3 302.6 305.3 300.4 304.6 302.4 297.6 293 287 286.1 286.4 287.2 285 285.7 288 289.5 293 295.1 294.9 295.6 294.2 297.5 301.5 304.5 308.3 306.4 311.3 313.6 312.7 314.3 315 316 316.8 317.5 316.8 317.7 317.8 316.8 317.2 317.5 316.3 314.3 316.5 317.5 321.4 324.2 324.5 325.7 325.2 327.8 326.5 326.4 323.4 319.1
238.1 250.2 253.9 263.8 270.4 286.6 296.2 302.5 311.3 323.1 333.4 340.2 345.5 340.1 317 289.1 267.2 252.6 247 239 232.7 239.3 251.1 259.4 268.8 280.7 289.1 294.9 299.1 295.1 303.7 311 317.5 319.5 322.5 327.7 331.2 329.9 327.5 329.9 329.5 322 314.2 298.5 285.2 282.1 277.9 273.5 268.7 262.6 258.9 253.6 250.8 246 244.6 242.7 239.2 234.4 231.8 228.7 213 213.4 213.7 214.1 213.6 219.1 213.4 215 225.4 229.2 233.2 236.1 240.1 244.4 247.9 252 255.3 258.8 261.7 262.7 260.7 260.1 261.2 264.8 263.6 256.4 250.6 241 236.7 233 236.6 237.5 232.9 227.3 222 215.3 228.9 237.8 244.8 250.9 259.9 261.6 260.5 259.7 261.1 261.1 262.7 261.8 260.8 264.1 260.6 260.3 262.9 263.2 260.9 259.1 256 254.2 253.1 256.3 259.9 256.7 254.7 253.1 251.6 254.6 261.7 262.9 258.6 264 264.3 265.1 267.6 271.5 277 283.6 290.8 297.2 301.2 304.5 307 307.9 308.6 309.4 310 308.9 306.3 302.1 300.9 300 302.1 301.7 296.6 290.6 286.2 285.8 285.9 285.8 286 288.8 291.6 295.3 297.2 298.5 297.7 298.3 297.5 294.9 296.8 302.5 305.3 305.8 311 314.4 312 313.1 314.5 315.6 316.6 317.6 317.4 317.7 318.8 319.3 318.9 319.2 319.3 318.1 320.5 322.1 326.1 328.1 328.2 328.2 327.7 329 328.8 328.5 325.5 320.9
256.5 267.2 279.9 291 300.1 316.1 338.5 351.9 344.9 361.2 371.7 367.1 368.5 359.5 338.6 295 272.9 262 249.4 240.6 234.8 246.2 254.8 264.2 276.1 288.1 295.2 300.6 303.7 302 302.8 311.4 316.4 319.8 330.4 331.2 329.5 330.8 334.6 332.1 329.3 325.6 317.3 300.1 287.2 284.4 279.2 271.9 263.9 259.3 255.7 251.2 246.3 243.1 240.5 237.4 233.4 230.2 228.1 216.5 215.1 218.7 221 222 221.7 223.6 223.8 223.4 229.4 233.2 237.4 241.4 245.2 249.5 251.8 255.3 259.3 262.1 264.4 266.1 263.9 262.4 262.3 263.7 262.2 257.6 252 244.3 238.9 234.4 237.9 239.6 235.9 229.4 215.9 217 226.8 236 243.7 249 258 262.5 261.5 260.8 261.6 262.4 264.7 263.8 262 265.8 263.3 260 260.2 260.4 257.3 255.5 255.2 253.5 253.3 257.3 262 259.7 255.4 254.4 251.6 253.3 256 261.6 263 263.2 263.5 264.8 266.9 270.6 275.7 281.8 288.8 295.8 301 304.4 308.7 309.2 309.8 309.6 307.9 307.2 304.9 301.2 299 298.3 301.1 299.7 293.9 288.5 285.9 285.7 285.7 286.3 287.5 290.6 294.5 298.8 300.4 300.2 300.5 300 299.1 297.1 296.2 297.4 301.1 305.3 310.5 315.1 313.7 311.6 312.8 314.4 315.6 317.3 317.8 318.6 319.4 319.9 318.7 320.4 321.3 321.1 324 327.6 329.3 331.5 331.6 331 330.7 332.2 331.2 330.7 327.8 322.4
274.7 288.1 299.3 312.5 327 340.1 345.4 358.1 372.3 381.5 383.1 381 376.2 363.2 347.2 304 277.5 260.2 251.1 242.3 239.9 252 261.7 273.9 282.9 294 300.4 307 311.1 309.5 312 314.6 315.7 324.3 334.1 332.6 329.7 331.6 336.1 337 332.2 326.8 320.6 301.3 291.6 286.4 279.8 270 263.5 257.2 254.6 250.8 245 237.9 236.8 233 229.6 226.7 224.3 214.5 216.2 223.4 229.8 230.1 228.3 230.3 230.1 229.1 228.2 240 244.5 248.7 249.8 253.8 256.9 259 263.7 266.1 267.6 269.5 267 264.4 262.9 264.2 262.3 258.3 252.4 243.2 239.1 235.5 236.4 240 237.4 232.2 218.8 216.6 227.3 235.5 241.9 247.6 254.5 262.5 263.1 262.6 262.7 264 265.7 265.8 264.3 267.7 266.6 260.7 259.5 259.2 257.9 255.1 254.1 253.3 254.4 258.6 263.3 261.6 256.7 254.8 253.3 255.3 256.3 258.5 262.9 259.4 263.3 264.7 268.7 270.7 273.9 279.4 286.6 294 299.4 304.2 309 310.2 310.8 310.9 308.1 306 303.3 300.4 298.2 296.9 300.1 296.6 290.6 286 285.2 286.2 286.3 286.7 290.1 293.3 297.7 301 302.8 302.4 302.8 301.7 300.2 298.4 298.8 297.6 299 304.1 310.1 315.3 314.1 309.8 310.7 312.2 313.8 316.2 318.1 319.4 320.3 320.9 320.6 321.6 323.9 323.6 328.1 331.7 334.2 335.8 334.6 335.1 333.8 334.6 333.8 332.6 329.1 324.1
297.6 308.9 320.1 332.4 346.2 354.6 356.5 362.8 378.2 385.6 392.6 383.7 376.5 364.1 334.7 308.8 282.4 262.6 253 242.8 247.2 259.6 270.2 283.2 291.5 301.8 309.7 314 316.4 318.2 320.9 317.4 317.1 325.8 333.5 332.9 333.5 330.1 331.9 333.7 334.5 323.4 311.5 302.7 292.5 285.3 278.3 268.2 263.6 256.3 251.4 247.2 243 237.5 232.7 229.2 226.7 223 219.4 214.2 219.7 228.2 234 235.1 232.9 234.9 236 237.3 237.1 243 248.7 253.1 254.4 257.5 261.1 263.6 266.7 269 271.1 272.9 270.2 265.6 262.7 261.5 260.3 257 251.5 242.9 237.7 237.2 235.8 237 235.5 230.8 221.4 218.3 217.8 232.2 239.6 244.6 250.2 258.3 265.4 264.5 264 265.2 266.8 267.4 266 268.6 268.4 262.3 260.1 258.1 257.6 257 254.6 254 254.7 258.4 264.7 263.4 257.2 255.6 253.3 254.1 255.9 256.4 259.4 262.7 263.3 265.1 269.5 272.2 273.3 277.6 284.6 291.6 298.1 303.7 309.5 311.5 312.4 312.1 308.4 305.3 302.8 300.2 297.7 296 298.1 294.8 289.1 286 285.4 286.2 287.5 287.7 292.4 296.7 301.3 304.4 304.7 303.6 303.8 302.3 301.8 299.5 299.4 297.8 299 303 309.1 315.4 315.6 307.9 308.6 309.6 311.4 314.1 317.2 319 321 322 321.8 322.5 324.6 327 331.3 336 338 339.1 338 338.3 337.2 337.5 335.7 334.4 330.6 326.5
325.5 337.9 350.7 361.1 370.4 373 374.4 375.1 379.1 385.2 393.5 388.8 377.5 363.4 338.5 306.4 283.2 266.5 253.9 243.8 253.8 268.7 278.6 290.7 300.4 312.5 320.5 323.1 327.7 325.8 323.9 319.4 319.1 326.8 330.3 335.4 336.2 334.8 332.5 331.8 328.1 321.3 312.6 304.1 289.8 281.8 275 265.5 260.9 255.6 248.6 244.2 239 235 230.1 225.2 221.1 218.9 214.5 217.1 226.9 232.3 236.7 236.7 236.9 238.1 240 242.5 243.6 245.4 252 256.2 259.3 262 265.6 268.6 269.6 271.9 273.6 273.8 271.2 266.5 262.6 258.1 257 255.3 250.9 241.3 240 239.4 239.2 237.6 234.1 230.9 225.5 218.9 219 219.1 240.2 242.8 246.3 251.8 259.7 265.8 265.1 266.2 267.7 268.1 266.6 269.8 269.9 264.8 259.4 259.5 257.9 257.2 256.2 254.5 255.6 258.6 264.8 264.1 258.4 256.1 253.5 253 255.3 255.2 256.2 259.7 260 264.9 269.3 273.3 273.4 276.5 282.5 289.7 296.1 302.2 309.7 312.5 313.7 312.4 308.8 305.2 302.7 300 297.5 295.8 296.8 294.2 288.8 286.1 285.8 286.8 288 289.7 294.8 299.8 303.7 306.5 306.1 304.7 304.9 302.8 302 300.7 300.4 299.3 299 302.2 306.9 314.1 315.4 306.5 306.8 307.7 309.1 312.9 315.7 318.8 321.2 322.7 322.8 323.2 325.4 329.4 333.9 339.2 341.6 342 340.2 340.9 339.7 339.6 337.5 336.4 331.8 326.6
355 377 393.8 404.4 415.3 397 388.7 380.9 383.2 385.9 386.1 387.3 380 361.8 347.2 305.9 279.6 266.8 255.5 252.3 261.4 281.2 291.6 304.3 310.5 317.7 326.4 330.3 335.3 335.1 334.1 324.3 321.4 326.7 328.8 330.3 332.7 331.8 332 329.1 324.5 318.6 312.7 300.3 286 276.8 271.8 262.1 257.3 253.5 247 240.4 235.9 231.6 225.8 220.9 219.7 215.3 215.8 224.4 229.3 233.9 238.6 241.5 241 243.3 245.6 247.9 250.3 249.7 256.9 261.5 266.5 268.5 269.8 273.6 272 274.5 276.9 275.6 271.9 267.7 262.1 257.1 253.4 251 245.9 247 245.3 242.6 241.7 239.6 237.3 234.5 228.4 224.8 219.7 219.6 238.9 244 245.8 249.6 255.5 264.4 265.2 266.7 267.6 267.8 266.2 269.9 270.6 266.1 260 258.7 257.2 256.9 256.3 255.2 255.8 258.6 265.6 265.1 258.2 255.6 254.6 253.8 253.1 254 255.5 257.1 262.4 265.6 269.3 273.1 273.4 276.1 281.5 288.2 294.2 301.3 309.1 313.1 314.6 312.9 308.6 305.3 302.7 299.9 297.6 295.4 295.1 293.2 289 287.2 286.9 288.1 290.1 292.9 297.8 302.4 305.6 308.4 307.9 306.8 305.6 303.8 302.5 302.1 301.2 299.9 299.5 301.3 304.9 312.6 316.1 306.3 306.9 307.7 308.6 312.2 315 318.1 321.4 324.1 324.3 324.1 328 332.1 336.6 341.8 344.8 344.3 342.5 343.6 342.2 341.5 338.9 337.4 331.7 327.1
398.1 408.4 411.6 415.5 413.2 404.1 391.9 384.4 383.5 383.4 383.5 383.5 375.6 352.3 333.4 297.1 281.1 267.6 255.1 256.9 267.2 283.6 306.3 313.4 317.7 323.8 329.7 333 336 332.9 329.8 328.6 327 328.6 327.9 328.3 330.2 330.8 330.3 329.1 324.4 318.3 310.6 295.3 281.8 275 270 261.8 254.3 250.2 244 237.4 232.8 228.2 221.5 218.1 217.4 216.6 220 227.6 232.1 237 240.8 246 247.6 249.9 254.5 258 259.6 249.9 261.5 266.7 272.8 274.3 274.4 278 275.9 276.1 279 275.8 271.9 267.9 261.8 257.3 253.7 250.1 248.7 251.8 250.5 247.2 244.2 243.5 241.4 238.2 232.6 230 222.8 218.5 237.3 245.8 246.5 249 254.5 260.6 264.7 265.2 266.3 265.8 264.1 267.9 270 266.7 260 259 257.4 256.2 258.2 256.9 257.9 257.4 264.2 265.1 258 255 254.8 253.9 253.3 253.7 254.5 255.3 258 264.3 271.6 273.7 273.4 275.2 281.3 287.5 292.9 299.8 307.6 312.8 314.3 312.9 308.4 305 302.6 300.1 297.3 294.7 294.3 292.3 288.7 287.8 287.5 289.1 291.6 295.2 300.6 305.3 307.7 310.3 309.6 307.8 306.3 304.6 302.8 302.2 300.3 300.2 300 300.6 303.2 311.2 314.5 306.2 306.6 308.2 308.8 310.8 314.9 317.8 321.4 324.3 325.4 325.5 329.4 334.1 339.5 344.3 346.5 345.5 344.4 345.5 344.5 342.3 339.8 336.3 331.9 327.5
411.1 411.9 416.1 419.1 421.5 414.4 396.3 388.2 384.6 383.1 383 378.7 366.5 342.7 312.4 294.1 282.5 271 258.6 261.3 271 286.5 302.5 316.3 321.6 329.3 335.4 337.4 339.5 336.9 336.6 335.2 332.7 330.3 328.8 328.4 328.4 330.6 331.7 329.2 323.2 319.5 311 292.7 277.9 270.8 264.8 257.8 251.7 245.4 241.2 235.6 227.6 219.9 219.2 218.3 217.5 219.3 226.6 231.4 236.2 240.8 246 250.7 253 255 262.4 263.7 265.1 255 266.8 272 275.2 276.3 278.5 281 279.2 276.9 277.7 274.1 270.2 267 264.5 257.9 254.6 251.7 252.3 255.6 256.2 253.7 247.9 246.2 244.3 240.7 236.8 233 225.8 220.8 218.5 247.6 248.9 248.7 254.2 257.3 259.4 261 262.9 263.3 260.9 263.9 268.1 265.3 259.3 259.8 259.2 258.6 259.9 260.3 259.4 256.2 263.3 265.1 257.9 254.4 255.4 254.3 253.2 253.3 253.4 254.2 255.5 263.7 273.1 275.6 274.2 275.1 279.6 286.6 292.5 298.7 306.2 312.2 314.5 312.7 308.1 304.8 302.8 300.8 296.8 295.3 292.5 290.9 290.7 288.4 288.9 291.2 293.5 297.1 303 308 310 310.6 310.3 308.4 308.1 304.7 303.3 302.5 300.9 300.4 300.3 301.3 302.5 307.4 313.2 306.2 308.2 309.7 309.4 310.7 314.3 318 321.5 324.3 326.6 326.7 330.9 336.3 341.6 346.3 348.2 345.9 344.8 347.2 346 344 341 336.8 331.8 328
414 414.7 417.7 420.9 424.1 418 398.9 391.3 389.6 384.5 379.9 372.9 357.5 324.7 307.4 295.7 284.1 275.4 264.6 269.5 274 291 307.5 317.6 328.4 335.7 338.9 344 343.9 343.8 342.2 339.3 337.5 334.4 331.3 329.8 328.2 327.7 327.6 324.6 322.3 317.1 303.2 289.5 273.4 266.7 261.2 254.8 248.8 243.4 239.3 231.5 219.8 219.1 218.4 218.1 217.5 224.7 229.6 233.4 238.2 243.6 249.1 255.5 257.4 260.5 266.7 268.5 270.3 268.6 266 274.1 277.7 279 280.8 283.4 282.9 278.2 273.4 271.7 270.4 268.5 265.7 259.5 256.2 253.3 255.9 258.2 259.8 259.4 252.8 250.1 246.3 241.7 237.5 234.2 221.5 221.1 219 247 252.3 248.6 251.1 255.8 257.4 258.4 258 258.4 256.6 259.9 264.6 263.3 257.7 260.3 260.9 259.9 261.9 262.2 260 256.1 262 263.9 257.7 254.1 255.2 254.8 253.5 253.7 253.7 255.1 257.9 261.9 273.3 277 274.1 275.6 278.3 284.6 291.9 297.8 305.2 310.5 313.9 312.2 306.6 304.2 303.2 301.4 297.1 295 292.1 295.3 292.8 290.8 290.7 293.1 295.6 299 306.6 310.7 312.6 313.4 312.2 310.2 309.7 305.4 303.1 302.2 300.7 300.6 300.9 301.9 302.5 303.1 310.1 306.6 309 310.7 310.7 309.6 313.5 317.5 321.5 324.5 327.5 328.2 332 337.5 342.3 347 346.5 346.2 345.9 348.6 347.2 344.9 341.5 337.2 331.9 328.1
412.5 422.4 423.9 419 426.8 416.2 395.6 391.4 390.4 387.9 380 361 335.1 316.6 304.4 294.5 287.6 280.1 266.7 275 285.9 305.6 317.8 328.9 336.9 341.7 343.5 348.2 348.4 348 344.3 342.9 339.9 335.7 333.6 332.5 329.6 326.9 325.1 322.6 320 314.1 296.3 278 266.9 261.3 257 252.2 245.7 241.8 237.3 223.1 220.5 221.4 221.5 228.6 225.7 229.1 233.9 236.5 241.6 247 250.9 258.4 262.8 264.6 268.3 272.4 274.3 274.8 262.2 276.8 280.1 281.5 283.5 286.1 288.4 283.1 278.4 275.8 272.8 271.1 267.3 261.5 257.3 256 258.6 260.9 263.1 263.3 258.8 255.1 250.6 243.6 236.2 232.4 223.3 221 223.7 238.2 248.7 251.5 248.8 251.3 256.8 257.1 256 255.2 254 253.9 258.5 259.6 257 261.8 262.3 261.7 263.8 264.7 259.5 255.8 258.5 261.3 256.8 254.5 254.2 254.4 253.9 254.3 254.8 255.9 257.8 261.7 273.2 277.4 273.9 275.3 277.8 283 290.3 296.8 303.5 308.9 312.3 310 307.2 303.9 303 301.3 296.8 295.1 293.5 296.3 294.7 291.6 292.5 295.1 297.8 301.7 308.9 312.9 314.4 315.8 314.4 311.5 309.2 306.3 304.2 302.8 301.5 301.2 301.4 302.9 303.2 303.6 304.6 309.8 311.5 311.8 312.1 309.4 313 317.1 321.3 324.7 327.7 329.1 332.2 337.8 342.4 346.1 346.1 346.3 346.8 350 347.4 345.2 341.3 336.1 332.3 328.8
413.8 417.4 424.3 423.1 417.7 415.4 398.1 392.9 389.6 380.9 368.8 354.5 343.4 321.8 304.6 294.7 287.2 279.6 268.7 281.9 297 311.7 326.8 338.5 343.2 347.3 351.3 355.4 355.3 351.9 350.1 346.3 340.8 338.2 337.5 335.8 331.2 326.7 324 322 318.8 306.4 288.4 268.8 260.6 256.6 253.2 249 245.2 239.8 230 221.4 221 222.8 222.6 226.9 228.8 232.5 236.6 240.6 244 249.5 256.2 262 265.3 267.7 272.3 275.2 277.9 277.6 263.8 277.2 281.2 283.5 286 289.2 291.8 287.4 283 278.4 274.9 272.5 267.8 262.6 258.1 258.2 260.7 262.7 265.8 267.3 261.8 256.9 250.9 244 235.7 231.4 221.7 224.2 231.5 231.5 242 247.9 250.1 250 251.7 253.8 253.9 253.5 252.4 252.3 253.5 255 258.4 262.4 263.1 263.1 265.3 267.2 261 255.9 255.7 257.9 254.8 253.7 253.6 254.2 254.6 253.8 255.7 256.2 257.6 261.5 272.1 278.1 274.8 274.1 278.2 281.6 288.5 295.2 301.7 307 310 308.9 305.9 303.7 302.8 300.7 297.2 294.9 293.6 296.8 296.6 294.5 294.9 298.3 301 304.7 312.3 316.5 317.1 317.8 316.2 314 310.4 308.2 305.1 303 302 301.6 302.4 304.5 306.7 308.6 309.8 312 313.2 313.2 312.8 309.5 312.3 316.6 321 324.6 327.9 330.1 331.9 337.8 342 344.4 345.2 345.8 348.5 349.9 347.7 345.4 341.5 336.7 333.3 330.8
412 413.4 420.2 418.7 413.2 405.5 393 387.1 381.5 376.1 370.3 362.8 344.3 322.9 306 293.5 283.4 271.4 277.9 290.4 307.5 321.1 330.9 344.9 350.5 352.2 355.6 360.5 360.1 354.9 351.8 348.7 344 342.3 341.9 340.6 332.5 328.4 324.1 317.5 312.8 305 279.1 263.1 255.6 252.4 249.1 246.9 242.9 238.2 231.7 221.6 222.1 222.3 223.5 227.7 230.9 234.4 238.6 245.4 249.7 256 262.2 267.2 269.9 272.1 275.5 279 281.4 279.1 270.9 278.7 283.5 285.6 288.7 291.2 293.4 291.5 287 280.4 276.6 273.6 268.5 264.4 259.6 258.8 261.5 264.2 267.7 267.8 263 257 251.5 244.9 236.5 227.3 224.6 232.7 236.6 237.1 238.9 244.3 247.4 251 253.6 251.8 251.7 251.1 251.2 252.4 253.5 256 260 262.4 262.7 263.3 265.1 267.9 262.9 257.7 255 255.3 254.4 252.9 254 254.7 254.7 255.1 255.7 257.5 258 260.5 271 277.2 275 273.2 278.6 280.8 286 293.3 299.2 304.2 307.1 307.1 304.5 303.3 302.5 301.4 296.7 294.4 294.1 298.1 297.9 296.9 296.9 300.6 303.4 307 314.6 318.2 319.1 319.8 318.1 315.2 313.7 311.2 307 304.1 302.9 302.4 303.6 306.4 308.5 310.7 312.9 313.8 314.2 313.8 313.6 309.9 311.6 315.9 320.3 323.6 326.6 329.5 331.4 336.4 340.9 342.8 344.6 345.7 350.6 349.8 348 345.1 342 339.1 335.7 333.2
406.5 413.6 410.6 411.1 407.8 400.1 391.2 385.1 381.4 376 369.9 361.3 343.2 322.4 305 294.5 277.8 285.7 293.2 299.9 315.4 329.7 341.9 348.4 354.2 357.1 363.7 368.3 364.8 358 354.5 351 348.7 344.9 343.9 340.1 334.9 326.9 324 314.5 298.4 290.1 268.6 254.6 251.3 248.3 245.3 243.6 241.7 236.9 225.5 221.8 222.7 224.3 225.1 228.3 232.5 236.7 243.1 251.2 258.7 264.9 270.8 272.9 273.4 276.4 278 281.5 282.5 279.4 275.7 281.1 284.8 287.5 290.2 292.6 294.1 294.4 290.2 283.6 277.9 273.7 270.2 267.2 263.7 259.8 262.1 265.2 268.4 266 262.6 257.4 251 245.1 237.3 223.2 227.2 236 240.3 241.7 242.1 247.4 250.1 249.1 251 252 249.8 250 251.2 252 253.3 256.6 260.6 263 263.6 263 265.3 268.9 263.9 259.9 256.1 254.5 253.5 252.8 252.7 254.7 255.5 255.6 256.9 258.2 258.7 260.3 268.4 276.3 274.2 272.2 275 281 283.8 290.5 296.9 301.2 304 304.2 303.6 303 302.3 301.2 296.9 294.8 294.6 299.4 298.5 297.2 299 303 305.8 309.7 316.5 321.2 321.5 321.1 319 318.3 316.6 313.9 309.8 306 304.7 304.2 305.6 307.9 310.5 313 315.5 315.8 315.2 314.5 312.4 310.1 311.7 315.9 319.7 323 325.8 328.8 329.9 333.4 338.3 341.5 343.2 343.7 351.4 350.2 348.2 346.3 344.2 341.2 337.9 334.8
404.2 407.2 407.3 410.5 409.3 400.9 389.6 380.6 376.2 370.9 364.7 354.6 344.3 318.3 306.9 291.4 285.7 296.4 303.3 310.5 326 339.2 348 354.7 359.9 362.4 372.2 374.8 371.4 362.1 358.4 351.8 347.8 346.6 342.3 338.3 334.1 326.2 320.9 311.7 292.9 273.6 255 247.5 246.3 243.9 241.6 240 238.2 227.3 222.4 225.3 228.2 229.1 229.8 231.6 235.4 240.6 250 259.3 266.8 275.6 277.5 278.8 279.5 280 280.7 282.8 283.1 275.8 280.6 283.5 287.5 289.4 290.3 292.9 294.8 295.6 293 287.1 280.2 275.8 271.1 267.5 264.7 262.9 263.5 266.6 268.5 264.9 261.2 256.9 252.3 244.9 238.9 224.3 231.7 237.9 241.9 244 244.8 249.9 253.4 251 249.5 250.2 249.2 249.2 249.8 250.9 253.6 256.6 260 262.4 262.7 262.8 265.5 269.5 264.8 260.7 258.2 255.7 253.6 252.5 252.4 255.2 255.5 256 256.9 259.7 260.5 260.6 264.8 273.1 272.4 271.2 274.6 277.4 281.4 286.5 293.3 297.7 300.3 301.6 302.3 302.4 302.1 300.9 296.7 295.3 295.4 300 300.1 298.7 301.1 306.2 308.7 312.2 319.6 323.8 324.2 323.9 321.7 321.6 318.4 316.1 312.5 309 307.2 306.6 307.7 309.7 312.7 316 317.8 317.3 316.4 315.4 313.9 310.3 312.5 315.8 319.4 321.7 324.3 326.7 326.9 330.4 335.3 338.8 342.1 343.1 349.7 350 348.4 347.6 345.9 343.2 339.5 336.5
401.2 402.4 402 402.3 402.4 395 384.4 377.1 375 368 359.1 342.8 327 314 300 287.3 296.8 303.2 309.6 323.5 339.2 351.7 358.5 362.1 364.2 366.4 376.2 377.3 375 366.5 361.8 355.7 352.3 347 345.1 339.7 334.3 325.6 316.5 304.6 290.6 267.8 251.2 244 241.4 239.6 238.2 236.9 234.4 223.4 225.9 227.2 231.3 233.7 236.7 237.9 240.6 248.6 258.1 267.4 274.9 281.6 283.4 284.3 285.1 284.3 282.9 283.9 283.8 272 283.1 285.3 289.6 290.1 289.7 292.4 295 297.2 295.8 289.6 284.9 279.2 272.9 268.9 266.1 265.4 266.4 266 268.3 265 260.2 256.5 251.3 244.5 235 226.4 233.7 239.3 243.6 245.5 246 250.8 255.1 252.9 248.2 248.1 249.1 249 249.2 251.6 254.2 256.3 258.7 261.1 261.8 261.9 264.7 269.2 265.2 261 258.4 256.8 255 252.9 253 256.3 256.6 256.1 257.2 259.9 262 261.6 265.3 266.3 266.2 270.6 274.3 275 279.7 285.1 288.1 292.4 296.3 298.7 300.3 301 300.8 300.5 296.6 295.6 295.6 301.6 302.2 301.3 303.7 308.7 311.5 314.4 321.7 326 326.7 326.3 324.6 324.1 320.9 317.4 314.7 311.2 310.5 310.3 311.2 313.2 315.4 318.1 319.7 319.8 318 316.5 314.8 310.2 312.2 315.9 318.4 320.2 321.2 322.1 323.1 327.2 332.3 335.3 339.4 341 346.4 350.6 350 349.3 348 345.3 341.8 338.4
396.8 397 395 395.2 390.7 385 376 368.7 363.5 356.4 345.3 331.5 318.2 308.2 295.4 294.2 303.4 310.5 321.1 338.8 353.4 363.4 371.1 373.3 371.7 374.4 377.1 378.5 374.7 370 364.3 359.2 355.2 350.5 346.7 346.2 335.8 328.6 317.7 306.4 285.3 264 248.4 240.6 238.3 237.2 236.2 236.6 235.9 224.5 226.4 228.1 233 236.1 240.5 244.4 247.5 256.4 267.6 278.8 284 286.9 289.4 288.8 289.2 288.1 284.6 285.3 284.1 274.2 285 287 291.3 290.4 289.6 293 296.2 298.9 296.6 292.1 287.8 283.8 276.8 271.4 268.6 267.8 269.6 267 266.3 264.5 259.9 255.1 249.8 243.3 234.4 226.7 233.9 240 244.5 244.1 246.5 250.6 254.8 254 248.2 247.1 249.4 249.1 249.3 251.8 253.9 255.4 257.4 259.3 260.1 260 263.8 268.5 264.2 261 259.3 257.1 254.6 252.9 252.1 256.8 257.1 256.6 255.8 258.6 260.9 261 262 263.8 265.8 272.6 277.1 274.2 277 283.1 284.3 286.7 290 294.3 297.8 298.8 298.9 298.8 297.3 296.4 297.9 302.8 304.1 303.6 306.4 311.5 313.9 317.1 324.1 328.2 328.6 328.4 327.7 326.5 322.8 320.5 318.3 314.5 315.3 314.5 314.7 316.5 318.4 320.9 322.3 322.1 320 317 315.3 310.7 309.9 314.9 316.5 317.3 318.3 319.1 320.9 324.4 328.6 333 338.2 341.9 342.2 350.2 351.2 350.6 349.8 347.1 343.6 340.5
393 391.4 387.8 382.7 378.5 375.2 366.1 361 353.9 344.6 332.4 323 316.2 306.2 297.7 304.2 314 322.4 337 353.3 367.2 374.9 383.6 384.1 381.4 377.7 376.9 377.1 377.3 372.8 367.7 362.5 357.4 353.7 348.6 344.9 336 327.7 315.5 299.7 277.5 260.7 244.4 237.6 236.1 236.3 236.2 236.7 235.8 235.3 225.8 226.1 234.4 238.5 243 247 253.1 266.2 279.2 287.1 292.1 293.9 292.5 292.3 293 290.6 286.3 285.3 282.4 279.4 286.3 287.8 290.5 290.5 289.8 293.5 296.7 299.7 295.9 292.3 289.1 285.2 277.9 274.1 270.9 270.5 273 270.9 264.7 262.2 259 253.2 247.5 241.5 236.3 226.2 230.8 239.4 242.9 242.4 245.5 250.2 253.8 252.6 247.5 245 246.3 248.1 248.7 251 253.6 254.4 255.9 257.4 258.2 258.7 261.5 267 264 260.9 259.1 256.3 254.1 253.1 252 256.6 259.3 254.2 254.3 257.3 259.4 260.4 261.7 261.6 265.5 273.1 278.6 273.9 273.9 278.5 282.5 283.6 286.3 290.2 294.4 295.4 295.8 296.7 297.6 296.4 298.8 304.4 305.4 305.2 309.7 314.5 316.5 319.3 325.9 330.6 331.1 330.6 330.2 329.1 325.3 323.2 321.4 320.4 320.2 319 319 320.6 322.8 324.1 325.1 324.1 321.9 318.3 315.4 311.2 311.1 311.7 314.2 315 317.1 317.8 319.9 323.1 327.5 332.3 337.1 342.6 342 349.4 352.3 351.4 351.3 349 345.9 343.1
391 383.1 378.6 374.6 368.4 365.1 358.9 351.9 343.2 332.9 326.8 320.7 314.7 304.2 306.4 318 326.5 339.6 353.6 369.6 382.5 389.9 392.4 390.5 387.4 383.8 377.5 374.1 375.8 373 369.8 365.8 360.9 355.2 349.7 344.5 335.6 328.5 313.2 297.5 275.6 258.6 242.8 236 235.4 235.3 234.8 234.5 235.9 235.9 230.3 226.6 230.9 239.8 244 249.1 260.4 276.7 289 294.2 298.9 298.5 295.7 293.9 292 291.4 287.5 285.5 281.3 275.7 286.8 288.7 291.3 288.3 289 293.8 296.9 299 296.1 292.9 290.1 286.4 279.3 276 273 272.5 274.4 271.9 266.3 263.5 259.5 253.8 249.1 240 236.5 232.6 228.5 237 239.3 240 243.8 248.7 253.4 251.5 247.2 243.5 243.8 244.2 248.2 250.5 253.3 254.4 254.7 255.5 255.6 256.7 259 264.8 262.2 259.3 258 255.5 253.4 251.5 250.8 255.9 259.9 255.3 254.5 255.9 258 260.3 261.4 262.5 265.2 273.4 278.8 273.3 271.6 274.4 277 281.6 284.3 287.6 290.4 292.5 292.5 294.2 298.1 298 301 305.6 308.1 308.1 311.8 317.5 319.5 322.2 328.8 333.2 333.7 332.4 333.2 332.1 328.7 325.3 323.9 324 324.8 324.4 323.6 324.2 326.9 327 327.5 325.5 322.2 318.5 315.4 311.4 311.3 311.4 310.6 303.8 312.6 316.5 318.9 322.4 326.7 330.8 336 342.1 341.4 347.1 354.4 352.8 351.6 350.4 347.4 345.1
381.1 376.8 370.7 367.9 361.1 355.6 350.2 343.4 336.7 329.3 320.9 311.8 312 315.6 320.8 330.6 339.9 359.1 371.5 391.7 400.4 401.4 402.3 395 388.9 384.1 379.1 372.9 370.9 369.4 369.5 368.1 363.4 357.6 349.9 345.8 334.9 323.5 311 293.6 271.7 255.3 242 236.4 234.5 232.3 229.3 229.8 233.9 234.9 229.8 227.5 234.8 239.7 244.3 254.1 267.6 284 296.1 300.7 300.7 297.3 297.3 295.5 293.2 292.3 288.7 284.7 277.7 277.3 285.3 289.6 289.3 287 287.9 293.4 297.1 297.9 295.7 292.7 289.9 286.9 281.2 278.7 275.8 273.6 274.6 271.5 267.9 264.4 259.9 255.6 247.6 245.3 242.3 236.9 228.6 230.2 234.2 238.3 243.2 247.6 252.3 250 245.5 241.4 240.8 242 247.5 251.6 253.4 253.9 253.9 254.1 253.6 255 256.8 262.1 259.1 257.3 255.6 253.9 252.5 250 248.7 255.1 259.5 256.2 254.9 254.7 257.5 260.6 261.4 262 265.8 272.9 279.5 273.3 269.6 271.5 273.7 277 281.6 285.2 288.3 290.7 292 293.7 298.6 297.6 302.4 307.6 310.6 310.7 314.5 322.3 322.8 324.7 329.8 335.5 335.6 335.2 335.5 334.5 332.9 329.3 327.8 328.7 329.1 330.1 329.2 328.4 329.9 331.1 330.4 327.9 323.3 319.1 315.3 311.7 309.6 303.8 303.8 303.8 310.8 316.1 319 322.1 325.4 329.4 334.8 341.9 342.6 345.7 354.5 352 349.3 345.7 343.4 340.3
366.8 362.9 361.3 356.6 352.3 348.1 342 336.5 332.2 328.3 318.9 321.2 322.8 329.8 338.3 348.9 361.1 375.5 388.3 403.3 409.7 409.6 404.2 397.1 390.9 387.5 381.2 376.5 370.9 369.6 368.6 366 361.1 356.5 349.8 343.6 334.5 325.5 311.9 296.5 272.6 253.7 239.6 235 232 230.5 229.7 229.3 233 232.5 229.7 227.1 235.6 240.4 247.2 259.5 275.6 293 302.3 306.1 304 301.4 300.3 298 295 293.2 289.8 282 279.4 279.5 284.6 290.5 286.6 287.4 289.4 294.8 297.3 296.7 295.1 291.9 288.9 285.7 283.4 282 278.1 275 273.8 271.3 268.4 264.6 259 251.1 250.6 247.3 242.3 240.9 230 230.1 231.3 236.1 241.5 245.8 249.3 247.6 243.7 237.1 235.5 240.3 244.8 251.3 253.1 253.9 253.6 253.8 251.9 250.5 252.9 257.9 255.8 258.3 255.4 249.9 247.8 246.8 246.6 254.5 257.5 255.2 255.3 254.5 257.3 258 261.7 261.4 264.9 272.6 279.3 273.3 268.1 269.3 271.4 273.4 275.6 279.6 286.5 289.8 291.8 293.5 299.1 297.6 303.5 309.1 312.8 313.6 317.5 324.8 325.5 327.2 332.9 337.5 338 337.1 337.8 336.6 336.6 334.2 332.2 333.2 334.7 334.8 333.8 332.4 333.7 334.6 332.8 329.2 324.7 318 303.8 303.8 303.8 303.8 303.8 303.8 303.8 316.3 319.4 322.4 325 328.5 334.5 341.1 344.1 344.4 349.5 349.1 345.6 342.2 338.9 336.9
357 349.2 344.9 344.2 342.5 339 333.4 331.1 330.7 326 323.2 330 336 344.6 355.1 372.7 380.1 386.8 396.8 404.7 410.5 409.3 405 395 393.6 383.3 376.9 373.6 371.3 369.6 368.9 368.2 363.4 357.3 350.8 345 335.2 324.7 313.5 296.6 273 253.8 240.8 233.7 230 230.1 230.8 230.1 230.4 228.8 228.3 228 235.6 241.9 252.6 265.3 283.4 293.9 308.2 310 307.8 306.5 302 301.2 298.1 292.7 289.7 281.9 282.1 284.2 287 288.9 290 292.1 292.2 294.9 296.5 294.6 292.4 290.4 286.8 285.7 286.2 283.4 278.5 274.9 273.2 271 267.9 264.9 260.7 256.3 252.4 248.5 244.3 243.5 240.9 231.9 229.7 232.2 238 241.5 244.2 243.8 241.2 234.2 235.3 237.6 242.9 250.3 252.8 253.3 253 253.4 250.9 248.4 249.5 253.3 255 259.3 257.9 250.7 245.6 243.9 244.8 251 254.7 252.7 254.2 254.3 253.8 257.7 259.2 260.5 263.9 270.9 278.6 272.7 266.3 267.5 269.7 271.9 273.4 278.1 283.8 288.5 292.5 294.9 299.2 298 304.1 310.2 314.3 316.5 320.8 327.2 327.8 329.1 335 339.3 339.7 339.4 340.1 341.4 340.4 337.8 335.7 337.5 339.5 339.5 338 337 338.5 338.4 336 331.6 316 305.8 303.8 303.8 303.8 303.8 303.8 303.8 303.8 316.4 320 323 325.5 328 334.1 341.4 345.6 344.6 347.4 345.2 342.4 338.8 336.9 334.3
350.3 344.1 339.3 334.1 331.9 329.6 328.2 328.1 327.5 327.8 334.6 343.5 353.3 361.5 373.8 385.7 397.1 398.8 404.8 410.1 413.6 407.5 402.8 392.7 388.2 383.3 378.1 375.4 373 370.5 369.3 369.6 364.9 359.1 353.5 348.4 340.4 330.7 317.4 294.9 271.9 253.8 240 232.4 230.5 230 231.9 230.4 230.8 234.5 233.6 229.6 237.4 245.6 258.6 271.9 290 300.8 305.3 313.3 314.9 310.5 304.5 303.2 295.5 290.1 284.6 284.1 285.9 287.5 290.3 292.6 294.9 296.6 295.3 295.2 296.2 296.5 292.6 291.1 289.7 288.9 288.9 284.5 279.5 275.2 273.5 271.7 270.6 265.7 262 257.5 253.5 249.6 246.7 244.2 241.8 235.1 234.6 232.2 230.9 237.5 239.1 238.7 235.2 233.3 233.7 234.9 239.8 246.5 250.6 252.2 252.5 253 250.4 248.1 247.8 250.5 255.4 260.2 259.4 250.6 244.8 243.2 243.9 245.8 250.3 249.5 253.2 253.5 252.2 253.5 255.9 258.8 262.6 267.4 274.2 271.5 265 266 268.1 272.1 273.3 275.8 281.9 287.1 291.7 295.9 298.6 299.2 307.1 311.6 315.5 318.1 322.9 329 329.6 331.2 336.7 341 341.5 341.2 342.1 345.1 344.8 341.7 339.8 341.7 343.8 343.9 342.2 341.2 342.8 341.9 337.9 320.9 312.8 304.6 303.8 303.8 303.8 303.8 303.8 303.8 303.8 317 320.1 323.9 326 328.3 333.1 341.6 348 346.5 349.2 347.2 343.1 339.8 336.5 334.4
343 338.1 333.5 331.1 328.9 327.9 327.2 326.5 328.5 335 347.8 362.3 372.3 381.3 392.1 403 409.6 410.9 412.5 410.6 414 412.2 405.7 397.3 392.5 385.6 382.3 381 377.3 371.8 370 368.5 360 357.3 354.2 347.7 344.7 339.7 326.4 299.5 272.8 253 236.9 230.6 230.1 232.4 234.1 232.4 236 239.4 236.3 231.5 239.1 250.6 263.7 279.8 297.1 311.2 313.9 320.3 320.2 314.1 306.1 302.9 299.9 294.9 289 289.8 289.6 291.2 293.9 296.4 299.1 301.2 298.8 295.4 297 299.9 297.1 295.3 294.6 293.2 290.1 283.9 279.6 275.5 274.9 275.1 273 268.1 262.9 261 255.4 251.3 248.4 244.8 242.2 239.6 237.5 235.9 234.6 232.2 232.9 232.5 232.9 232.5 232.5 233.2 233 242.9 248 251 252 251.7 250.3 248.3 247.3 248.3 254.8 260.2 259.5 251.5 245 242.9 243.2 243.8 244.2 247 252 252.5 251.4 251.9 252.6 255.4 261.2 265.4 273.8 269.3 264.1 268.2 271.3 269.5 271.1 274.2 279.6 285.1 291.5 297.4 298.7 300.5 308.3 313.6 317.2 319.9 325.8 331.6 332.3 333.5 338.4 342.5 343.5 344.1 344.8 348.4 348.7 345.8 344.2 346.4 348.4 349.1 346.8 345.8 346.3 345 339.6 324.1 320.7 307.5 303.8 303.8 303.8 303.8 303.8 303.8 303.8 315.1 322.4 325.2 327.3 329.3 332.5 341.1 348.1 348.8 350.6 348.4 343.6 339.7 336.1 333.1
338.2 336.9 332.9 330 328.9 328.6 328.8 331.6 338.1 340.9 361 375.8 385.8 393.8 405.3 413.4 418.2 416.7 418.5 417.2 416 411.5 406.5 399.8 396.7 387.7 382.8 382.6 378.3 372.4 369.1 366.9 358.6 355.2 352.5 352.3 348.8 346.2 328.4 301.3 272.4 254.5 234.9 231.8 231 233.6 234.6 234.4 238.7 242.7 238.1 234.7 243.8 255.2 272.8 291.7 308.4 315.1 321.7 324.8 321.7 314.8 307.6 304.1 304.8 300.3 294.3 295.4 293 296 299.7 301.8 305.3 305.6 302.7 298.4 299 302.1 301.5 300.8 299.4 295.6 291.2 284.8 279.9 276.9 277.8 278 275.2 270.8 265.7 262.9 260.2 256.5 250.4 246.4 244.1 239.8 240.9 239.8 235.2 237.7 232.4 233.5 237.2 237.5 237.5 237.6 233.5 233.2 245.7 248.5 250 250.8 248.7 247.4 247.2 250.8 254 258.8 258.7 252.3 244.1 242.8 242.8 244.1 243.8 245.7 251.3 251.5 250.5 249.8 251.1 253.6 257.5 263.1 267.8 265.2 264.2 268.6 272.7 274.3 271.5 273.3 277.1 283.4 291.4 298.2 300.6 301.4 308.9 315.1 318.9 323 328.3 332.7 333.3 335.3 340.2 344.1 345.8 346.5 347.8 352 353.4 350.8 349.7 352 354.6 354.3 352.2 349.7 349.5 346.9 338.8 324.4 322 308.7 305.7 303.8 303.8 303.8 303.8 303.8 303.8 317.3 324.7 326.6 328.8 330.9 331.9 342.2 349.9 350.2 350.7 346.3 342.8 338.8 335.5 332.4
336.7 333 331.3 329.9 330.7 331.6 336.7 346.2 354.9 363.6 367.3 372.9 395.6 404.4 407.5 411.7 417.8 415.1 417.3 417.9 417 411.4 404.2 400 395.5 389.7 383.9 379.2 375 370.8 367.1 364.8 356.8 353.7 351.6 352.8 350.1 343.6 335.6 306.5 272.1 254.1 238.3 232.8 230.8 232.3 232.7 234 239.7 242.5 238.5 237.9 247.2 263 283.9 301.4 316.5 321.8 320.1 321.1 320.4 310.5 306.1 311 308.8 304.9 300.7 300.2 298.7 302.9 307.8 307.5 311.8 310.5 306.6 302.3 300.2 304.1 305.7 305.2 301.2 296.7 291.9 286.1 281.9 279.9 280.4 280.4 278.5 273.3 268.3 265.4 262.2 258.9 254.9 250.3 245 242.6 242.9 238.9 240.7 237.8 237.8 240.7 240.9 240.9 239.3 239.4 240.7 233.6 234 247.2 248.4 249 246.8 246.5 246.1 250.6 253.2 257.8 258.2 252.2 243 241.8 243.2 246.5 246.5 244 247.9 249.1 246.4 248.9 250.3 251.8 255.2 260 263.6 262 264.8 270.1 273.8 275.2 272.1 272.9 275.1 281.8 289.9 297.9 301.6 301.5 309 316.2 319.9 324.6 330.8 334.7 334.1 337.4 341.2 345.2 348.6 350.5 351.8 357.7 360.8 359 358.1 357.9 358.3 357.5 356 354.9 352.1 345.5 328.3 325.2 322.6 315.4 303.8 303.8 303.8 303.8 303.8 303.8 303.8 303.8 326.8 327.3 329.3 331.7 333.2 340.7 348.5 350.7 348.4 345.3 341.6 338.2 334.8 331.6
333.5 332.6 332.4 334.1 336.3 340.4 345.2 357.7 369.3 376 389.9 389.2 397.6 406.9 410.6 411.2 408.6 406.6 410.9 411.6 410.3 407.4 404 397.9 392 388.2 384.3 377.2 372.6 369 365.6 363.5 359.8 356 350 347.8 345.6 347.8 342.2 320.2 274 253 242.1 235.3 232 230.5 230.7 234 239.9 242 238.4 242.1 253.2 273.2 295 312.2 321.2 324.6 320.8 317.2 312.9 308.6 307.6 308.5 315.9 309 306.4 307 309.1 308.4 312.3 314.6 317.4 314.9 310.9 304.6 301.8 305.2 306.9 306.5 301.9 296.4 292.1 287.2 282.8 281.4 282.9 283.9 282.1 276.7 271.4 268.1 264.9 260.2 256.1 253.1 249.7 244.4 242 240.2 240.1 240.1 244.7 246.5 246.3 245.7 245.3 245.1 244.2 238.6 233.7 235.6 246.2 246 244.2 244.2 244.3 250.1 251.2 254.8 256.5 250.8 243 241.6 244.2 247.8 248.9 247.5 244.4 244.7 244.9 245.9 248.3 250.5 253.8 260.5 261.6 260.9 265 270.6 274.6 275.7 272.7 271.8 273.1 280.6 287.9 297 301.7 301.8 306.1 316.5 321.1 325 332.4 336 335.4 338.7 341.5 346 352.9 354.8 357.3 363.3 363.4 362.2 361.8 362 362.5 359.1 355.8 354.8 352.7 344.3 332.6 326.7 320.5 304.8 303.8 303.8 303.8 303.8 303.8 303.8 303.8 303.8 329.2 329.1 330.9 332.5 332.8 337.4 344.5 347.5 346.1 343.3 340.2 336.9 333.3 329.8
336.7 338.2 341.3 344 346 351.9 358.4 365.3 377.2 389.8 393.9 392.6 395.5 404.4 410.2 414.4 412.8 405.6 404.7 404.8 404.9 404.5 403.6 397.7 389.5 383.9 380.5 375.3 373.8 372.7 373.1 368.6 360.6 358.9 351.9 350 344 339.8 333.2 300.5 275.4 256.2 245 237.2 232.6 230.8 231.1 234.6 240 241.5 239.8 244.6 261.1 283.5 306.4 319.7 327.6 326 322.7 318.7 314.4 312.9 311.1 309.8 310.6 312.5 312.6 312.4 315 310.4 315.8 321.7 322.8 318.6 315.7 308.7 303.9 305.8 307 307.5 302.8 296 291.5 287.7 284.1 283 285.1 286.7 284.9 281.3 277.2 271.9 268.3 261.6 257.4 254.7 250.5 246.6 242.8 241.5 240.4 244 246.7 248.8 250.9 253.4 253.6 249.2 247.5 244.6 234.8 233.1 238.7 242.1 241 240.8 243.9 251.4 250.7 251.8 253.4 248.3 241 246.4 248.1 249.8 249.4 248.9 246.5 244.8 244.9 245.2 246 248.3 251.6 260.4 257.8 260.7 264.1 270.7 275.1 275.6 273.1 272.1 273.3 277.6 284.8 294.3 301.5 304.7 301.4 315.8 320.7 325.9 332.4 336.4 336.3 337.7 341.9 348.9 356.9 357 361.7 366.6 366.4 366 366.2 362.7 361.6 358.8 356.2 354.5 351.2 344.6 332.7 321.9 308.1 305.8 303.8 303.8 303.8 303.8 303.8 303.8 303.8 303.8 331.7 330.8 333.2 334.2 333.3 334 340.7 342.6 342.5 340.2 337.2 334.1 331 326.2
342.6 346.6 354 354.5 356.8 363.2 371.4 377.1 386.9 389.7 394.3 392.7 394.7 401.2 409.8 407.9 405.6 403.3 401.1 401.5 399.3 399.9 396.3 390.4 389 385.9 379.2 376.3 376.4 380.5 377.2 373.6 367.2 366.8 364.8 354 349.1 342.6 338.5 306.3 280.2 265.7 252.9 241.5 232.2 231.1 231.1 235.3 239.7 240.1 242.9 249.2 266.2 290.3 310.2 326.4 334.7 330.5 326.7 323.3 319.7 317.8 315.9 315.9 314.5 319.6 318.9 320 319.7 313.6 320.9 325.3 326.7 322.4 318.4 311.2 306.3 305.8 306 305.5 301.8 296 290.9 288.1 285.1 284.9 286.7 288.6 285.8 283 279.4 275.6 271.5 265.5 261 256.7 250.6 246.7 242.9 242.3 242.1 245 247.9 251.2 253.9 258 256.2 252.2 249.7 246.4 237.3 233.8 234.4 240 238.9 237.9 241.7 249.9 250.7 249.2 249.8 244.1 241.8 248.7 252.3 251.9 250.9 249.5 246.6 244.7 245.1 245.5 245.9 247.9 250.7 255.9 256.2 260.4 263.9 270 274.8 276.2 272.8 271.8 272.8 276 282.3 291.9 300.2 304.6 301.6 312.4 318.7 325.2 331.1 332.8 336.8 337.8 340.9 351.9 360.3 359.1 365 369.9 368.8 367.5 365.8 361.5 359.4 356.5 354.5 352.6 349.8 342 330.4 313.7 309.9 306.9 303.8 303.8 303.8 303.8 303.8 303.8 303.8 303.8 334.1 332.7 334.6 335.6 335 334.6 336.2 336.9 336.6 334.1 331.5 328.8 325.6 321.5
355.8 352.9 361.5 364.1 368.8 375.8 385.2 388.8 395.5 395.7 395 394.6 399.5 399.6 404.9 407.6 410.9 408.1 404.2 401 399.1 397.9 396.7 391 386.2 383.2 379.6 377.1 378.1 382 381.9 378 367.6 366.8 371.5 362 350.6 343.8 331.1 310.3 287.8 269.8 257.8 244 233.6 231.4 231.8 235.6 237.8 240.8 245.8 252.8 271 294.6 314.8 328.2 337.1 338.4 341.3 337.3 331.2 326.1 322.4 322 319.4 322.6 324.8 327.1 323.9 322.7 325.8 324.1 325.3 323.6 320.8 313.9 309.5 305.6 305 304.2 300.4 294.3 290.7 288.6 287.1 286.6 288.2 289.5 286.8 284.1 280.2 277.1 273.8 269.4 263.8 259.1 249.4 251 251.8 248.8 247.9 248.1 251.6 254 257 261.2 258.5 253.3 250.7 247 238.8 235 233.7 239 238.7 237 241.1 248.2 250.1 247 246.3 240.9 244.1 249.9 254.1 252.5 250.9 250 245.7 245.2 245.5 245.8 246.5 248.2 250.9 254.4 256 258.6 263.2 269.4 274.2 275.4 272.1 271.5 271.9 274.8 281.6 289.9 297.5 302.9 301.2 301.5 315.4 322 329.4 331.6 335.7 336.9 338.3 351.2 361.6 360.7 366.4 369.2 367.6 365.8 363 360 357.3 355 353.9 352.1 349.8 340.4 323.2 313.5 311.5 308.7 304.3 303.8 303.8 303.8 303.8 303.8 303.8 303.8 335.6 335 335.7 336.2 335.7 335 332.7 329.4 327.7 325.6 323.9 321 319.4 315.3
367.8 369.4 375 380.8 384.2 386.2 393.3 395.5 402 397.9 396.7 399.6 400.6 402.8 408 410.5 418 417.5 411 405.9 403 402.5 400.6 395.1 388.4 381.9 380.1 379.9 379.8 382.3 381.9 380 368.4 366.5 371.6 369.7 365.7 361.3 339.5 315.8 293.6 271.1 259.5 245.2 234.6 231.5 232.3 235.4 237.5 241.3 247.1 256.5 271.7 297.2 315.1 328 339.8 353.3 353.9 348.3 343 337.5 331.8 328.7 327.1 326.4 333.4 331.7 326.4 328.7 331.6 325.2 324 321.5 319.2 317.6 313.1 307.2 304.8 302.6 297.6 293.9 290.5 290.7 289.9 288 289.3 290.9 287.2 284.2 280.6 277.9 275.5 271.3 265.4 256.1 262.4 261.2 255.5 253.4 251.6 250.8 253.4 255.9 259.3 263.3 259.8 253.6 249.4 245 239.4 235.3 234 236.9 237.5 237 239.7 246 247.9 245.1 242.4 237.8 245 249.7 254.9 254.5 252.4 251.2 247.4 244.8 245.8 246.6 247.5 248.7 250.7 252.9 255.4 256.2 262.2 269.5 273.8 274 271.7 271.5 271.7 274.9 279.2 287.2 293.9 300 296.7 300.6 305.6 315.7 325.2 331 330.1 335.8 335.6 343.4 358.9 361.2 364.2 363.2 364.3 365 363.1 361 359.2 356 354.6 351.6 348.1 336.2 319.8 315.1 312.4 305.9 303.8 303.8 303.8 303.8 303.8 303.8 303.8 304.3 336.8 335.9 336.8 336 335.9 333.8 328.7 325.1 322.2 319.8 318.1 316.9 314.8 311.4
380.2 380.4 383.5 393.7 396 398.4 403.6 406.8 407 404.6 401.5 402.3 404.7 407.6 410.8 411.7 422 419.4 414.2 413.5 415.6 411.8 404.5 399.7 393.3 387.6 385.8 381.8 381.5 380.5 381.4 378.8 371.1 366 365.7 367.8 368.6 366 355.4 334.6 297.5 272.6 257.4 244.5 235.1 231.5 232.1 233.5 235.3 242.3 249.4 263.3 276.1 289.1 312.8 325.1 343 355.5 361.8 358.3 352.2 348.5 344.4 336.2 331.7 331.9 333.1 331.5 325 329.4 329.3 327.6 325.6 323.3 322.9 321.5 316.2 308.8 305.8 303.1 299.8 298 293.8 293.7 293.8 288.9 289.8 288.2 285.7 282.8 280.5 278.3 275.9 271.9 266.6 258.6 267 265.2 259.1 256.4 255 253.3 254.3 256.9 260 258.9 256.9 252.6 246.5 242 238.4 237.1 233.9 234.1 236.1 237.1 237.3 242.8 243.6 242.4 238.8 236.7 244.4 249.3 254.2 253.8 252.3 252.1 247.8 245.3 246.4 247.5 248.4 249.2 250.9 252.6 256.6 258.3 259.6 267.8 272.5 273.1 271.2 271.1 271.6 274.2 277.5 284.3 289.4 295.2 293.3 298.9 300.2 308 318.1 326.4 330 331.8 333.7 336 346.6 358.5 360.1 360.4 360 363 364.6 365 363.5 359 353.9 349.7 344.6 329 317.1 315 312.1 307.3 303.8 303.8 303.8 303.8 303.8 303.8 303.8 303.8 337.2 336.5 337.4 335.5 333.7 331.2 327.1 323.1 320.5 318 316.4 314.4 312.6 309
393.5 392.3 394.5 400.7 406.2 411.3 413.5 420.7 419.3 416.2 412.8 412.3 412.8 413.1 413.3 416.1 417.9 419.6 417.7 417.7 416.7 413.2 410.9 407.2 399.1 392.7 389.9 387 382.7 379.1 380.7 375.1 370.9 366.3 365.1 365.3 367.9 370.8 363.1 345 294.9 270.8 252.8 244 236.9 231.7 232.3 232.3 235.7 243.3 252.5 272.4 284.1 297.9 312.5 327.2 338.9 356.6 362.1 366.1 363.5 354.4 349.2 342.6 337.1 334.9 333.8 331.6 328.9 331.9 332.2 330.4 328.8 329.1 328.6 324.1 318.3 312 309.9 308.2 303.6 300.4 297.9 297.5 297.5 293.1 289.9 286.8 284.1 281.8 279.4 277.7 274.7 271.2 265.6 267 270.9 267.6 264.4 259.2 257.5 255.5 254.3 255.7 255.1 255.2 252.9 250.1 245 239.2 236.2 237 235.3 234.7 234.8 236.4 236.4 239.2 239.2 238.3 236.8 236.3 244.1 249.1 253.9 253.1 252.9 252.9 249.7 245.9 246.8 247.7 248.3 249.3 250.6 251.6 260.1 256.2 260.8 264.1 269.8 272.1 270.5 271.1 271.7 273.4 276.6 281.1 286.3 293.3 292 289.7 299.5 302.3 311.2 320.3 326.5 331.1 331.6 331 336.6 350.2 352.9 357 356.5 359.5 362 363.9 363 361.4 355.3 347.5 338.2 324.3 318.7 313.5 310.4 306 304.2 303.8 303.8 303.8 303.8 303.8 303.8 303.8 337.3 336.9 336.1 334.4 331.9 329.7 325.7 322 319.2 316.5 314.5 312.6 309.9 306.3
406.3 406.9 405.6 412.7 418.1 423.1 420.7 429.8 429 427.1 424.8 422.9 421.7 419.8 419 420.3 420 422 423.7 424.3 424.7 421.7 415.6 412.8 404.2 397.4 393.6 388.8 382.3 377.1 376.9 377.5 371.3 369 364 363.2 358.9 353.6 347.3 323 284.3 264 250.3 243.1 235 232 232.3 232.2 237.6 244.9 259.8 283 292.3 308.9 319.4 331.7 345.5 350 354.8 362.8 362.9 357.4 354.3 347.6 341.1 337.9 336.8 334.6 332.2 335.9 337 336.1 332.6 329.8 331 324.7 317.5 314.9 313.2 311.5 309.6 305.4 302.2 301 300.2 295.2 289.5 285.6 282.6 280.3 277.8 275.7 272.2 268.3 264.8 269.9 273.8 270.5 267 262.3 260.7 257.6 253.7 253 252.4 251.8 249.9 247.2 243.9 236.7 238.7 239.7 237.7 235.9 235.1 234.8 235.6 237.1 236.7 235.4 235.4 235.4 241.5 247.7 253.6 252.5 253.6 254.7 250.7 245.7 246.4 247.1 248 249 251 251.6 262.3 257 258.1 257 265.1 270.9 270 271.2 271.6 272.8 275.3 278.3 282.6 289.3 289.5 287.5 295 299.2 306.2 314.5 321.8 327.1 330.5 326.6 328.5 335.9 346.3 352.1 353 354.3 359 363.1 362.8 361.4 356.9 344.7 335.3 326 319.6 317.1 311 306.4 304.6 303.8 303.8 303.8 303.8 303.8 303.8 303.8 337.1 336 335.1 332.8 331.3 328.5 324.4 320.9 317.9 315.3 313 310.4 307.4 304.2
417.2 421.7 418.5 417.6 432.6 435.8 427.5 434.1 439.5 439.1 434.8 432.7 430.5 431.3 431.3 426.9 423.8 426 432.9 431.7 429.3 423.6 419.4 415.2 408.9 402.4 398.3 390.8 382.1 379.6 378.9 369.5 365.7 360.5 357.6 352.1 347.7 333.7 317.3 296.9 275 259.4 249.8 242.4 232.7 232.3 232.1 232.4 235.7 247.1 264.7 284.9 298.4 311.5 321.1 331 349.9 361.4 356.3 355.9 357.2 359.9 356.5 353.6 347.1 343.4 341.6 336.5 336 339.7 341.6 342.9 334.7 331.9 329.4 323.7 319.8 318.1 316.6 315 313.8 309.8 305.9 304.1 302.2 296 289.3 284.3 281 276.9 275 271.8 268.6 269.8 271.6 273.2 276 272.7 269 265.3 261.9 258.3 252.6 250.6 249.8 248.7 246.8 244.3 241 237.7 240.4 241 238.9 237.8 236.8 234.8 234 235 235.5 235.3 235.5 235.6 239.6 245.7 251.3 251.8 253.4 255.2 252.6 246.3 246.1 246.6 247.7 250.1 252.3 254.6 263.9 258.3 261.5 265.9 266.2 261.7 263.7 270.7 271.6 273.7 275.3 277.9 280 285.4 286.2 285.8 288.2 299.4 300 308.6 315.6 323 326.9 322.8 322.3 327.2 333.2 342.2 347.5 350.2 350.2 358.1 361.7 364.4 357.5 340.7 333.1 328.5 321.1 318.2 309.7 306.7 305.2 304.8 303.8 303.8 303.8 303.8 303.8 304.1 337.1 335 333.8 332.4 329.3 326.5 322.7 319.4 316.8 313.9 311.7 309.4 306.1 301.7
428.3 429.5 429.1 430 443.4 444.4 440.6 435.2 443.9 448.4 446.5 443.3 443.1 440.3 436.5 432.3 428.5 429.5 434.5 435.3 432.9 427.1 428.7 422.8 411.3 404.5 398 390.5 382.6 379.1 376.8 365.8 362.3 356 347.5 338 326.6 310.5 293.6 278 264.9 255 246.4 236.2 232.9 232.7 232.5 232.6 238 250.9 271.3 289.5 306.1 322.7 332.5 343.9 361.1 361.3 365.1 360.6 357 357.2 356.9 355.4 348.4 347.5 342.6 340.4 338.5 340.6 343.9 341.8 336.8 333.2 330.1 326.9 323.5 321.8 320 319.3 317.8 312.9 308.1 305.9 302.3 295.9 288.9 283.3 278.7 275.1 272.9 270.6 272.2 274.4 275.5 275.5 276.1 273.3 269.6 264.9 261.5 256.9 252.5 246.7 246.4 245.8 244.1 239.6 238.8 237.9 242.6 242.6 240.8 239.4 239.2 236.8 236.3 235.3 235.1 235.8 236 235.6 238.8 242.7 248 251.4 253.7 255.2 252.7 247.2 246.7 247.7 249.2 252.4 253.2 255.6 264.4 258.7 262 267.3 267.9 269.6 269.8 267.9 270.7 273.8 275.6 277.5 278.7 284 284.5 284.8 285.9 292.9 298.8 303 309.7 317.9 323.8 319 316.7 320.3 325.3 329.5 336.3 343.7 344.9 348.1 353.5 358.6 356 339.9 330.2 328.7 329.2 325.9 315.7 312 306.5 304.4 305.2 303.8 303.8 303.8 338.8 336.7 335.3 333.5 332.1 330.3 327.5 324.5 320.6 317.5 314.7 312.2 309.9 307 304.5 300.1
442.4 437.4 439.5 441.8 442.1 447.9 447.9 448.6 449.9 456.3 454.6 459.6 453.8 445.7 441 436.4 433.2 438.5 437.1 431.1 430.1 427.6 423.1 420.5 412.9 404.3 399.3 393.2 388.2 373.8 367.4 364.2 359.6 349.2 339.4 330.8 315.9 298.9 282.5 268.4 257.3 241.9 234 233.4 233.1 233 233 237.9 243.6 258.2 279 296.1 312.9 329.9 343.8 355.7 367 370.5 369.4 367.5 365.4 361.8 356.9 351.7 348.4 345.6 343.7 339.3 343 344.3 346.2 343.4 340.5 336.8 332.7 330.2 327.6 325.2 322.6 321.4 319.6 313.9 309.5 306.2 301.6 294.4 288 282.8 279 274.6 274 274.5 276.9 277.7 278.6 276.7 275.9 272 269.2 266.7 262.8 256.9 252.5 247.2 242.1 242.4 240.2 239.5 238.5 240.3 245.1 244.6 242.8 241.6 242.2 240 238.1 237 236 235.9 236 235.6 238 240.4 245 251 252.9 254.2 251.4 247.5 249.1 251 253.6 254.1 254.3 256.4 265.1 259.9 262.7 268.5 269.7 270.3 271.1 271.7 269.9 272 273 274.4 275.7 277.5 280.6 283.4 284.9 289.7 297.5 298 306.5 313.8 319.5 314.9 311.7 315.1 320.2 325.6 327.3 331.5 337.2 341.2 342 346.2 345.4 336.9 328.3 329.6 328.9 329.5 320.4 325.5 323.6 316.8 312.8 303.8 304.6 335.5 337.5 337.3 334.8 331.8 330.5 328 325.1 322 318.6 315.7 313.5 309.3 307 303.7 298 292.8
451.9 449.2 447.1 448.4 447.4 450.5 453.8 455.6 457.9 460.1 461.3 463.7 456.6 452 446.8 440.2 439.5 441.9 436.5 427 419.6 413.4 408.5 406 400.3 397.6 395.6 383.6 381.6 368.2 361.9 355.3 350.1 340.9 329.7 316.1 303.4 289.1 274.9 258 250.1 234.9 235.2 233.7 233.3 236.2 241.4 247.7 253.8 267.7 285.6 302.3 322.4 337.3 358 368.3 372.6 375.6 373.5 373.4 370.4 368.1 365.6 353.6 349.5 346.2 343.1 343.7 347.4 347.7 349.2 346.8 345 341.1 336.5 334.2 332.1 329.5 325.3 323.3 319.6 313.2 309 305.4 299.8 293.6 287.8 283.4 281.1 279.3 277.4 277.9 280.5 282.6 283.2 278.9 276.2 274.5 271.7 268.2 263.2 258.6 254.3 248.2 241.5 240.9 240.6 239.6 239.9 241.8 245.9 246 244.4 243.9 246 245.9 244.1 240.2 237.8 236.4 235.9 235.8 237.8 242.1 247.2 251.8 252.6 253.1 249.6 247.9 250.8 254.7 257.6 256.1 255.9 257.1 265.1 262.2 263.2 269.4 271.3 271 271.3 272 272.7 274.5 276.1 276.3 279.2 280 281.1 280.6 283.6 288.5 294.4 297.7 302.6 309.3 315.6 311.2 307.2 311 315.6 321.1 326.6 326.9 325.4 333.3 331.2 330.1 332.8 326.4 331.9 322.8 319.3 320.9 325.5 324.9 323.9 324.8 325.2 313.3 337.9 335.1 335.3 335.7 333.3 330.4 328.1 324.8 321.5 318.5 314.6 311.2 308.6 305.4 302.9 299.9 294.2 288.4
457.1 456.1 454.7 458.5 453.6 459.6 456.5 459.4 460.6 461.7 463.1 460.2 453.4 451.2 447.7 439 441.3 437.5 429 424.4 418.1 405.9 400.4 393.6 388.5 382.7 376.6 369.9 363.1 357 354.3 346.7 336.8 325.4 318.9 302.9 288.5 274 258.5 251.4 246 237.6 237.8 238.6 241 247 251.7 258.3 269.1 280.9 294.2 312 329.8 355.5 368.5 378.5 380.3 381.2 380.1 379.3 378.4 370.5 360.6 354.5 352 349 344.2 347.5 347.4 352.7 352.7 350.5 348.9 344.9 340.4 338.5 336.1 332.8 328 324 318.2 311.8 308.3 303.5 298.4 293 288.2 282.6 284.3 283.5 281.7 281.7 284.1 286.7 286.4 281.9 277.1 276.2 272.8 269.5 264 259.1 254.6 249.3 242.5 241.7 240.9 239.8 240 242.5 244.9 245.7 245.7 245.6 248.5 249 247.5 244 238.8 237.1 236.5 236.2 237.7 243.6 248.4 252.7 253.6 253.5 250.2 248.9 252.2 256.9 259 257.7 257.3 258.4 266.4 264.5 264.9 269.5 272.6 272.2 271.7 271.2 272.8 275.7 275.6 277.7 280.3 282.3 283.3 284.5 285.9 285.8 286.5 297.3 298.4 305.7 308.9 306.7 303.7 307.5 311.7 317.2 323.8 324.9 320.7 323.1 322.9 323.1 323.1 322.8 332.1 333.2 320.4 318.5 326.8 326.7 326.3 326.3 326.9 329.9 334.4 334.1 332 331 328.9 325.8 323 320.6 317.3 313.7 309.2 305.9 303.7 301 298.5 295.5 289.2 283.9
458.1 457.1 457.7 457.8 458 460.9 463.4 458 460 464 457.6 452.1 446.5 445 439.6 437.5 435.8 434.1 432.1 423.6 414.3 402.2 395.5 391.6 384.6 380.4 376.1 366.5 354 339.9 334 332.2 318.1 310.3 300.9 287 272.8 261.5 252.1 247.9 241.7 241.9 243.8 245.8 248.8 254.5 259.7 272.4 284 293 305.6 323.5 347.3 373.4 379.8 387.9 388.7 387.7 384.9 387 384.4 375.6 361.7 356.6 353.5 350.1 346.4 346.5 349.1 352.2 354.7 354.1 352.2 348.7 344 342 338.6 334.7 329.4 322.6 318.1 311.1 307.2 302.5 297 290.9 286.5 287.5 288 286.7 285.4 285.1 287.1 289.6 287.7 283.4 278.1 276.5 272.9 269 265 260.7 254.6 248.7 243.2 242.3 241.5 241.4 240.7 243.2 243.8 245.8 246.2 247.3 249.9 250.7 248.4 245.2 239.3 238 239.9 236.3 238.1 244.9 249.6 253.4 254 254.9 251.1 249.9 254.2 258.4 260.9 259.5 258.8 260 266.3 265.5 266.9 272.1 273.7 272.8 272.1 273.2 273.7 274.6 278.5 281.3 281.7 284.5 286.7 287.1 287.2 290.8 286.6 292.7 297.3 303.9 308.7 304.1 299.9 303.8 307.9 314.8 321.1 322.9 317.9 315.2 318.5 320.6 320.7 325.1 329.4 330.5 329.7 330.3 333 327 326.4 326.7 327.9 331.4 331 331.2 329.8 327.6 325.4 322 318.8 316.2 312.8 308.9 305.4 301.3 298.7 296.6 293.8 290 282 275.8
459.6 458.9 466.1 461.9 463.5 466.2 469.5 459.6 454.9 452.5 448 443.5 442.3 438.8 437.7 434.5 431.7 429.5 426 416.9 411.2 401.9 390.4 383.1 381.9 378.4 372 358.9 346.1 331.7 318.4 309.2 301 293.1 283.8 273.3 263 254.6 248 243.8 244.4 245.1 249.3 252.8 259.5 267.2 275 289.3 299.3 304.7 317.5 340.5 366.6 383.7 389.2 394.9 399.8 393.6 388.8 394.9 386.1 373.2 368.2 362.8 354.9 351.9 348.8 348.2 352.5 353.6 356.5 355.8 355.1 350.3 346.7 344.3 341.8 336.8 328.5 322.4 317.9 311.5 303.2 297.6 293.1 289.2 289.4 290.3 291.2 290 290.4 288.5 289.9 291.2 287.6 283.9 279.6 275.9 271.9 268 264.4 260.5 255.9 246.6 244 243.3 246.1 245.2 243 245.2 244.9 245.6 246 246.4 250.9 252.1 249.4 245.3 239.5 237.9 241.2 236.3 239 246 250.6 254.1 255.2 256 251.9 251.1 256.1 259.8 261.4 260 259.9 261.1 267.4 266.6 268 272.7 273.5 273.3 273.5 275.2 274.2 279.7 280.4 284 285.1 287.6 289.4 290.8 290.6 293.9 299.4 291.9 297.3 303.6 302 301.6 296.6 300.1 304.8 310.4 318.2 321 318.9 314.2 318.2 318.4 322.7 326.8 329.1 329.2 328.5 328.2 328.2 331 334.5 327.3 327.1 330.2 329.5 328 326.5 323.8 321.6 318.8 315 311 308.3 304 301.1 298.7 294.6 289.7 285.9 280.7 276.4 275.2
461.8 465.3 470 466.6 466.8 466.5 468.9 464 456.2 449.7 442.4 438.4 438.1 438.5 437.2 435.4 426.8 424 417.3 411.5 408.4 402.8 388.5 380.2 374.3 373.8 364.4 345.9 332.4 319.9 306.1 294.6 286 278 270.1 263.1 254.5 246.4 246.4 247.6 249.4 252.5 258.1 265.2 272 281.3 294.6 309.9 315.3 321.6 336.2 359.2 375.8 388.8 396.2 398.5 398.5 395 394.3 392.4 381.7 376 369.9 367.6 358.1 353.7 350.2 349.9 354.6 355.4 356 356 354.8 351.8 349.4 345.9 344.5 337.1 325.3 320 311.3 310.8 308.8 300.7 295.4 292.1 292.4 294.4 295.3 290.9 290 291.6 291.7 292.2 288.9 284.4 279.1 274.4 270.1 266.5 262.3 259.2 252.2 246.1 245.3 250 250.6 250.2 249.7 248.3 245.6 245.2 245.4 245.8 248.8 250.6 249.5 245.5 239.9 238.7 241.9 237.7 238.2 245.7 251.2 254.4 255.7 256.4 252.4 252 256.5 260.6 262.3 261.3 261.8 262.7 267.9 267.5 268.8 274.8 275.6 274.7 275.3 274.7 278.9 280.9 283.1 286.5 287.8 290.6 292.3 294.3 295.4 298.6 301.8 302.4 297.9 297.4 294.3 297.6 293.3 294.4 299.1 308.9 316.6 318.7 317 316.9 317.1 320.4 324 327.9 328.8 328.3 328.4 328.9 327.5 327.4 328.6 328.6 328.1 328.3 327.8 325.4 323.5 321.4 316.8 314.1 311.4 308.4 304.9 300.7 295.6 288.9 286.6 284 282.6 282.5 284.6 281.9
467.6 480.4 484.7 478.2 467.6 467 470.5 466.5 455.3 444.7 437 435.2 437.4 435.4 435.5 431.1 421 417.1 412.2 412.5 413.7 404.9 387 376.1 366.9 352.1 343.9 331.2 318.8 305.1 297.9 282.8 273 267.5 261 254.1 248.6 249 248.8 251.2 255.3 260.8 268.3 280.5 289.8 309 317.9 327.5 332.6 348.3 360.8 374.1 384.2 390.4 395.7 396.6 398.6 395.9 392.4 388 386.8 382.7 373.8 367.9 361.2 356.2 352.8 350.7 352.1 355.5 356.3 356.6 355.3 353 349 345.4 343 336.5 324.9 322.5 321.3 319.5 313.7 306.6 302.3 296.7 296 297.8 298.9 292.1 291.9 294.1 293.1 293.4 289.8 285 277.8 271.6 268 264.8 259.5 254.7 249.3 253.1 256.2 255.6 254.6 254.7 253.3 251.8 247.7 245.1 245.3 245.3 246.3 247.7 247.8 244.8 240.3 239.4 242.8 239.7 236.5 245.8 250.7 253.8 255.4 256.5 252.2 253.1 257.1 260.9 262.1 261.8 262 263.4 268.3 267.6 270.4 276 276.3 272.3 277.4 278.6 280.8 283.1 286.7 290.4 291.4 293.8 297.2 298 298.5 301.7 306.7 306.4 303 297.6 295.4 291 293.2 293.4 297.2 306.6 313.4 315.4 316.5 317.8 319.9 323.2 326.3 327.9 328.3 326.5 327 327.6 326.2 323.4 324.1 325.9 326 326.3 327 325.5 320.9 317.5 317.3 312.4 309.1 308.2 301.1 297.6 293.9 294.6 292.3 289.8 290.1 289.9 288.8 287.7
485.2 485.4 482.1 480.4 475.9 469.4 467 460.1 449.7 444 436.6 431.4 431.2 429.6 430.2 425.3 415.1 410.8 417.8 415 403.7 394.7 375.8 357.3 343.1 333.3 320.7 315.2 301.8 291.3 282.5 271 264.1 257.1 252.5 252.8 253.6 256.8 257.2 259.1 265.1 270 281.2 296.7 310 330.2 338.8 365 365.9 367.6 376.3 386.7 386.7 388 392.2 395.6 396.9 395.8 389.4 387.6 390.5 385.7 373.6 368.4 364.3 359.8 355.7 351.9 352.9 353.3 355.9 356.7 357.2 353.8 349.3 345.2 340.9 336 325.1 328.2 327 323.1 319.2 313.4 305.5 300.3 299 301.7 300.8 296.2 295.6 297.5 295.6 293.7 289.6 285.8 279.2 271.6 266.6 262.3 256.8 251.2 257.5 259.8 263 263.3 260.8 260.6 260.4 258.8 251.4 246.2 245.5 245.4 245.3 245.3 245.1 242.5 240.4 239.5 242 236.9 238.1 244.6 249.5 253 255.5 256.2 251.8 252.6 258.9 258.6 261.1 262.6 263 265.4 268.5 269.3 271.8 272.4 277 278.8 280.5 283.5 289.4 296.1 298.8 299.3 297.2 297.7 299.8 301.4 302 304.6 309.2 306.8 305.5 298.6 296.7 293.7 294.4 293.1 297.2 305.8 311.7 313.3 315.9 319.3 321.7 325.2 326.5 327.2 327.1 324.7 315.8 316.5 319.6 317.8 318.2 321.3 322.2 323.5 324.6 322.2 323.4 321.6 319.5 315.6 312.9 309.2 305.6 300.2 298.9 298.7 296.7 294.7 294.5 295.3 294.2 293
486.7 484.1 482.7 479.7 472.3 468.1 459.9 454.4 446.2 439.5 433.8 427.1 425.2 427.4 425.1 416.9 407.8 413.2 421.3 410.6 388.4 369.3 357.8 337.3 326.4 314.7 303.6 296.1 288.7 280.6 268.7 263.6 260.5 256.5 257.2 259.9 262.8 267.7 270.3 271.9 276.1 281.2 290 309.3 325.4 340.9 355.4 363.5 365.5 374.2 383 386.3 384.4 386.6 392.9 393.5 392.1 391.1 389.2 387.1 384.4 380.1 374.5 369.4 365.3 361.5 356.6 355.3 354.7 354.2 355 357 358.7 353.8 348.5 343.9 339.9 335.8 327.4 331.4 328.8 324.8 321.3 316.8 309 303.5 302.7 304.5 303.6 301.5 300.6 300.5 297.6 294.3 290.8 285.7 278.9 272.2 266.9 262.8 253.6 257.8 262 265.2 267.1 268.2 267.9 266.2 266 262.4 255.7 250.7 246.8 246.1 245.4 243.5 242.8 241.1 240.8 240 237.2 237.5 240.1 243.9 247.4 251.2 254 255.6 251.2 254.3 261.1 261.9 260.3 262.2 263.9 266.5 268.4 271.3 272.7 278 280.2 280.7 284.4 284.2 298.8 298.1 300 301.3 298.9 301.2 303.3 304.4 305 307.6 311.3 308.1 306.4 298.8 297.1 293.9 293.2 299.7 298 304 310.2 312.2 315.4 319.4 322.6 325 325.7 325.6 325.5 316.2 316.9 315.7 313 313.7 314.3 316.4 323 326 327.2 327.6 325.7 323.9 321 318.6 315.8 311.3 308.1 306 303.5 302.2 300.3 298.5 298.8 299.2 298.4 296.5
481 482.3 480.5 475.7 469.5 465.6 455.4 452.6 445.9 438 430.5 424.9 421.6 418.3 412.4 404.7 399.7 406.6 405.7 400.4 372.2 353.4 337.6 321.1 315.3 299.4 288.4 281.2 273.9 269.1 261.7 261.3 261.7 263.2 265.4 271.9 279.1 280.3 282.6 286.8 290.7 297.9 308.5 321.8 335.7 345.1 353.9 360.1 370.1 376.9 380.9 380.7 381.7 385.9 388.6 391.3 392.9 393 391.2 388.4 385.5 379.4 374.4 369.9 365.4 362.1 359.5 359.7 358.5 356.1 356.1 357.4 355.3 351.7 347.1 342.2 338.9 337.3 334.4 332.9 330.8 325.3 321.5 317.5 312.3 305.9 304.2 306.6 306.9 306.6 305.8 302.9 299.1 294.9 290.3 285 279.6 272.7 267.5 263.5 254.8 259.1 263.3 266.7 269.4 271.5 273.2 271.4 269.7 265.4 259.3 254.7 249.1 246.9 245.7 243.2 241.8 241.3 240.9 239.3 237.4 237.7 240 242.8 245.4 248.7 252.3 253.6 250.4 254.9 261.9 262.1 260.7 261.6 263.6 266.8 268.7 273.7 276 279.7 282.4 284.8 287.7 288.8 292.7 297.4 300.5 304.4 303 304.8 307.1 307.8 307.9 310.2 312 308.5 307.7 299.6 298.8 293.8 294.5 295.8 301.8 305.4 308.8 311.8 314 315.6 316.1 320.8 324 324.1 320.2 315.6 318.4 316.9 313.3 313.6 313.9 314.9 324 327.7 329.3 329.2 327.4 325.8 322.9 320.1 316.9 314.1 311.4 309 306.8 305.5 303.7 301.7 302.2 302 301.1 300.6
476 476.8 476.1 472.7 467.2 460.2 452 448.7 440.8 434.6 428.2 424.2 421.9 416.2 403.1 396.4 395 393.2 384.5 375 354.7 335.2 319.2 307.1 299.9 288.3 280.3 275.3 267.3 262 262.8 264 268.9 273.4 277.5 287.5 291.5 294 297 299 305.2 318.4 323.4 335 346.9 355.2 358.5 364.2 373.9 375.2 377.8 378.9 381 384.4 387.1 389.4 392.9 398.1 397.9 393.2 387.9 381.5 377.7 370.9 365.9 362.8 361.4 361.1 360.6 358.7 359.6 358.4 355.4 347.9 347.8 345.5 342.2 339.9 336.5 332.1 329.1 325.6 321.1 317.8 312.8 306.8 305.9 309.3 311.1 309.9 306.3 302.5 297.6 293.7 288.6 283.5 279.3 273.3 268.1 264.1 256.5 259.5 265.9 269.7 271.9 273.8 277 275.2 272.8 268.5 262.1 257.3 252.1 248.8 247.2 243.5 242 240.5 239 237.9 238.1 238 240.1 242.8 244.6 246.6 250.1 252 250 255.7 263 262.3 261.4 261 263.9 268 269.3 273.9 277.1 281.3 284.2 286.7 289.7 294.7 296.4 297 303.8 307.2 306.8 307.5 310 310.4 310.4 310.9 313 309 309.8 301.9 300.4 295 295.7 295.2 299 303.1 307.6 311.4 309.9 307.2 307.8 310.1 317.7 318.6 310.7 315.8 318.8 316.9 313.3 313.7 314.1 315.3 327.5 330.2 331.6 331.2 329.1 326.8 324.7 321.4 317.7 315.9 314.7 312.6 310.4 308.7 307.8 305.7 305.7 305.3 304 304.4
472.5 470.3 470.2 471.1 462.8 461.6 448.3 441.2 434.4 430.6 426.7 422.5 419.9 412.8 397.8 384.5 373.6 374.8 365.3 350.8 334.3 316.1 303.8 298.1 290.7 281.1 274.7 270 262.6 264.1 268.1 273.8 278.1 286.5 294.9 299.8 303 307.2 311.1 322.7 327.5 328.5 345.7 354.5 358.3 358.9 360.6 366.1 370.8 373.9 376.3 377.8 380.8 383.2 385.7 389.1 392.8 398.7 400.5 400.9 396 389.1 381.1 373.6 367.1 363.5 362.5 363 362.5 361.3 360.3 359.8 356.7 355.1 352.1 348.1 345 342.3 338.5 331.9 327.2 324 320.6 317.1 313.4 307.6 305.7 310.5 311.2 309.1 305.2 300 295.3 291.6 287 281.9 278.2 272.9 268.4 263.6 258.1 268.1 269.1 272.2 274.7 276.7 278.3 277.6 274.4 270.5 266.3 259.7 253.7 250.1 248.8 245.6 240.8 239.5 238.6 238.1 237.8 238 239.1 242.4 244 246 248 250.3 249.8 256.3 263.1 262.7 262.6 262.2 264.4 269.6 269.2 274.5 278.4 283.4 286.2 289.1 293.3 297.9 300.7 300.5 306.8 311.2 310.2 309.4 312.5 312.4 312.2 312.4 313.2 308.8 311.8 305 301.3 296.9 296.7 294.8 298.2 303.5 307.9 310.6 307.5 309.8 310.9 308.6 308.4 309.7 311 315.7 318.8 317.4 313.6 314.1 314.6 316.3 326.8 332.2 333 332.9 330.9 329 326.2 322.8 320.5 318.5 317.7 317.3 314.3 312.4 311.7 309.4 309.1 308.4 308.1 307.5
469.9 467 466.3 465.3 459.2 453.7 445.5 435.6 430.3 428.3 424.1 419.7 412.4 402.4 388.8 370.7 356.3 349.8 337.8 322.2 308.3 296.5 290.7 284.1 278.5 273.6 270 264.7 263.7 269 275.1 283.6 291.5 301 307.5 312.9 315.6 319.5 323.8 329.3 339.9 346 358.4 368.1 368.6 362.8 363 365.9 371.6 372.8 375.5 377.9 380.1 382.5 384.8 387.3 392 399.1 399.3 400.2 398.9 389.3 382.8 372.4 369.1 364.3 364.1 366 363.4 362.2 361.2 360.3 359.7 357.6 354.8 351.1 347.8 344.8 340.2 333.6 326.9 321.7 318.6 315.7 312.3 308.8 308 311.3 311 308.1 304.8 299.3 294.1 289.3 285.3 281.8 276.7 271.9 268.2 259.9 269.4 273 273.1 271.6 275.7 277.8 279.5 277.6 274.5 271.5 266.8 260.8 258.4 252 249.3 244.9 241.7 239.2 238.8 238.4 238.5 238.3 237.9 242 243.7 245.5 247.7 249 249.6 257.2 263.1 261.9 261.7 262.1 265.4 270.6 269.8 276.1 280 285.4 288.6 292.5 296.2 301.5 304.2 304.2 310.5 314.1 313.1 312 314.1 314 313.8 313.3 312 309 312.5 307 302 298.8 298.4 300.1 297.5 302.4 309 309.3 306.6 311.1 313.1 308.9 308.4 310.3 310.9 315.6 319 317.6 313.6 314.3 315 316.7 324.1 331.9 334.2 334.4 333.1 330.4 327.7 325.4 323.7 321.2 321.6 320.6 318.4 316.8 315.4 313.2 311.8 310.8 312.2 311.6
462.4 461.9 462.3 460.1 455.2 446.5 439.8 432.8 425.4 423.6 416.5 411 398.2 386.5 368.6 351.5 340.9 330 318.9 302.8 292.6 285.7 278 274.6 270.5 266.9 264.6 264 267.3 274 282.2 291.4 301.9 311 316.3 321.6 324 328.4 332.5 339.9 352.3 358.9 365.6 367.9 371.7 370 370.4 371.6 373.5 374.2 375.7 377.2 379.4 381.8 384 386.1 390.5 397.2 396.7 397.2 392 387.2 380.3 374.8 369.8 365.3 368.4 368.5 364.7 362.7 362.1 361.5 361.9 359.1 356.3 353.8 350.1 347.6 341.7 334.9 329.3 320.8 316.1 313.9 311.1 308.4 308.4 310.7 310.6 307.3 304.1 300.2 292.8 287.9 283 278.3 274.7 269.9 262.3 269.4 273 276.8 276.8 273.4 274.4 277 278.3 277.3 274.3 270.3 265.2 262.2 261.8 253.7 248.3 245.3 244.3 242.4 240.3 239.5 238.7 238.4 238.1 239.9 243.3 245.2 246.2 247.9 249.6 257.9 263.1 261.7 261.6 262.3 266.6 272 270.8 277.6 281.6 287 290.9 294.5 298.6 304.4 307.5 307.6 314.1 317 314.8 313.8 315.8 315.9 314.7 313.4 310.6 309.3 312.6 309.1 303.2 301.6 301.8 303.1 304.7 299.9 307.5 310 307.2 312.4 314.1 309.5 308.2 309.1 310.4 315.3 319.3 318.2 313.8 314.2 315.1 316.4 322 330.6 334.7 336.5 335 332.2 330.5 328.4 326.6 325.7 325.9 325 322.8 321 319.5 317.3 315.6 315.3 315.6 315.3
457.2 456.3 454.6 450.5 445.1 439.1 435 425 418.7 415.1 404.7 392.5 379.4 363.3 347.5 336.8 327.3 312.5 299.6 287.1 278.3 274.6 271 267.2 264.3 263.7 264.9 267 270.6 279.5 289.5 299.2 307.5 316.6 324.8 336.9 356.8 348.6 353.8 357.4 364.8 371 372.7 373.4 375.8 375.3 375.2 376 377.7 377.6 377.3 377 378.7 381 383.1 385.4 390.1 393 393.4 393.5 391.7 388.2 382.5 377.6 373.1 370 372.9 372 366.1 362.7 361.6 364 363 358 357.2 355 350.1 346.5 341 335.3 329.1 321.3 314.7 312.2 309.6 307.8 307.9 308.7 308.5 306.3 303.3 299.9 293.3 287.1 280.3 272.4 269 269.2 269.5 274.3 277 279.8 279 275.1 273.8 273.8 274.8 274.4 271.5 268 266.5 268.7 265 255.1 247.3 245 246.3 244.7 241.8 239.9 238.4 238.5 238.1 238.3 245 243 244.4 248.3 250.3 258.2 262.8 261.6 260.9 263.5 267.5 272.5 272.6 278.6 281.6 287.5 292.7 297.4 301.4 307.7 310.3 311 316.6 318.3 316.5 315.9 315.9 317.2 315.2 313.6 309.8 309.7 311.9 309.1 304 303.4 304.1 304.4 307.2 299.9 307.4 306.8 308.1 313 314.4 310 309 309 310.3 315.7 319.7 318.4 313.7 314.8 316.7 317.8 321.5 329.4 334.8 337.3 336.9 335.2 334.1 332.2 330 330 330.1 329.5 327.4 325.1 323.7 321.8 320 319.8 319.8 318.6
452.9 451.3 449.2 445.8 441.4 439.2 433.1 418.1 408.1 396 386.2 370.9 357.3 345.9 334.4 320.7 308.3 295.8 284.6 274.6 270 267.4 265.2 264.2 264.3 263.6 265.8 268.1 273.2 282.9 294.3 304.2 315.7 326.9 340.2 351.9 361.8 368.7 377.8 382.2 376.4 378.2 379.3 386.6 381.6 379.4 378.9 379.3 379.8 379.9 378.7 378.5 378.4 379.7 381.7 387.9 392.4 392.6 393.5 393.4 391.4 387.1 385.5 379.6 374.9 373.3 378.2 373.5 365.7 363.2 362.2 362.5 359.3 356.8 357.1 353.4 349.1 345.4 339.1 334.6 327.3 322.6 313.9 310.2 308.1 307.3 306.6 306.1 305.6 304.2 302.2 299.1 294.6 287.9 278.5 281.8 278.7 275.1 274.3 276.3 280.4 282.3 280.3 276.9 274.9 273.8 271.9 270.7 269.3 270.8 272.4 271.5 265.6 256.2 250.1 246.6 248.1 245.6 242.7 242.4 239.1 239.4 238.8 238.8 240.1 240.7 245.6 250.2 252 258 262.3 261.2 261.6 264.5 268.2 272.7 273.3 279.6 282.5 288.7 294.8 300.5 304.1 310.5 312.6 314 320.6 319.6 317.7 317.5 318.4 318.6 316.7 312.9 310.3 309.6 310.8 308.4 305.5 304.5 306.3 306 309 303.6 304 303.3 308.4 313.1 314.4 310.1 309.7 309.5 310.3 315.3 319.6 319.1 314.6 316.3 317.9 318.8 322.5 326.3 334.3 338.7 338.2 337.6 337 335.3 333.3 334.1 334.7 334.3 331.3 329.6 327.7 325.9 324.6 323.3 323 322
447.7 445.6 443 440.1 439.8 432.1 417.3 403.1 390.9 378.3 367.9 353.1 341.1 326.6 316.2 305.9 295.5 284.7 274.7 268.5 267.1 264.9 264.4 263.9 264 264.6 265.5 269.9 281.3 293.9 302.1 313.2 320.3 333.8 351.1 365.7 378.6 381.4 383.8 391.7 392.9 389.5 388.5 389.6 387.4 383.2 382.5 383 382.1 382 380.5 379.6 379.4 380 383.9 393.9 392.7 392.3 397.8 392.5 384.5 382.7 381.9 379.9 377.2 374.1 374.7 369.8 365.7 364.5 362.7 361.8 358.2 357.3 354.1 351.5 347.7 343.7 338.2 335.8 327.4 322.6 314.4 308.1 306.7 306 304.5 302.8 302.2 301.1 299.8 297.2 293.1 286.4 279.1 285.4 281 278.5 279.2 280.1 282.3 283.5 280.8 276.8 275.6 274.3 273.2 272.5 273.6 276.6 276.1 272.7 266.3 255.8 250.1 247.8 249.5 246.9 243.6 242 239.2 241.6 240.1 239.8 239.7 244.1 247.5 252.6 257.2 256.7 259.7 260.9 261.8 265.8 268.8 273.3 275.5 280.8 285.2 289.8 296.7 303.1 306.6 312.9 314.9 317.7 321.6 321 319 318 319.9 319.8 317.7 313.4 310.7 309.9 310.5 309.5 307.9 305.4 308 308.1 309.9 306.5 303.1 304.3 309.2 313.2 314 310.6 310.4 310.2 310.7 315.5 320.2 320 314.6 315.9 318.3 319.6 322.6 326.6 333.1 338.6 338.2 339.1 339.5 338 336.4 338.4 339.5 338.3 335.8 333.9 331.7 330.1 328.7 326.9 326 323.5
444.6 441.4 437.5 431.2 424.2 409.6 395 383 372.1 358 345.8 335.3 324.1 315.2 303.5 293.3 283.5 271.6 268.2 266.3 264.7 264.6 264.7 264 263.8 266 272.2 288.4 304.1 313.8 317.1 325.2 334.1 346.7 371.7 382 383.8 384.6 388.3 396.8 399.4 398 395.2 394.8 391.9 389.2 387.1 389.8 389.5 385.9 382.4 381.2 381.1 384.5 385.9 391.4 391.8 392.3 389.5 383.9 381.9 381.7 381.2 381 378.2 373.2 371 367.9 365.8 366.2 363.2 362.7 360.7 358.2 355.4 350.7 343.4 339.6 334.6 332.1 327.2 319.9 316.1 309.2 305.9 303.7 301.9 300.1 298.3 297.6 296 293.7 287.7 284.9 283.6 288.2 283.9 282.9 284.4 285.4 284.7 284.4 280.4 277.4 276.3 276.5 276.6 276.9 278.5 278.8 278.4 274.9 267.4 255.4 249.9 249.8 251.2 247.5 244 243.4 240.1 240.8 242.6 241.4 243.6 246.1 249.4 254.4 258.8 259 259.3 261.5 263.2 266.5 269.9 273.1 278.5 282.5 287.3 291.2 298.2 305.4 308.5 314.8 316.3 319.5 323 322 320.1 319.3 320.5 320.4 318 313.9 311 310.4 311.1 308.6 308.8 306.7 307.4 308.6 309.1 310.1 305.9 303.7 309.4 313.1 313.9 309.2 311.1 310.9 310.8 315.9 320.8 319.3 314.8 315.5 318.7 320 322.7 326.4 331.9 337.9 337.8 338.9 340.8 339.5 339.8 342.1 343.2 342 339.9 337.2 334.9 333.3 332.4 330.4 328.1 325.6
441 436.2 430.2 421.3 405.2 390.7 375.8 363.2 351.7 340.3 330.3 319.6 311.5 301.4 291.3 283.1 274.9 267.1 265.3 265.1 264.7 265.2 264.3 264.9 265.5 274.3 288.2 306 322.3 340.4 341.9 342.7 352.8 366.7 376 381.7 378.4 385.5 392.3 397.1 402.5 408.1 407.2 403.8 400.8 398.6 398.4 398 398.8 391.1 385.7 383.3 384.3 384.5 386.1 387.3 387.5 393.8 384.7 381.4 378.8 380.1 379.1 377.5 375.1 372.3 370.1 368.7 367.1 366.3 366.7 365.1 361.5 357.7 354.5 350.1 340.5 334.6 331.3 327.8 321.3 315.3 310.5 308.7 305.5 301 297.9 297 295.3 292.7 289.8 288.2 287.7 294.1 293.6 290.4 289.7 289.3 289.9 291 287.5 283.7 281.4 279.1 278.3 278.4 278.5 279.3 280.3 280.5 279 274.5 265.8 257.1 250.7 249.7 249.7 247.1 244.3 243.6 240.4 243.2 244.8 242.4 244.5 246.1 251.4 255.6 259.6 259.8 259 260.2 264.2 268.6 271.2 274.8 279.4 284.3 288.9 292.6 299.5 305.2 310.8 317.4 316.3 321.1 324.8 322.2 320.8 320.4 321.6 321 318.4 315.3 312.5 312.1 312.3 310.6 309.2 309.4 307.3 312.3 313.1 312 307.9 306.9 310.1 313.9 313.4 310.9 311.8 311.1 311.6 316.4 321.1 319 315.1 315.3 318.8 320.5 323.2 326.5 331.2 336.5 336.8 339 341.4 341.8 342 344.8 345.9 345.1 342.5 340.3 337.8 336.6 335.2 332.8 330.3 328
439.9 432.6 423.7 407.9 391.4 369.5 359.8 348.6 336.9 326.9 317.6 309.3 299.3 291.6 285.2 278.2 270.2 265.9 265.8 264.9 265.4 264.8 265.2 269.5 278.4 292.5 312.4 332.6 347.8 389.4 401.7 400.4 398.4 389.7 387.8 388.4 387.2 389.1 391.6 395.4 405.7 413.1 413.2 406.5 403.6 404.9 405.4 405.6 402 394.7 387.2 384.9 384.6 384.2 384 384.2 383.2 382.8 382.2 380.8 378 375.9 376 374.9 374.3 372.8 371.2 369.7 367.8 369.1 370.5 367.7 364.8 358.2 352.7 347.3 337 334.9 333.4 330.2 325.1 321.4 316.1 308.5 303.6 301 300.1 298.7 299.9 300 298.5 292.6 292.6 295.6 294.4 296 295.6 296.2 296.9 296 292.7 289.4 286.5 282.2 280.3 280.3 281.1 280.5 282.5 280.9 279.4 273 266.1 259.1 253.8 250.2 248.7 248.6 245.9 244.1 240.3 243.9 246.6 245.8 245.1 246.9 250.2 256.1 261 259.9 258.1 261.7 267.3 271.9 273.1 275.9 280.6 286.1 290.4 294.5 300.5 305.7 310 318.5 315.7 323.3 325.1 322.6 321.1 320.8 322.4 321.1 318.8 315.7 315 315.7 315.3 312.2 313.3 314.5 307.7 311.6 314.4 313.2 308.9 305.2 310 314.4 313.9 312.5 312.5 311.4 312.4 316.5 321.3 317.7 315.2 315.8 318.2 320.4 323.9 325.3 329.7 334.1 334.2 336.5 340.6 344 345.1 346.2 348.2 346.8 344.2 342.2 340.3 338.8 337.5 335.8 333.2 330.7
442.4 435 418.7 401.4 378.1 353.5 341.3 333 324.2 315.7 305.2 299.8 291.7 286.7 281.3 274.7 267.5 265.7 265.3 265.5 265.5 265.3 272.8 280.8 294 311.3 340 367.6 388.4 402.1 413.5 414.3 419.7 414.9 397 391.1 390.6 393.2 392.8 393.9 400.8 408.5 409.4 407.4 405.4 410.1 410.2 410 401.4 392.6 387.6 385.3 384.9 383.8 383.4 383.1 382.5 381.8 380.9 377.3 376.3 379.1 380.8 378.7 377.8 375.9 375 370.9 370.2 375.6 382 378.7 367.1 360.9 352.5 346.7 341.6 338.8 335.8 331.2 326.2 321.9 317 311.4 306.1 305.6 304.5 304.3 304.8 304.2 304.4 297.8 298.8 298.6 299.4 301.3 301.7 302.9 303.3 300.7 296.5 294.1 291.4 285.7 284.3 285.1 285.2 281.3 282.5 279.5 276.4 271 267.1 261.4 256 252.2 250 250.1 246.8 244.2 242.9 244 249 247.9 245.9 247 249.5 255.2 260.5 259.2 257.5 263.3 269.9 275.8 273.8 278.2 282 287.2 291.7 295.8 299.7 304.4 308.9 316.1 316.3 325.1 326 322.6 320.9 320.8 322.1 321.2 319.4 317.3 317.6 318.3 317.3 314.8 313.7 310.5 308.5 309 313.1 311.7 309.4 306.1 311.6 315 314.5 313.5 313.7 312.4 312.5 317 321.5 318 315.3 316.1 317.5 320.3 323.6 324.7 327.9 330.1 330.3 334.2 338.8 343.4 346.1 347.3 348.9 347.7 345.8 344.3 343.3 341.2 340.2 338.6 336.1 333.5
441.9 426.2 404.2 380.7 359.1 340.5 329.8 318.6 313.6 306.3 298.2 290.5 286.4 281.4 276.4 269.9 266.1 266.2 265.8 266.3 266.6 275.6 287.2 294.9 310.1 336.1 374.9 411.4 417.9 414.1 419.9 417.3 421 415.2 405.7 399.5 392.3 394.8 396.1 399.1 397.5 400.4 405.8 405.1 407.3 408.4 408.9 411.4 400.9 392.7 388 386.5 385.3 385.7 384.6 384.7 382.9 383.4 381.7 380.8 384 389 387.4 384.6 382.7 382.1 379.5 374.7 375 379.9 386.7 382.6 371.2 363.5 356.7 348.3 344.7 341 337.9 333.5 328.4 323.7 317.6 312.4 311 311.3 311.6 311.1 310.3 311.6 311 308.8 305.1 305.5 306.1 306.7 308.6 309.8 308.5 304.1 299.4 299.3 295.1 289.4 288 286.7 287.2 280.6 279.4 277.6 274.4 269.7 267.6 262.5 258.9 252.1 253.1 252.5 246.7 245.6 243.9 245.1 251.6 249.3 247.8 247.7 250.6 254.8 259.7 258.4 257.1 264.1 271.1 277.8 277.1 279.8 283.3 288.2 293.1 296.8 300.3 303.6 307.5 313.3 315.5 323.3 323.8 322 319.8 319.9 321.5 320.9 319.3 318.5 318.6 319.2 318.1 313.7 307 308 310.6 309.4 312 310.3 308.1 306.5 312.5 315.5 315 314.6 315 313.2 313.2 317.3 321.9 317.3 315.6 316.1 317.3 318.8 322.6 322.9 324.6 326 327 331.7 337.2 342.4 345.2 347.4 349 349 348.1 347.5 346.2 344.5 342.7 340.8 338.8 336.4
440.7 411.7 383.2 362.2 343.5 329.4 321.3 312.5 303.5 297.4 291.5 285.4 281 277.2 271.3 268.2 266.6 266 266.6 268.7 275.9 290.7 301.4 309.3 330.3 379.1 412.6 413 418.7 420.4 423.6 422.3 416.6 411.7 405.7 400 395.6 402.5 405.4 403 399.9 400.4 401.9 404.5 407.6 409.2 410.1 409.8 405.2 401.4 397.3 391.7 393 396.3 396.6 389.9 386.1 385.1 385.6 385.4 391.3 395.5 393.1 389.8 391.5 389.8 386.1 380.7 379.4 382.7 388.1 380.2 374.7 366.5 360.4 353.7 348.8 345.8 340.9 336.7 331.7 325 321.4 320.6 318.4 318.2 317.5 317.6 317.2 316.2 315.7 314.5 312.5 313.3 314 313.2 314.8 315.3 312.2 307.2 302.3 301.2 296 291.9 289.1 288.8 289.3 284.1 279.4 275.9 272.5 270.3 269.2 264.7 260.1 256.1 258 255 248.5 246.8 244 246.9 253.2 250.1 248.3 248.8 253.4 253.8 258.7 257.5 257.9 265.5 271.6 278.8 277.5 280.6 284.6 289 293.9 297.4 300.1 303 306.3 310.3 315.1 320.3 321.3 320.5 319.7 319.5 320.7 319.8 318.5 318.5 319 319.6 318.5 313 306.8 309.9 308.2 310.6 310.5 308.9 306.7 307.3 313.2 315.4 316.6 316.5 315.9 314.1 314.1 317.4 321.6 316.7 316.1 316 317.2 318.5 319.9 321.5 322.5 324 325 328.1 335 340.4 344.4 346.7 349 350.4 350 350 348.7 347 345 343.1 340.6 337
432.4 402.5 372.4 353 335.9 327.1 318.3 306.3 299 292.5 286.4 278.9 276.1 272.3 267.6 266.6 266.4 266.8 269.2 277 288.2 302.9 315.3 327.1 356.9 389.1 427.3 421.9 423.3 423.3 422.9 420.5 417.6 412.6 412.2 407.8 402.8 405.7 408.4 407.1 405.7 405.6 410.8 408.1 410.3 415.8 422.3 419.9 415.2 412.8 405.2 397.6 397.6 400.6 406.2 394.3 388.4 390.8 391.6 394 402.5 402 397.7 395.5 402.5 399 392.2 387.2 385.7 385.5 383 375.7 373.8 370.9 364.7 360.1 355.6 350.7 344.5 339.4 333.6 326.7 327.8 326.5 324.4 323.8 323.3 323.3 322.7 321.5 322.2 320.5 319.1 320.5 320.8 318.6 320.2 318.5 314.3 310 306.3 302 296.7 292.9 288.9 290.3 291.2 286.8 282.1 276.8 274.1 271.7 269.4 264.4 260.6 259.5 261.1 256.3 249.8 249.2 244.8 249.6 254.2 250.7 248.8 249.9 256.2 255 257.5 256.5 258 265.6 272.5 278.9 278.4 278.3 285.3 290 294.8 298.1 300.5 303 306.6 310.8 315.4 320.8 321.6 320.5 319.9 318.7 319.8 318.5 318.3 318.4 318.9 319.3 318.4 313.3 309.1 313.2 309.7 310.3 310.6 308.7 307.4 308.2 313.8 316 316.5 316.7 316.7 315.1 314.6 317.4 320.9 316.7 316.5 317.5 317.3 318.3 320.4 321.9 323 324 325.1 327 332.6 338.3 342.6 345.3 348.7 350.4 351.8 352.2 350.7 348.8 346.4 343.7 340.3 337.6
