ncols 200
nrows 86
xllcorner 310000
yllcorner 503600
cellsize 50
270 270.4 269.9 269 266.9 263.5 259.6 256.1 252.1 248.1 244.7 239.8 237.1 232.8 228.1 222.8 225 228.3 231.5 234.3 235.4 236.4 237.3 237.9 238.2 239.9 242.8 246.1 252 255.4 261.2 274.7 277.9 278.6 283.7 287.4 290.1 293 292.8 293.7 301.9 305 309.5 315.5 323.5 326 326.9 331.2 337.7 351.7 367.3 382.2 405.5 413 422.3 431.9 440.6 448.8 456 466.6 479.2 489 498.8 510.6 521.9 534.5 547 558.1 568.5 578.9 587.9 596 603.6 608.9 613.7 618.8 622.2 624.2 624.5 623.8 619.5 612.2 599 574.6 554.9 542 535.3 520.7 509.2 492.7 478.7 468.6 458 446.8 441 442.4 459.2 475.9 494.3 497.8 503.6 506.7 508.8 493.7 457.6 426.4 394.1 351.7 327.7 303.2 276.9 250.8 227.6 204.2 187.3 181.9 181.5 192 201.8 213.4 233.3 252.1 269.7 283.5 289.1 298.7 308.6 306.5 298.9 282.8 266.5 248.2 225.8 240.8 265.1 285.8 309 332.7 361.3 394.4 444.8 475.9 510.9 536.5 507.6 462.2 433.3 408.4 386.9 368.2 348.8 322.7 299.3 277.9 264.3 251.7 238.3 221 193.8 180.1 170.1 137.4 106.7 83.8 66.7 66.1 66.2 66.7 66.7 67 67.1 67.8 68.6 69.8 70.2 74.3 87.6 102.3 117.8 136.2 159.9 182.3 208.8 240.1 276.6 312.3 349.6 390.2 434.8 471.2 494.8 527.9 546.1 555 563.2 568.1 576.2 587.1 600.8 611.5
265 263.8 264.6 262.1 258.8 255.7 252.8 249.4 245 240.7 237.6 234.5 230.7 217.9 220.3 220.8 226.3 231.6 233.7 235.1 236.3 237.5 238.5 239.6 240.6 242.8 246.1 250.3 262.4 263.8 268.6 278.1 279.3 285.6 287.9 291.3 295.6 297.5 298.6 295.2 303.8 308.3 312.3 318.4 323.5 328 329.2 331.9 339.6 349.6 365.6 381.5 394.5 407.8 415.9 424.9 438.5 447.7 455.7 467.3 476.8 488.7 499.1 508.4 519.4 533 546.2 557.7 568.2 579.3 589.4 596.7 601.9 606 609.8 613.1 615.5 616.5 616.7 613.5 609.1 604.7 590.5 566.7 551.6 536.9 526 516.2 502.2 491.9 471.3 459.1 447.5 438.5 433.5 436.1 452.3 475.1 493.1 504.3 514.5 515.8 507.9 500.5 482.7 450.6 402.6 369.3 346.2 320.4 295 267.3 240.7 215.6 193.1 182.5 179.3 181.6 190.7 204.4 222.2 240.3 257 275 283.4 288.4 294.8 295.7 293.7 277.9 257.1 237.3 218.7 240.1 260.1 282.8 301.5 325.9 356.3 409.6 439.4 470.8 503.8 500.9 471.5 436.5 404.3 382 358.1 336.2 315.5 300.1 275.7 250.9 234.7 222.8 211.7 190.9 167.1 156.4 149.5 120.6 92.6 74.8 64.4 65.1 66.1 66.2 66 66.5 67.6 68.1 68.5 69.1 72.7 82.4 93.7 107.5 126 143.9 164.9 188.4 216.5 248.1 285.3 320.3 358.5 396.3 437.1 472.1 504.3 529.9 538 546.2 552.4 558.2 567.2 577.3 589.3 603.2
259.7 257.5 256.2 253.8 250.9 247.4 245.1 241.9 238 235.5 232 228.5 221 218.7 220 224.4 228.2 232.5 233.8 234.9 236.3 238.2 239.8 240.9 247 249.2 250.8 255.1 265.6 274.2 280.5 279.6 284.4 289.4 293.5 296.7 300.8 302.7 303.8 301.3 304.1 309.2 314.7 320.7 326 331.2 332.9 335 340.4 348.1 364.8 381.2 394.3 405.7 416.5 426.7 436.4 445.6 456.2 466.5 479.1 489.5 498.9 510.5 520.4 531.8 546 557.3 568.5 579.3 589 595.2 599.4 603.1 605 606.8 608.6 609.3 609.2 607.2 601.9 595.1 583.3 557.8 542.3 529.7 519.6 508.8 493 481.8 462.1 450.6 439.6 429.1 426.4 431.8 452.3 472.6 490.3 504.7 518.7 524.6 525.1 516.6 493 469.4 421.5 392.1 364.7 339.7 311.5 283.7 254 226.7 200.3 184.1 177.2 175.2 183.3 195.3 213.7 230.3 247.1 265.8 278.7 281.9 287.4 287.8 285.7 270.1 249.6 229.8 215.4 232 252.1 276.2 294.1 322.1 364.8 400.2 437.1 469.5 483.3 465.8 435.4 401.7 377.3 354.6 332.6 309.6 287.7 265.7 247.7 226.9 206.6 195 183.3 164.1 146.8 135.5 129.8 101.9 81.5 66.2 63.9 64.6 65.4 66.3 65.5 66 66.8 67.2 67.8 72.2 78.6 88.3 101 114 130.4 149.3 170.7 195.8 223.9 255.5 292.3 327.2 362 397.5 435.5 469.8 488.2 498.9 508.7 516.1 522.1 530.8 540 554.4 575.3 592.4
254.5 253.2 248.7 244.2 243.2 240.8 237.8 234.2 231.3 228.5 220.9 219.1 216.2 219.6 223.6 227.1 229.1 230.9 232.7 233.9 235.8 238 239.8 241.9 245.6 250.5 262.2 264.4 272 273.7 280.1 283.9 290.7 296 298.4 302.6 305.5 307.9 308.2 305.7 306.2 310.4 316.6 322.6 327.1 332.9 335.9 341.8 351.8 357.8 372.2 390.5 403.5 413.9 423.1 430.9 440.6 450.6 458 468 480.5 490 499.1 509.9 521.1 530.9 538.6 556 567.3 578.6 587 592.7 595.8 598.5 599 600 600.4 601.1 599.7 597.3 592.4 585.9 572.8 548.8 532.2 526.1 513.5 500.1 486.9 470 456 441.6 432.3 423.5 420.4 428.2 453.3 480.7 493.3 508.7 525.5 536.7 533.5 522.3 502.6 478.5 459.6 413.1 383.7 356.7 333.4 300.2 270 238.7 213.9 189.7 177.7 171.4 178.3 189.2 204.2 219.3 245.1 260.9 269.1 272.3 276.9 279.5 277.3 266.7 244.9 223.9 204.4 219.1 241.3 266 285.8 313.8 366.7 402.1 433 472 448.1 427.3 389.9 370.2 345.8 326.6 306.7 283.1 264 243.9 220.8 203.2 186.7 173.2 158.2 142.2 125.3 113 103.4 86.8 70.4 63.7 63.7 64.4 65.1 65.2 65.4 66.1 67 67.3 68.4 70.3 79.3 94.4 106.9 119.8 137.1 157.2 179.6 204.6 229.9 258.3 295 331.9 372.5 404.2 433.2 450.4 455.9 466 475.8 483.4 489.2 497.5 507.1 522.6 542.1 563.8
246.7 245 241.1 238.7 236.1 233.7 230.6 227.7 225.5 216.1 215.6 216.3 216.7 222.7 226.6 228.9 231.4 232.7 233.9 235.1 236.4 238 239.5 241.4 245 249.7 256.5 262.1 268.4 275.6 283.7 289.4 298.2 301.9 303.5 306.7 309.6 311.8 312.7 312.7 308.1 315.2 319.7 324.2 328.8 335.4 339.5 347.4 358.6 370.3 382.7 397.6 410.7 421.9 429.3 436.8 445 454.2 461.8 471.5 481.5 489.9 498.1 509.3 520.1 531.5 544.8 554 563.6 575.4 583.4 587.4 590.6 591.9 592.3 592.3 591.4 591.3 588.9 586.9 582.3 574 559.4 540.4 528.4 515.4 503.9 497.6 476.1 462.5 447.8 433.1 425.2 418.3 413.1 422.2 446.7 478.3 492.8 512.6 531.1 543.8 541.8 530.4 508.3 487.6 468.2 446.2 405.9 373.8 349.8 316.1 285.3 252.3 224 198.5 179.3 171.1 173.4 181.1 194.7 213.7 224.8 252.9 254.7 261.1 270 270.7 268 259.3 240 219.3 199.1 205 230.9 255.2 277.8 306.9 359.9 377.8 444.4 447.6 398.2 378.5 356 335.2 317.4 298.4 280.5 259.1 235.5 215.4 196 180.6 167.5 150.1 141.5 127.8 111.7 98.1 85.3 73.3 64.1 64 64.7 64.9 64.3 64.9 65.9 66.1 66.3 66.6 68.6 69.9 88 101.3 113.6 129.5 146.7 166.2 187.7 210.4 235.6 265.9 299.6 336 378.2 403.5 418.2 420.8 423.4 435.1 441.7 449.6 455.9 463.6 473.3 491.4 509.6 531.2
240.6 237.2 235.1 232.9 230.6 227.3 224.3 217.9 212.5 213.5 217.1 215.9 225.4 227.1 227.7 230.1 231.7 232.6 234.2 235.5 237 238.8 240.6 242.3 246.3 251.4 257.2 263.4 271.2 278 285.3 291.4 300 303.8 308.2 308.7 312.5 315.7 317.5 317.7 315.3 316.7 322.3 327.9 332.6 339.2 347.4 356.6 367.3 379.3 393.2 410.6 420.5 429 435.9 444.6 451.3 460.6 468.9 478 485.4 492.9 502.6 510.7 517.2 531.5 543.1 553 561.9 571.6 578.2 581.5 583.3 584.2 584.3 582.9 581.8 581.2 579.4 576.8 571.5 562.8 549.4 528.8 516.5 504.3 492.9 481.2 469.8 452.8 439.2 427.2 418.3 410.6 404.6 412.6 435.3 462.5 488.1 513.3 534.1 548.8 547.5 538.9 523.3 496.3 472.9 455.7 436.3 406.6 356.4 331.9 302.3 270.8 239.2 208.5 184.8 171.6 166.4 172.4 182 201.2 212.9 236.5 245.4 252 259.2 268.3 263.2 254.1 236.7 213.9 195.2 196.7 221.9 245.1 267.7 296.5 330.8 371.5 410 401.5 361.5 351.9 322 304.6 285.6 266.2 245.9 225.3 205.4 189.5 174.9 160.6 145.5 134.5 122.1 113.5 100.3 85.9 75.8 65.7 62.8 62.9 64.6 64.6 65.1 66.8 65.8 67.2 68.6 69.3 72 79.7 92.9 105.6 122.3 140.6 152.9 173.2 195.6 216.6 243.1 276.3 308.4 341.3 373.7 385.7 388.2 389 393.2 403.6 408 414.7 422.8 429.9 443.4 460.8 480.9 499.4
231.8 230.3 228.9 225.8 224.5 221.6 215.1 210.6 212.1 218.1 221.8 224.9 226.3 226 229 230.5 231.7 233.4 234.5 236 237.6 239.4 241.4 243.9 247.3 252.9 256.9 266.8 274.9 280.6 286.8 295.6 302.5 306.4 309.8 312.3 315.2 318.5 321.2 322.5 320.3 323.3 323 329 334.4 343.8 352.2 361.5 375.2 388.4 403.7 419 426.6 434.4 442.1 450.5 458.7 467.3 475.7 483.3 490.8 497.1 504.3 511.8 520 529.9 538.8 549.5 557.7 565.2 571 573.7 574.6 575.2 574.2 572.7 571.8 570.5 568.2 564.6 558.4 545.1 533.1 516.7 509.9 496.1 485.4 474.4 463 448.4 434.3 423.4 412.5 406.3 403.7 404.7 424.6 451.1 479 510.4 544 556.8 553.8 546.5 529 506.2 483.1 464.6 439.9 415.3 380.1 348.8 320.5 285.4 255.5 219.4 193 174.8 165.1 163.9 173.6 190.3 204 228 235.2 244.8 248.6 252.8 253.8 249 231.7 211.1 190.4 189.1 211.7 237.6 260.5 284.5 312.8 357.9 374.9 346.6 326.4 312.1 291 274 254.9 235.5 216.7 199.3 181.5 169.5 154.2 140.4 127.5 116.3 107.9 98.3 89.3 73.7 66.9 63.2 63.4 64.8 65.1 65.9 67.4 67.9 68.9 70.9 72.3 73.4 74.5 83.5 100 109.7 124.7 142.6 163.7 181.1 202 223.7 252.5 284.8 316.9 340.4 351.2 355.3 357.5 357.8 370.9 373.1 375.6 384.3 389.3 397 414.3 431.4 448.4 467.3
225.2 223.6 221.9 220 217.2 212.1 208 213.7 218.8 223.1 224.7 226.6 227.8 229 229.5 230.3 232.3 234.6 235.5 236.9 238.4 239.9 242.4 245.8 250.3 254.9 261.1 270.2 276.4 284.8 290.9 297.6 306.1 310.4 313.2 315.1 317.2 321.1 324 325.3 326.7 330.6 330.6 330.7 335.2 347.9 355.5 366.9 378.6 396.6 412.3 422.3 431.8 440.2 449 455.6 464.2 472.2 480.9 487.7 495.1 501.6 507.8 515.5 521.5 528.1 537.7 547 552.2 557.8 561.9 563.7 564.7 564.1 562.9 561.2 559.3 556.7 554.3 551.1 538.5 525.7 517.3 507.5 501.6 488.2 477.9 468.9 456.4 446.1 431.9 418.6 409.6 403.9 403.7 403.7 417.6 447.7 480 512.9 545.1 565.2 557.8 545.5 527.7 511.8 492.5 468 446.7 410.7 379.7 354.7 333.6 301.2 263.2 237.1 200.1 180.6 168.4 160.7 166.4 179.1 199 217.7 224.5 231.5 239.7 244.4 241.6 232.8 221.3 205.9 185.6 180.5 205.2 229 250.1 274 296.3 335.7 342.3 311.5 292.7 278.3 260.6 243.8 224.9 209.9 198.9 181.9 163.7 151.2 134.8 121.2 111.7 103.8 96.6 86.1 77.2 68.8 62.6 63 63.9 66.2 67.6 67.3 69.7 70.8 73.5 75.1 76.4 77.7 84.3 95 108.5 120.8 135.4 151.1 165.4 187.3 210.8 233.8 260.4 292.1 314 319.8 322.2 324.5 325.9 326.6 340.1 339 343.7 350.2 357 372.3 381.1 398.7 416.8 440.5
220 216.3 211.4 207 204.7 208.6 213.8 217.4 222.6 224.7 227.1 228 229.1 230.1 231 231.4 232.1 234.5 236.5 237.8 239.6 241.5 244.2 248.7 252.8 257.1 264.9 272.6 279 286.4 295.2 301.2 307.9 313.6 315.6 317.4 319.3 322.4 326.2 327.8 332.7 335.7 336.8 341.7 344.9 352.3 359.3 368.5 383.7 400.9 412.2 424.9 434.8 444.7 452.3 460.2 467 474.8 482.2 490.6 498.9 504.5 511.3 518.2 524.5 531.8 538.7 545.2 549 551.9 554.7 555.2 554.2 553.1 550.9 547.9 544.9 540.1 537.5 530.1 517.5 511 504.2 498 487.8 477.3 469.8 464.2 454.3 443.1 428.7 416 407.9 403.8 403.7 403.7 420.3 446.6 478.8 515.6 555.7 573.1 565.5 548.7 530.5 512.8 497.2 475.5 452 416.1 381.6 353.9 337.1 300.1 267.9 237.5 202 179.1 168.9 160.1 160.4 172.4 194.7 207.1 213.7 226.1 229.3 231.6 229.1 219.8 208.6 197.9 180 171.9 196 216.3 240 264.1 286.6 293.3 302.2 274.3 259.6 245.7 230.4 211.3 195.8 185.2 168.8 154.4 139.7 127.3 115.6 103.8 98.3 93.3 83.8 75.9 69.4 62.8 62.5 62.8 63.8 65.8 68 70.5 71.6 73.4 77.1 79 80.7 82.7 89.9 106.1 121.1 129.9 142.1 157.9 175.1 192.9 216 239.8 267.1 290.5 296.5 293.9 293.4 296.5 299.5 302.6 307.8 311.9 321.4 332.9 345.1 356.2 369.7 384.5 396.2 413.6
211.4 199.7 202.1 205.8 210.8 216 220.7 222.8 224.9 226.9 229.6 230.6 232.3 233.2 233 233.9 233.9 235.6 237 239.7 241.5 243.3 245.9 250.7 254.9 257.7 267.2 276.2 284.2 290.5 295.3 303.6 308.5 312.9 316.5 318.4 320.1 322.1 327.3 330.8 335.8 339.9 342.5 350 352.9 356.8 363.6 375.7 391 401.3 417 429.9 439.6 448.5 456.3 461.7 468.4 475.5 482.9 493.8 502.5 508.4 514.9 520.8 527.5 533.6 539.4 543.1 546 547.8 547.8 545.8 543.2 540.3 537.6 533.3 526.9 524.3 519.7 509.1 501.9 499.3 496.6 488.7 477.7 468.6 463.9 458.7 449.1 435.5 424.6 414.7 407.9 403.7 403.7 403 424 450.6 482.5 522.4 562.9 579.1 574.5 561.8 537.1 507.8 490.1 474.5 450.9 418.5 388.3 359.2 334.6 304.8 270.4 236.2 203.3 180.1 166.4 156.4 157 170 189.9 197.5 205.3 213 215.4 218.6 219.6 205.7 196.3 187.6 175.8 155.8 179.5 204.5 232.8 256.1 266 259.2 249.8 241 228.2 213.8 201.1 183.5 169.2 158 144.3 131.8 119.2 108 99.2 90.7 84.9 80.1 71.2 62.9 62 61.4 62.2 62.2 64.3 66.4 68.4 71.1 74.2 75.7 79.6 83.7 85.8 88.3 90.4 107.8 123.4 135 148 161.6 175.6 197.7 222.1 245 264.8 271 269.4 266.3 269.6 271.6 276.1 285.8 293.8 309.4 330.5 349.7 365.8 377.8 393 405.6 418.9 430
197.8 204.8 208 213.2 219.1 221.4 223.8 226.2 227.9 229.9 231.9 233.9 234.9 236.2 236.2 236.8 236.9 236.8 239.8 242.2 244.1 245.7 247.6 252.2 257.7 261.1 269.2 279 287.6 293.7 297.7 306.3 310.9 313.7 316.8 319 322.2 323.7 328.8 333.1 339.7 345 347.3 354 357.7 365 370.5 379.9 393.4 404 422.6 436 443.4 450.5 457.5 462.8 468.8 475.3 483.8 494.4 504.6 512.5 518.4 523.8 530.6 536.4 539.8 541.4 542.4 541.7 540 537 532.3 526.6 521.7 516.1 511.2 507.3 500 489.7 489.4 486.8 484.9 480.8 467 461.3 456.3 453 447.8 424.8 416.5 411.7 406.9 403.7 403.7 411.3 434.3 459.2 493.6 530.5 570 574.5 569.2 558 534.3 503.4 485.6 469.6 453.1 417.3 394.3 367.2 336.4 312.2 269.1 234.9 205.5 178.8 161.3 151 156.8 166.7 181.8 190.4 199.1 203.2 205.6 204.3 198 191.6 181.7 176 169.2 147.2 174.2 201.6 223.6 240.8 234.9 226.7 217.9 209.1 197.3 183.8 172.2 159.5 146.9 134.4 125 111.3 100.7 91.7 85 78.6 71.6 66.8 62.7 62.7 62.7 61.7 61.6 62.4 64.5 67 68.8 71.8 74.8 76 80.7 86.8 90.8 93.3 97 111.3 127 141.8 152.8 162.1 183.1 204.8 224.7 238.6 242.1 242.6 241.6 241.3 247.1 256.9 271.2 286.3 300.1 314.2 327.5 344.8 366.9 386.4 408.2 425.1 441.5 455.8
207.9 215.3 216.7 218.7 221.9 224.4 226.6 228.6 231 232.5 235.5 237.1 238.5 239.6 240 241 240.8 241.8 242.9 244.6 245.8 248.9 251 255.3 263.2 265.8 270.9 281.1 291.1 296.9 300.5 306.7 312.2 313.8 316.6 319.3 323.6 327.3 330.8 336.5 343.8 350.5 354.7 358.4 362.6 372.5 380.4 386.2 394.5 409 424.2 434.5 444.1 450.7 456.3 462.5 466.9 473.8 483 493.6 506.1 514.5 521.4 527.7 533.8 537.6 539.8 539.2 538.4 536.6 532.3 526.6 520.6 513.9 507.2 502.1 498.2 492.9 485.1 476.3 474.6 470.2 470.7 466.2 457.7 452.2 445.9 440.6 428 418.8 410.8 408.1 404.3 403.6 410.9 422.1 440.7 467.7 500.6 541.3 577 573.5 564 547.7 527 505.1 481.1 464.5 446.7 419.1 393.4 370.6 339.5 304.6 279.7 246.8 203.9 178.8 159.8 140.8 152.5 163.3 172.2 183.6 186.3 186.3 187.9 188.1 183.9 173.9 168.4 163.3 159.6 143.1 165 185.6 213.7 212.9 207.9 197.2 190.1 183 169.6 157.6 146.4 135.5 123.5 115.2 103.7 89.7 82.3 75.7 72.2 63.9 62.7 62.7 62.7 62.7 61.7 62.2 62.5 62.7 64.4 66.4 68.4 71 74.1 78.3 82.6 85.9 91.6 100 104.7 115.9 132.9 141.3 154.9 168.8 187.9 203.6 210.7 216.8 214.7 214.6 221.7 231.8 253.2 267.6 282 296.9 311.1 327.3 343 358.4 371 380.1 397.3 421.6 442.5 461.3
213.7 216.1 219.7 221.7 224.9 227.3 229.7 231.8 234.5 236.6 238.5 240.7 242.3 243.3 244.2 245.4 246.8 246.7 246.8 249.4 251 252.2 253.5 258.6 267.1 271.6 276.9 284.3 291.2 299.3 303.4 305.9 309.9 313.3 316 320.7 325 328 332 337.9 345.2 352.2 356.2 358.9 366.2 371.5 381.7 390.3 399.8 410.3 425.1 436.9 444.4 449.9 454.6 460.6 465 470.1 479.5 492.8 503.4 514.3 524.3 531 536.2 539.3 538.6 535.7 532.6 528.5 522.4 517.8 510.4 503.1 494.1 490 486.8 483.2 477.8 468.7 462.4 459.5 458.8 457.1 451.5 441.8 439.9 426.6 418.7 411.7 405.3 401.5 400.5 404.5 414.2 427.3 449.1 478.7 509.7 546.6 576.6 574.5 562.2 544.3 524.7 502.1 479 460.7 444.7 420.9 394.9 375.1 342.9 303 275.4 245.1 205.6 179.5 160.6 142.5 152.8 161.9 167.9 167.9 173.3 170 170.3 171 166.4 158.5 157.6 152.6 147.8 125.7 156.3 185.7 194.4 187.4 178.6 172.1 161.8 154.2 147.1 135.3 124.2 113.7 104.8 95 83.9 73.8 66.3 62.7 62.7 62.7 62.7 62.7 62.7 62.7 62.7 62.7 62.7 62.9 63.9 65.3 68.1 71.8 75.7 80.5 85.5 90.6 94.1 99.7 109.7 119.4 131.6 140.5 147.2 162.3 176.7 180.2 183.2 191.2 205 222.4 239.8 255.2 269.8 282.6 298.8 313.1 328.5 346.6 365.6 379.6 391.6 407 419 424.3 435 452.9
216.4 218.4 221.8 224.2 227.9 230.2 232.8 235.7 238.4 240.2 242.9 244.4 246.5 247.5 248.8 249.9 250.5 250.8 251.5 253 256 257.9 255 259.9 268.4 274.8 280.8 286.5 293 298.5 303.5 306.6 310 312.3 316.9 320.7 324.9 328.5 331.6 339 345.4 351 356.1 360.5 364.8 370.6 381.9 393 405.9 413.1 422.1 433.7 440.3 445.4 451.1 456.5 461.3 470 479.4 491 503.7 516.4 526.6 533.5 536.6 538.1 535.7 532.3 527.4 517.5 512 507.5 500.1 491.8 482.5 479.3 477.4 474 470.2 463.7 454.1 450.8 447.6 449.1 447.4 435.9 429.8 417 409.4 403.9 399.6 397.1 401 406.2 419.4 431.1 453 491.6 520.1 558 577.6 580.1 564.8 541.3 521.5 498.8 478.9 458.1 437.6 416.1 398.5 371.8 338.2 306.2 275.6 238.4 206 180.4 161.9 141.7 148.4 156.3 160.8 158 159.7 154.6 148.7 145.5 145.5 146.4 146 141.3 132.3 128.2 159.1 175.8 171.5 163.3 154.8 145.1 136.1 128 121.5 112.4 105.5 96.2 87.1 76.2 66.8 62.7 62.7 62.7 62.7 62.7 62.7 62.7 62.7 62.7 62.7 62.7 62.7 62.7 63.7 64.9 68.4 72.7 76.5 80.2 85.2 91.5 97.5 103.9 108.7 116 124 133.7 144.4 148.8 158.3 171.5 193.8 212.6 225 239.5 253.3 271 285.4 301.7 318.3 333.4 350.9 365.8 387.5 403.4 418.4 429 441.1 447.2 456.6 471.7
218.1 221.4 224.5 227.9 230.6 233.3 236.5 239.4 242 244.5 246.6 248.8 250.6 252 253.9 255.3 255.2 255.9 255.9 257.3 260 263.1 260.4 264.8 270 278.1 283.7 288.9 294.1 298.6 303.6 306.7 310.1 314.4 318 321 323.7 326.6 331.7 338 343.3 350.4 355.6 359.8 364.2 373.3 386 398.6 406.3 413.8 419.3 426.7 435.5 440.8 446.2 451 458.1 467.6 478.8 489.1 504.1 517.3 528.4 534.6 534.8 534.4 531.9 527.1 520.4 511.5 503.8 497.5 490.3 482.1 473.5 468.6 465 460.4 458 452.1 446.3 442.7 440.8 436.3 434.3 429.5 420.6 410.9 403.1 398.5 393.9 395 400.5 410.9 421.8 439.2 459.5 493.7 521.2 556 567.9 570.9 562.4 544 520.5 499.3 476.3 454.6 434.2 420.1 402 379.6 343.8 312.8 284.6 244 208.6 177.1 161.2 141.1 141.3 149.1 149.1 148 147.9 148.4 135.6 129.9 131.1 131.7 135 129.9 118.6 134.1 157.9 156.1 148.4 139.5 129.4 125.8 116.1 109.3 99.6 93 86.9 79.5 69.7 62.7 62.7 62.7 62.7 62.7 62.7 62.7 62.7 62.7 62.7 62.7 62.7 62.7 62.7 62.7 62.7 65 68.3 72.3 75.8 80.5 85.7 90.6 96.7 107.2 119.1 125.9 134.6 146.3 164.8 175.9 181.9 196.4 213.3 228.9 243.3 255.9 272 287.2 304.6 319.8 334.9 354.1 371.3 388.6 405 424.5 433.3 444 454.1 466.5 475.9 482.8
221.3 224 227.7 230.6 234.1 236.7 240.1 243.1 246.5 248.8 250.7 253 255.5 257.2 259.5 260.4 261.2 261.3 261.9 263.6 266.3 268.3 267 269.8 273.5 279.9 284.7 290.3 294.3 299.1 303.1 306.7 310.6 314.3 317.4 320.6 322.3 324.6 329.2 334.2 340.1 348 353.9 359.7 365.2 378 385.6 396.5 405 409.6 415 422.9 428.4 436.9 440.4 447.2 455.2 466.4 475.6 489.3 505.4 517.5 526.3 532.5 533 531.7 527.6 522 513.9 506.6 498.7 490.9 482.3 472.5 462.4 456.8 451.9 448.2 443.6 442.2 438.2 434.4 428.9 428.5 427.1 422.1 413.5 405.9 399.5 392.8 388.5 395 404.3 415.4 429.8 444.2 465.8 490.6 522.6 555.1 559.5 559.4 556.3 541.1 521.4 499.9 475.4 456.7 434.9 416.8 403.9 384.5 349.3 317.4 282 246.5 208.9 172.2 155 138.7 138.5 138.6 140.6 138 130.6 132.2 123.7 119 118.1 117.7 122.1 117.4 105.4 130.2 139.7 133.5 127.8 120.8 113.4 105 98.9 92.9 85 77.1 67.3 62.7 62.7 62.7 62.7 62.7 62.7 62.7 62.7 62.7 62.7 62.7 62.7 62.7 62.7 62.7 62.7 62.7 62.7 65.5 68.4 71.9 77.1 80.5 88 97.6 109.6 122.2 133.6 147.8 153.2 165.6 176.8 185.4 196.6 210 224.6 240.3 260.2 275.5 288.6 299.5 317.4 336 350.6 367.5 386.9 406.5 422.1 438.3 449.7 460.8 471 482 487.5 494.2
223.8 227 230.6 234.7 237.9 240.5 244.2 247.1 250.4 253.5 255.8 258.7 260.5 263.2 265.2 266.6 267.3 268.1 268.4 269.7 271.1 272.6 272.2 273.6 275.5 280.6 286 290.7 295.3 299 303.2 307.3 311.3 313.9 315.9 317.6 320.1 323.4 326.9 331.3 337.1 345.4 354.2 363.5 369.7 380.2 386 393.3 400.7 406.3 413.9 419.8 425 431.7 437.4 444.7 453.1 463 474.1 490.1 505.4 516.2 523.8 525.2 526.1 524.8 519.4 513.6 509.3 501.3 494.4 484.4 475.2 464.8 454.5 447.8 443.1 439.7 436.7 433.5 430.9 427.7 425 419.7 419.5 416.7 407.5 400.7 393.6 388 388.6 397.7 408.1 421.2 436.1 452.2 471.1 501 523.1 543.7 545.5 543 537.6 531.5 516.6 497.3 481.9 460.5 436.3 418.3 397.5 379.8 355.5 309.3 281.6 244 202.2 168.7 152.5 136 129.8 128 133.7 127 118.5 116.7 114.1 113.1 109.3 111.1 110.4 104.9 102.2 124.3 121 115.7 110.4 103.3 97.2 90.1 83.4 78.4 69.5 62.7 62.7 62.7 62.7 62.7 62.7 62.7 62.7 62.7 62.7 62.7 62.7 62.7 62.7 62.7 62.7 62.7 62.7 62.7 62.7 64.7 68.7 72.3 79.3 87.1 98.3 110.5 116.9 130.4 144.3 158.9 168.8 176.2 185.8 197.8 209.3 223.6 237.2 253.6 273.5 289.6 303.5 319.6 334.6 349.3 368.4 389.1 405.9 428.8 449.1 463.8 475.8 485.2 495.8 507 513.4 519
226.9 230.2 233.7 237.5 241.2 244.6 248.5 252 254.9 257.7 261.2 263.8 266.1 268.8 270.8 272.7 273.3 273.5 274.1 274.6 276.3 278.4 277.4 279.2 282.7 283.6 287.2 291.1 295.7 299.2 303.8 306.9 310.3 311.9 313.4 314.4 316.5 319.8 323.4 328.9 334.1 343.5 354.7 361.5 369.7 377.3 383.5 389.7 396.8 403.1 409.7 415.6 421.9 427.8 434.4 442.2 451.9 461.9 472.3 487 505.3 516.3 523.2 522.6 521.3 518.5 512.9 507.6 503.5 496.4 487.9 477.3 468.9 458.7 448.9 440.9 435.5 433.1 430 426.4 423.9 420.8 418.5 413.3 410.4 407.9 401.3 392.7 385.6 380.2 387.8 399.7 412 425.3 439.3 460.7 478.6 499 519.8 532.5 536.8 524.2 518.1 509.2 503.4 494.9 480.2 465.7 434.6 419.3 394.8 369.5 340.9 300.1 277.4 242 199.6 166.5 148.3 136.9 118.2 118.3 112.4 112.3 109.6 108.4 107.5 106.4 103.8 103.1 100 95.9 94.8 106 102.9 98 92.5 86.2 80 73.3 66.9 62.7 62.7 62.7 62.7 62.7 62.7 62.7 62.7 62.7 62.7 62.7 62.7 62.7 62.7 62.7 62.7 62.7 62.7 62.7 62.7 62.7 62.8 64.1 70.5 77.5 85.7 93.9 102.9 112.7 125.2 136.2 154.5 168.7 178.4 186.5 197.2 210.2 224.8 241.1 255.9 271.2 287.8 302 319.3 333.4 346.4 363.7 382 403.7 427.5 452.6 478.2 496.3 507.3 516.8 527.7 539.3 547.5 558.3
229.8 232.7 236.7 241.7 245.4 248.5 251.7 255.9 259.2 262.4 265.2 268.7 271.1 273.4 275.5 277.1 278.2 278.5 278.9 279.6 280.7 281.7 282.6 283.5 287.4 288.8 289.2 293.9 296.9 299.9 302.7 306.1 307.3 309.1 309.6 310.8 313.1 316.1 320.7 325.8 330.3 339.5 346.3 353.3 361.4 371 376.9 383.7 392.3 400.2 406.3 411.9 418.5 425.9 432.2 440.4 450.8 461.3 472.5 483.3 499.2 512.7 518.2 516.9 515.9 512.3 507.1 501.5 496.6 488.9 480.2 471.4 462.7 453 441.8 435.8 429.5 425.4 423.6 420.4 416.4 412.9 410.6 407.7 405 401.9 394.4 385.4 378.1 377 387.5 399.6 412 427.7 442.3 461.3 482.4 504.7 518.4 533 521.4 514.6 507.6 498.1 499.1 484.1 475.2 452.6 432.2 414 394.8 374.9 333 293.8 253.7 221.3 191.6 164.6 145.2 130.1 114.9 106.7 101 100.3 101.6 103 101.8 96.4 96.9 96.7 95.3 92.1 89.2 84.3 79.2 77.6 76.9 72.5 65.2 62.7 62.7 62.7 62.7 62.7 62.7 62.7 62.7 62.7 62.7 62.7 62.7 62.7 62.7 62.7 62.7 62.7 62.7 62.7 62.7 62.7 62.7 62.4 62.8 69.5 79.1 84 89.5 97.7 112 120.3 137.2 151.7 161.4 174.5 185.1 199.1 213.4 226.4 239.7 255.9 273.1 290.1 306.3 316.9 332.9 344.9 359.1 377.2 399.6 418 443.2 471.2 502.9 530.7 540.4 554 561.2 576 586.1 605.7
231.5 234.8 238.9 243.2 248.2 251.3 255.2 258.9 263 266.3 269.5 272.2 274.7 277 279.2 280.9 282.2 282.5 282.6 282.7 284.1 284.9 286.3 287.5 288.2 290.2 289.9 295.1 297.2 298.4 300.9 302.6 303.8 305 306.2 307.3 310.2 313.4 316.9 320 323.3 327.6 336.4 343.5 352.7 360.4 369.1 377.5 387.7 397.8 402.3 408.3 415.1 422.8 430.6 439.4 450.4 460.9 471.4 482.2 498 511.4 509.7 509.7 508.9 506.1 501.1 494.6 489.8 481.2 473 465.9 455.9 447.2 435.5 429 424.2 419.5 417.6 414.2 409.9 406.8 402.9 400.8 400.4 395.8 388.3 376.2 367.8 372.4 385.2 396.3 411 430.4 444.6 460.7 484.2 505.8 513.3 514.7 513.6 511.2 497.5 486.8 477.2 468.8 463.4 445.3 425.3 408.1 385.5 375.1 340.9 285 245.8 212.6 182.6 160.2 140.5 123.9 111.1 94.6 94.7 97.1 97.1 98.2 94.5 91.1 92.4 91.1 90.4 86.9 85.3 74.1 75.2 72.6 68.8 65.2 62.7 62.7 62.7 62.7 62.7 62.7 62.7 62.7 62.7 62.7 62.7 62.7 62.7 62.7 62.7 62.7 62.7 62.7 62.7 62.7 62.7 62.7 62.7 64.1 70.3 75.1 82.1 88.9 96.1 105.4 116.5 131.3 143.1 157.9 172.2 183.5 194.6 213.1 227.6 241.6 258.2 273.8 292.8 309.8 325.5 339.2 353.6 366.3 386 409.3 441.8 441.6 461.1 487.6 520.9 554.8 564.9 575.4 587.5 599.9 613.4 627
233.1 236.8 242.2 247.1 251.6 255.4 258.9 262 265.6 269.3 273 275.8 278.2 280.5 282.7 284 284.9 285.7 285.8 285.9 287 287.3 288.1 288.8 289.3 290.1 290.9 292.8 295.2 296.8 298.1 298.8 300 301 302.1 303 305.6 308.4 311.5 314.3 318.1 322.4 329.2 336.8 344.7 353.5 362.1 371.2 380.9 388.2 396.2 404.9 412.4 421.1 429.6 438.7 450.5 459.5 471.6 483.6 492.1 503.2 500.5 505.8 501 496.7 493.2 486.2 481.5 471.9 467.4 457.7 447.9 437.9 430.3 422.5 417.4 413.5 411 408.6 403.9 398.8 395.4 392.9 394.5 391.8 377.8 365.4 353.5 367.9 381.1 393.6 415.5 430.7 441.9 454.3 470.7 492.1 506.4 507.5 505.2 507.5 490.5 479.2 473.7 457.9 445.2 435 414.1 389.3 374.2 364.4 349.1 285.6 241 204.4 174.1 152.4 134.5 119.3 109.5 96.4 88.8 91.9 92.5 94.3 89.4 87.2 87.4 86.3 85.1 81 81 74.8 68.1 67.2 65.7 63.4 62.7 62.7 62.7 62.7 62.7 62.7 62.7 62.7 62.7 62.7 62.7 62.7 62.7 62.7 62.7 62.7 62.7 62.7 62.7 62.7 62.7 62.7 65.4 67.1 70.2 76.6 84 93.6 103.3 113.8 125.1 138.2 154.3 167.8 181.6 196.5 208.8 225.6 240.8 258.7 275.5 294.7 311.7 331.2 347.2 364.3 381 396.7 430.2 461.6 483.2 477.1 490.5 515.4 542.4 564.7 573.3 585.2 596 609.7 623.8 638.3
235.3 240.2 244.2 249.3 254.5 258.7 262.1 265.2 268.7 272.3 275.9 278.8 281.1 283.2 284.5 285.3 286.6 287 287 287 287 287.5 287.8 287.7 288.2 288.5 289.2 290.6 292.7 293.7 294.2 295.2 296.8 297 297.2 297.9 299.9 302.8 305.8 308.8 312.9 318 324.5 331.9 340.3 349.7 358.4 366.6 375.3 382.8 391.8 401.7 409.8 419.1 429.7 439.2 449.8 461.3 472.1 482.8 486.1 489.8 492.8 493.3 492 487.5 483.4 477.4 470.4 465.4 463.4 451.6 443.5 434.2 427.3 418.9 412.4 408.5 404.2 401.6 398.2 392.9 387.8 385.2 384.6 377.7 366.5 355.3 347.8 366.4 379.3 395.8 415.6 426.7 436.8 447.1 466.9 479.2 493.6 498.6 497.8 497.5 480.1 466.7 465.9 452.3 449.7 438.3 399.6 370.3 359.8 334.8 330.7 282.3 242.1 199.3 168.1 145.7 126.5 115.9 100.5 89.3 84.2 87 88.7 92 85.9 82.8 82.4 80.8 79.7 75.7 77.1 69.6 68.8 64.5 63.6 62.7 62.7 62.7 62.7 62.7 62.7 62.7 62.7 62.7 62.7 62.7 62.7 62.7 62.7 62.7 62.7 62.7 62.7 62.7 62.7 62.7 61.2 63 66.3 70.3 73.2 80 89.4 98.8 111.5 120.9 133.8 146 161.7 178.1 194.6 207.8 224.9 240.5 259 276.6 295.2 316.5 334.1 354.5 372.6 391.6 409.8 444.5 477.9 503.7 518.8 520.7 519.5 544.7 559.5 570.1 580.8 589.7 601.2 614.8 629 644.9
237.3 242.6 247.6 252.3 257.5 261.3 264.8 268.3 271.7 274.5 278.1 280.4 282.8 284.2 284.8 285.6 285.7 285.6 284 283.8 283.9 284.4 285.1 285.6 285.9 285.8 286.4 287.6 289.4 290.4 291.5 292.3 291.7 291.1 291.8 293.2 295.2 297.8 301.3 304.3 308.2 313.8 320.7 327.4 338.2 348.6 355.2 362.7 371.8 380.9 390 399.8 409.4 419.6 431.3 441.9 454 465.3 476 478.7 480.9 481.9 483.6 484.2 482.5 475.6 472.9 467.5 463.1 459.1 455 446.9 440.5 431.1 424 416.9 409.2 401.7 398.8 395.7 392.2 387.1 380 376.6 373 366.2 356.3 343.5 347.3 364.1 380.8 399.1 412.3 422.1 434 442.8 458.7 468.7 482.2 490.8 498.3 482.5 467.3 452.8 447.3 437.6 445.5 436.5 389.9 354.7 340.9 313 289.2 271 241.5 193.6 161.1 141.3 123.6 107.7 95.5 81.9 82.4 82.4 82.6 82.5 78.3 78.6 77.5 76.5 75 70.4 72.2 65.7 65.1 62.4 62.6 62.7 62.7 62.7 62.7 62.7 62.7 62.7 62.7 62.7 62.7 62.7 62.7 62.7 62.7 62.7 62.7 62.7 62.7 62.7 62.7 62.7 63.3 64.9 67.7 73.1 76.5 84.5 97 106.2 116.3 132.7 143.6 158.5 173 189.5 207 224 242.9 260.8 279.2 297.8 318.7 341.8 363.5 383.6 402.9 424.8 449.4 482.1 503.2 518.6 529.2 537.2 539.2 556.1 566 574.2 584.4 593.4 605 619.4 630.9 646
238.9 244.4 249.4 254.4 259.6 263.5 267.1 270.7 273.7 277 279.9 281.7 283.3 284.4 284.5 284.1 283.6 281.9 279.9 280.4 280.8 281.3 282 282.6 282.6 282.5 282.5 283.9 286.2 287.7 288.1 288 287.5 287.3 287.1 290 293.4 295.4 298.2 300.8 304.5 310.3 316 322.4 332.5 343.4 351.9 360 367.4 378.1 386.8 398.6 409.7 419.3 427.7 439.6 451.9 461.5 468.2 470 467.6 473.1 472 470.9 469.1 464 461.1 458 456.5 451.6 450.2 443.9 436.9 428 421 414.5 406.9 399 392.8 385.9 384.5 379.3 373.2 365.9 360 356.5 346.1 330.6 344.3 360.1 380.3 394.2 408.3 417.4 429.2 443.1 454.9 464.8 467.1 473.3 480.6 469.1 453 436.7 432.2 415.4 422.7 411.2 375.9 339.7 317.4 314.7 271.3 245.9 224.5 187.5 159.8 132.7 116.2 100.2 89.5 78.1 78.2 78 78.2 74.1 74.6 74.5 73.4 72.7 70.5 65.1 63.2 62.7 62.7 62.7 62.7 62.7 62.7 62.7 62.7 62.7 62.7 62.7 62.7 62.7 62.7 62.7 62.7 62.7 62.7 62.7 62.7 62.7 62.7 62.7 62.7 62.7 64.2 66.5 70.6 75.7 81.5 91.5 104.5 117.1 129.1 141.6 160.4 172.3 188.6 204.9 224.6 243.6 263.1 282.7 298.4 321.2 345.5 368.2 392.5 414 437.3 459.1 478 498.1 510.7 523.9 534.2 542.3 549.6 559.2 568.1 577.2 586.3 597.6 608.9 619.8 631.9 648
239.3 246.1 250.7 255.9 260.4 264.5 268.1 271.4 274.1 276.7 280.1 281.5 282.3 282.7 282 280.7 279.6 277 275.8 275.6 276.9 278.8 279.2 278.6 278.2 278.4 279.2 280.8 282.3 283.5 284.7 284 283.6 283.7 284.8 286.4 290 293.1 295.5 297.4 301.9 307.4 312.5 318.5 325.2 335.1 345.7 355.5 363.5 374.4 383.7 392 406 416.5 426.4 437.6 446.6 454.7 460.6 460.1 459.8 458.1 457.8 456.9 456 453.4 450.2 450.7 448.1 446.7 442.9 438.7 433 425.6 418.9 411.6 405.2 394.9 387.9 381.9 375.7 370.2 362.9 352.8 343.1 346.3 334.8 314.5 335.8 357 374.8 390.1 404.7 414.1 424 439.2 455.9 452.6 453.2 453.9 449.1 440.4 449.8 424.6 404.8 394.2 402.3 391.5 348.3 335.9 297.5 284.8 268.5 235 200.5 179.2 155.8 128.6 111.3 95.8 86.4 77.3 71.8 74.4 74.7 71.1 70.7 70.5 69.3 62.3 62.7 62.7 62.7 62.7 62.7 62.7 62.7 62.7 62.7 62.7 62.7 62.7 62.7 62.7 62.7 62.7 62.7 62.7 62.7 62.7 62.7 62.7 62.7 62.7 62.7 62.7 62.7 62.8 66.7 70.5 73.2 79.8 88 96.7 112.6 126 140.8 156.6 170.9 190.2 204.8 221.7 242.1 262.7 281.9 300 319.2 336 360.9 385.3 408 430.9 451.3 469 485.1 499.8 513.6 526.1 535.4 545.2 551.6 559.6 568.9 577.9 585.6 597 606.7 617.9 630.3 645.5
239 245 250 254.7 259.5 263.4 266.1 268.9 270.9 274 276.5 278.6 278.7 277.7 276.2 276.2 274.4 272.2 271 271.6 272.3 274.2 273.5 273.3 273.4 274 275.4 277.2 279.6 280.1 281.2 280.8 280.8 281.2 282 283.3 286.1 288.6 290.3 296.4 300.3 304.5 308.6 314.5 324.2 332.1 340.7 348.8 359.9 371 382.9 391.1 401.9 412.4 422.6 429.7 436.5 444.4 449.5 449.5 450.3 446.7 445.8 445 442.2 441.6 442.8 441.8 442.2 441.6 440.6 438 431.6 423.3 416.1 410.2 403.1 393.7 383.8 375.6 365.7 357.1 352 342.2 333.4 334.9 322.8 302.6 329.6 351.3 369.8 386.6 400.6 408.3 421.9 428.5 426.5 433 426.9 427.1 429.8 415.3 424.4 422.6 389.6 368.9 371.1 359.9 323.3 323.6 281.2 251 239.4 230.5 195.6 164 147.5 127.7 107.6 93.4 83.3 78.2 68 68.5 70.4 67.2 61.7 62.7 62.7 62.7 62.7 62.7 62.7 62.7 62.7 62.7 62.7 62.7 62.7 62.7 62.7 62.7 62.7 62.7 62.7 62.7 62.7 62.7 62.7 62.7 62.7 62.7 62.7 62.7 62.7 62.7 62.7 64.8 71.2 73.7 80.3 88 98 108.5 120.4 135.6 152.2 169.5 185.8 204.3 222.2 242 261.4 279 298 315.1 330.7 349.9 369.5 389.3 410.7 433.9 453.2 471.1 487.5 501.4 513 526.8 536.5 546.4 552.4 556.4 567.6 575.5 583.8 592.5 603.4 613.2 627.5 641.2
238 242.7 247.2 251.5 255.7 259 261.7 263.7 266.1 268.7 269.8 269.7 271.3 271.8 270.9 270.6 268.8 266.6 265.9 266.1 267 267.7 268.5 268.9 269.2 270.7 272.6 274.8 276.1 276.6 277.6 277.4 277.7 278.4 279.6 280.5 282.6 283.8 288.9 295.2 298.2 302.1 307.1 313.8 320.4 328.6 338.2 346.5 357.1 368.4 379.4 386.6 397.7 408.1 413.5 420.3 427.7 430.6 435.5 438.2 438.7 436.3 433.3 432.1 433.7 433.1 431.7 432.8 435.4 438.4 440 437 430.4 423.3 415.7 410.9 403.4 394.4 382.6 372.6 360.6 345.3 336.6 329.1 315.5 318.1 306.7 289.7 322.8 345 365.4 381.7 391.3 400.7 407.5 418.7 410.5 399.8 395.7 393.5 392.1 400 408.7 403.8 380 346.8 325.4 303.2 290.5 284.7 267.5 246.2 223.3 198.2 182.4 157 145.1 128.6 106.7 91.7 81.1 73.1 66.6 65.2 63.5 62.1 62.7 62.7 62.7 62.7 62.7 62.7 62.7 62.7 62.7 62.7 62.7 62.7 62.7 62.7 62.7 62.7 62.7 62.7 62.7 62.7 62.7 62.7 62.7 62.7 62.7 62.7 62.7 62.7 62.7 63.9 68.1 76.5 79.5 82.6 86.8 98.9 110.6 120.5 134.4 145.9 162.1 182.6 202 220.1 238.7 258.9 274.3 289.4 307 321.1 338.6 354.8 373.7 392 411.7 431.6 455.1 473.9 489.6 504.1 513.9 525.5 535.1 543.8 550.1 554.8 564.4 571 581 589.1 596 607.2 618.5 637.1
234.9 240.1 243.9 246.9 251 253 255.3 256.5 259.3 260.1 261.7 263.4 265.4 265.7 265.1 264 262.2 259.9 260.5 261.3 262.3 264 264.2 264.8 266.1 268.1 270.1 270.5 271.7 272.5 273.5 274.3 274.4 274.8 276.3 277.7 278.7 281.9 285.6 291.6 296.1 300.1 305.4 312.2 319.1 327.1 336.4 343.4 352.5 362.6 372.5 381.7 391.1 398.3 404.8 413.2 414.6 417 422 427 426.6 422.7 422.5 422.9 422.2 422.7 425 428.6 436.4 437.1 438.6 437.6 432.9 424.9 417.8 411.8 403.2 392.7 381.1 368 356.6 345.9 327.1 307.4 297.5 299.3 285.9 279.3 312.6 340 361.2 374.1 380.9 390.4 394.2 397.3 394.2 386 375.5 370.4 371.3 382.8 380.7 362.1 350 334.3 301.1 276.2 262.8 266.5 257.3 237.2 223.4 188.2 167.8 148.5 138.9 124.6 107.6 88 75.7 69.4 65 63.9 62.5 62.2 62.7 62.7 62.7 62.7 62.7 62.7 62.7 62.7 62.7 62.7 62.7 62.7 62.7 62.7 62.7 62.7 62.7 62.7 62.7 62.7 62.7 62.7 62.7 62.7 62.7 62.7 62.7 62.7 68.9 74.2 80.5 86.1 91.2 94.7 98.9 108.6 118.7 134.7 154.8 161.6 177 189.9 210.6 233.1 251.7 268.5 282 295.6 310.7 323.7 340.1 357 373.2 391.2 412.7 433.5 454.3 474.4 490.6 504 512.9 523.3 533.2 540.7 546.3 552.5 559.8 566.4 573.7 583.2 592.3 604.1 615.2 627.6
232.1 236.7 239.5 242.7 245.5 246.8 249.4 251 253.6 254 255.3 257.3 258.9 258.9 258.9 257.9 256.7 255.8 255.4 257.3 259.1 259.7 260.1 260.8 262.6 265.4 266.6 267.2 267.9 268.8 269.5 269.4 270.6 270.3 271.8 273.6 275.7 278.9 284.3 289.2 293.7 297.7 304 311.2 318.2 325 333.8 340.6 347.5 357.5 367 375.2 383.8 390.7 396.9 402.4 404.1 405.6 407.9 409.4 410.4 410.8 410.8 411.2 413.2 415.5 419.1 427.6 434.6 438 435.8 436.1 432.2 423.5 416.1 408.2 399.1 389.6 376.6 364.8 349.7 336.4 321.4 298.7 271.2 271.4 261.2 279.5 309.6 335.3 353.9 365.4 371.8 378.2 381.3 382.4 379.7 366.7 357.1 344.5 341.6 350.5 338.2 323.9 312.3 299.4 292.7 257.8 238.2 249.5 255.1 220.5 213.1 174.4 150.8 146.1 122 116.6 101.8 86.5 68.8 62.9 63 62.4 62.5 62.7 62.7 62.7 62.7 62.7 62.7 62.7 62.7 62.7 62.7 62.7 62.7 62.7 62.7 62.7 62.7 62.7 62.7 62.7 62.7 62.7 62.7 62.7 62.7 62.7 62.7 62.7 65.6 72.7 78.9 83.7 88.8 96.6 103.5 108.8 114.8 119.6 140.1 153.6 168 180 196.6 210.8 218.6 240.6 257.9 274 286.1 298.1 311.2 324 340.9 356.6 373 393 411.1 432.6 453.9 472.1 490.1 500.2 509.9 519.8 528.3 534.8 541.8 547.5 554.6 560 567 575.4 585 601.4 611.9 624.4
229.3 232.9 234.4 238.1 240.1 241.7 244 246.1 248.3 249.7 249.8 251.5 252.2 253.1 253.1 253.3 253.6 253.2 252.1 253.3 254.3 255 255.4 256.8 258.1 259.6 261.9 263.3 263.8 264.2 265 265.7 266.7 267.3 267.5 271.3 274.1 277.8 281.7 286.5 290 294.1 301.1 307.8 316.2 322.5 330.5 337.8 345.4 351.5 358 367.2 375.1 383.1 388.2 394.3 396.6 398.2 397.6 398.7 399.2 398.6 399.5 401.3 406.4 411.7 421.3 433.8 435.7 438.2 437.9 432.3 426.3 420.6 415.6 406 397.7 387.1 372.6 357.2 343.2 329.2 310.5 290.2 260.7 248.4 245.5 274.2 303.8 331.7 347.6 353.5 360.3 366.2 361.5 358.2 341.8 334.1 332.7 318.2 318.9 312.1 297.1 293.9 277.6 273.9 264.6 239 219.5 210.7 210.4 198.8 180.3 167.2 138.3 124.6 112.9 100.3 91.7 75.4 62.7 62.7 62.7 62.7 62.7 62.7 62.7 62.7 62.7 62.7 62.7 62.7 62.7 62.7 62.7 62.7 62.7 62.7 62.7 62.7 62.7 62.7 62.7 62.7 62.7 62.7 62.7 62.7 62.7 62.9 70.4 75.6 81 89.7 96.2 101.1 105.2 113.7 122.4 128.3 132.7 146.8 158.1 169.2 181.7 196.8 214.4 225.8 236.3 248.2 261.6 274.1 286.4 298.1 308.9 325.1 340 356.2 373.3 391.9 409.3 428.9 449.6 470.2 487.2 498.4 506.8 516.9 523.8 529.4 534 539.9 545.9 552.2 560 568.6 580.8 598.5 609 619
226.9 229.3 231.6 234 235.7 238.3 240.4 242.3 243.4 245 245.9 247.2 247.8 248.6 250.1 250.8 251 250.2 250.6 249.7 250.5 250.4 251.1 252.5 254.4 256.4 257.9 258.9 259.5 259.9 260.9 261.9 263.4 263.5 266.9 269.9 272.5 275.7 279.2 282.5 287.1 292 297.6 305.3 314.7 321.7 327.8 335.9 342.5 347.5 352.9 360 369.9 376.9 381.5 384.9 386.2 388.1 388.5 389.5 389.2 388.8 389.5 393.8 399.5 407.5 419.8 434.7 433.5 433.3 432.4 425.8 420.5 413.6 408.8 402.5 392.3 383.7 371 354.7 339.3 321.6 300.3 278.5 253.1 226.4 242.3 269.9 296.4 324 332.3 337 336.9 348.1 335 322.1 310.9 300.9 291.6 286.5 289.6 277.5 261.5 253.9 242.6 242.3 240.7 222 206.4 187.1 173.1 167.2 159.4 151.7 128 115.1 101.5 89.2 81.3 68.3 62.7 62.7 62.7 62.7 62.7 62.7 62.7 62.7 62.7 62.7 62.7 62.7 62.7 62.7 62.7 62.7 62.7 62.7 62.7 62.7 62.7 62.7 62.7 62.7 62.7 62.7 62.1 64.7 70.3 76.8 85.5 92.5 97.6 111.9 116.1 121.9 125.3 134 141.4 149.1 154.1 163.9 174.3 181.9 197.7 213.2 223.5 236 247 256.1 266.2 276.8 287.3 299.3 310 324.8 340.6 356.5 371.6 390 405.9 427.9 450.3 469.2 484.7 497.1 504.7 512.2 519.3 523.7 528.3 533.1 538.3 543.9 549.8 560 573.4 589.2 603.2 616.1
223.5 226.8 230.7 231.9 233.3 234.1 235.9 238.3 240.4 241.6 241.8 243.1 244.6 245.3 246.8 247.2 247.4 247.3 247.7 247.2 246.8 247.1 248.4 250.2 251.2 253.1 254.7 256 256.7 257.3 257.8 258.6 256.6 263.1 265 268.2 270.6 273.6 275.9 278.5 282.6 289.5 295.8 302.8 311.7 318.7 325.5 331.1 337.4 344.2 350.5 356.9 363 369.8 371.1 375.3 375.8 377.3 378.6 377.9 378 375.7 381.2 391.1 393.6 400.4 409.1 421.7 430.1 430.4 427.4 423.4 419.1 414.3 412.3 404.5 394 379.8 370.7 357.6 339.1 315 285.7 262.3 242.7 217.1 242.4 267 289.7 310.2 310.8 311.9 304.9 308.5 312.2 278.6 280.7 255.4 245.9 244.7 262.9 242.7 233.7 224.5 216.9 223.6 225.9 206.4 199 177.1 160.4 149.2 142.3 133.9 116 109.5 92.8 79 74.1 64.4 62.7 62.7 62.7 62.7 62.7 62.7 62.7 62.7 62.7 62.7 62.7 62.7 62.7 62.7 62.7 62.7 62.7 62.7 62.7 62.7 62.7 62.7 62.7 62.6 70.2 75.1 79 84.3 87.9 94.9 105.2 108.5 123.3 130.6 138.2 148.8 151.7 158.3 163.9 172.7 177.1 177 189.7 197.4 206.9 218.4 230.2 243.7 252.8 263 272.9 280.8 289.2 300.1 311.1 324.3 338.1 353.2 370.5 387.3 406.5 424.5 448.3 470.2 484 495.1 501.7 507.4 512.5 517.7 521.8 524.1 528.3 534.1 541.7 550.9 565.2 581.8 593.5 608.2
221.3 224.4 227.7 229.1 229.8 232.1 233.5 234.7 236.8 238.6 239 239.5 240.5 242.1 243 243.6 244.1 244.6 244.3 244.6 244.1 244.9 246.3 247.8 248.5 250.3 252 252.9 253.6 254.5 255.1 254.4 258 261.4 263.8 266.4 268.2 270.7 273.4 275.9 280.5 286.6 292.9 298.2 304.5 312.1 317.8 324.3 333.5 340.5 346.8 350.5 355.3 359.9 361.8 364.9 366.3 367.6 368.8 367.5 365.4 366.2 374.4 380.5 386.1 391.8 398.9 414.2 419 421 421.7 420.6 418.7 411.2 405.6 400.1 387.7 382.3 378.3 364 339.8 314.7 281.6 252.2 228.2 208.8 238.8 265.3 280.1 287.2 281.7 280.1 270.4 275.2 280.5 244.8 240.9 221.7 214.4 214.2 220.8 215.5 197 192.4 201.5 212.4 202.8 180.4 185.4 159.5 144.6 141.9 126.1 115.8 109.3 109.2 82.2 72.9 73.3 62.7 62.7 62.7 62.7 62.7 62.7 62.7 62.7 62.7 62.7 62.7 62.7 62.7 62.7 62.7 62.7 62.7 62.7 62.7 62.7 62.7 62.7 65.8 75.7 79.4 87.6 89.8 94.1 99.8 106 111.4 125.8 127.8 144.7 152 164.5 175.7 181.7 183 190.2 197.8 200 197.2 203.7 212.1 217.8 227.8 238 250.5 259.3 266.6 277.2 285.3 293.9 304.6 313.9 325.9 336.6 349.4 366.3 384.6 403.2 423.9 448.1 467.5 481.7 491.7 498.2 502.6 507.1 511.4 513.9 516.8 519.3 525.8 533.3 543 556.9 572.6 586.3 604
220.5 223.1 225 227.2 229.6 230.8 231.8 232.7 233.8 235.4 235.6 236.4 237.3 237.5 239.1 240.3 241.2 241.6 242 242.2 242.6 243.3 244.1 245.5 246.6 247.7 249.2 250 251 252 250.9 252.6 255.8 258.9 261.4 263.4 264.8 267 270 272.4 278 283.4 288.5 292.1 296.8 303.6 311.4 318.1 325.5 333 341.1 347.1 350.9 352.2 354.4 355 356.5 356.4 355.6 355.4 353.2 355.3 362.1 368.6 374.8 380.1 387.7 396.9 406.8 415.3 421.4 423.3 416.8 411.3 406.9 398.4 389.8 377 372.1 358.2 336.9 312.9 274 243.8 217 203.1 236.8 254.7 259.6 257.6 250.5 248.4 234.8 231.3 233.1 211.4 198.5 191 186.2 180.3 178.9 174 171 165.4 186.6 180.4 163 150.5 154.3 151.1 135.9 127.5 125.6 112.3 96.2 85.5 74.8 68.9 66.9 62.7 62.7 62.7 62.7 62.7 62.7 62.7 62.7 62.7 62.7 62.7 62.7 62.7 62.7 62.7 62.7 62.7 62.7 62.7 62.7 62.7 70.3 85.2 93 95.9 105.7 112.6 115.8 120.4 126.1 134.6 144 150.5 160.5 172.7 191.3 208.8 210.2 212.6 216.2 218.1 218.7 214.8 219.9 226.2 231.4 238.4 246.2 257 264.4 272.2 280.3 290.7 298.8 308.2 316.3 328.1 339.5 354.6 367.5 382.4 396.4 417.2 441.7 463.9 479.6 486.9 493.8 500.2 503.7 506.5 507.1 502.9 512.5 518.5 525.5 533.6 547.2 564.1 581.1 596.7
218.4 221.7 224.1 226.4 227.7 228.8 230.1 231 231.8 231.8 232.5 233.3 233.5 234.8 236.1 237.9 238.7 239.2 239.5 240 240.9 241.7 242.2 243.3 244 245 246.2 247 248.8 252.1 245 250.6 252.4 256.5 258.5 259.7 261.5 262.7 265.5 267.9 273.3 277.2 281.7 285.4 291.4 297.1 302.7 310.9 317.3 322.9 330.2 339.1 340.2 343 346.1 346.3 346.7 344.1 342.7 340.9 339.8 345.8 348.7 354.8 360.3 366.3 371.9 386.1 400.8 411.5 419 421.6 416.6 412 406.1 402.8 392.6 381.9 365.5 350.2 327.5 297.5 261.2 233.3 206 204.1 226.6 232.6 230.4 228.2 220.1 215.5 204.7 198 195.2 181.9 172.1 166.7 160.4 156.7 153.5 150 142.1 160.9 157.6 160.8 139.6 122 122.8 130.1 130.7 124.4 122.8 101.8 87.4 81.8 72.6 63.5 62.7 62.7 62.7 62.7 62.7 62.7 62.7 62.7 62.7 62.7 62.7 62.7 62.7 62.7 62.7 62.7 62.7 62.7 62.7 62.7 62.7 74.2 93.3 103.9 112.5 119.5 123.3 133.8 138.9 143.4 148.7 157.9 170.3 179.2 185 198.2 220.6 241 241.8 239.5 240 237.5 233.9 228.5 229.6 234.3 241.6 248.3 253.8 263.8 271.6 277.7 285.6 294.6 301.5 309 319 329.8 342.3 357.1 369.8 386 403.1 427.7 449.2 467.2 481.7 490.1 493.2 496.1 499 498.8 493.9 495.7 502.7 511.7 517.7 524.8 537.8 550.8 568.6 588.3
217.5 221.3 223.4 224.9 226.4 227.6 228.1 228.5 228.3 228.6 229.3 229.1 230.5 231.6 233.9 235.7 236.4 236.8 237.3 238 238.8 239.7 240.1 240.7 241.4 242.5 243.3 244.2 245.3 247.3 243.9 247.5 249.4 250.8 252.6 255.1 256.1 257.3 259.8 262.6 267.2 271.7 274.9 279.4 285.5 289.2 291.2 299.7 307.1 311.3 317.5 320.5 325.7 329.8 333.6 334.5 334.3 333.4 333.2 331.3 331.4 332.1 336.7 340.1 345.9 352 356.4 375.5 391.8 398.2 405.3 424.5 415.2 412.4 406.6 405.5 397.2 382.6 367.6 345 313.9 277.9 245.7 218.7 191 192.5 207 205.7 208 204.4 195 183.4 176 173.3 162.2 153.1 147.1 139.9 140.8 135.6 126.3 116.2 114.4 128.6 148.1 132.4 117.1 110 109.9 119 132.3 117.8 110.9 93.4 82.6 78.1 71 62.7 62.7 62.7 62.7 62.7 62.7 62.7 62.7 62.7 62.7 62.7 62.7 62.7 62.7 62.7 62.7 62.7 62.7 62.7 62.7 62.7 74.4 93.5 109 122.8 132.1 138.9 143.2 152.2 161.5 172.7 176.3 182.3 193.5 205.2 211.7 223.4 248.2 280 271.1 263.9 258.8 252.9 246.2 240.7 237.4 242.1 246.7 254.5 261.2 267.5 275.2 282.3 290.3 297.7 304.9 312.9 321 329.5 342.3 355 370.1 387.9 404.4 426.3 448.9 466.8 480.4 489.2 490.8 491.4 493.3 489.3 478.5 487 497.7 500.6 509.2 518.6 529.6 541.6 557.7 575.8
216.6 219.8 221.9 223.3 224.8 225.3 225.4 225.1 225.2 225 225.5 226.8 227.9 229.8 232.1 233.3 234 235.3 235.5 235.6 236.6 237.3 237.2 238.3 238.7 240.5 240.2 240.8 241.5 241.6 241.7 244.7 245.6 245.7 248.2 250.1 251.3 252.6 253.3 256.1 258.1 262.7 269.6 273.9 278.4 281.6 285.2 289.8 296.1 300.2 305.5 308.9 313.9 317.8 321.9 322.1 324 323 324 320.7 321.1 323.4 325.8 327.5 331.8 338.3 343.5 357.4 384 387.1 389 408.4 408.4 407.4 404.4 400.9 391.4 376 346 315.8 292.9 262.5 233.2 208 178.8 180.4 184.9 182.1 178.5 173.3 168.4 158.3 149 143.9 140.2 129.9 123.6 119.1 117.9 119.5 114.5 109.8 103.7 106.5 133.2 115.6 106.5 99.5 105 117.9 118.6 113.3 96.5 87.3 81.8 68.5 62.7 62.7 62.7 62.7 62.7 62.7 62.7 62.7 62.7 62.7 62.7 62.7 62.7 62.7 62.7 62.7 62.7 62.7 62.7 62.7 62.9 78.1 92.2 114.4 130.6 145.6 151.7 160.1 169 176.2 186.9 195.4 202.9 208.9 219.1 230.9 241.2 255.6 276.1 307.7 292.1 282.9 275.5 267.6 259.7 250.3 243.8 250.3 256.5 261.2 266.1 270.6 278.6 287.3 293.8 300.5 307.5 314.7 323.6 332 345.1 355.4 368 386 404.6 427.2 446 465.2 478.8 485.3 487.9 487.3 485.6 476.8 469.2 477.5 488 494.8 503.8 510.6 520.8 534.9 548.9 565.8
216 218.5 220.1 221.2 222.1 222.6 221.9 221.8 222.2 222.5 224.4 225.8 227 228.1 230.1 231.4 233.1 233.2 233.9 234.2 234 234.4 234.6 234.5 235.4 236.6 236.3 238.3 238.7 237.9 239.2 241.1 242.6 242.1 243.7 247.2 246.9 247.6 247.9 250.5 252.4 256.1 263.2 267.3 272.3 275.6 279.6 283.4 288.7 292.4 295.5 299.8 303.6 306.6 309.7 311.6 313.3 314.9 311.6 309.5 310 311.2 316.2 319.2 324.8 328.1 336.9 342.9 362 375.7 380.9 388.4 400.6 397.1 397.1 389.5 385.7 362.4 307.8 284 258.6 242.1 219.7 200.8 164.2 160.1 164.4 164.5 155.3 151.3 141.5 135.1 129.7 125.9 121.1 118.8 117.4 112.9 110.9 110.3 104 103.7 94.8 100.4 110.5 105.9 100.1 93.4 98.3 101.2 107 96.7 81.3 82.3 78.6 70.3 62.7 62.7 62.7 62.7 62.7 62.7 62.7 62.7 62.7 62.7 62.7 62.7 62.7 62.7 62.7 62.7 62.7 62.7 62.7 62.7 77.6 96 115.1 134.6 150.2 168.7 176.3 186.4 199.4 209.5 215.8 222.1 230.6 238.6 246.9 259.1 270.2 295 306.4 318.8 307.1 297.1 289.1 281 272.9 261.7 252.1 254.4 261.3 267.5 272.5 275.5 284.2 291 297 302.2 308.6 315.8 324.6 334.3 345.2 356.2 368 384.3 402.7 423.7 445.6 462.4 475.9 481.6 482.9 482.1 475.8 463.1 462.7 469.5 478.7 485.8 496 504.9 515.4 529.2 540.9 556.1
215.1 216.7 218.2 218.7 218.8 218.8 219.2 219.1 220.6 221.3 222.5 223.3 224.8 226.4 228.9 230.8 230.3 230.7 231.4 231.7 231.7 233.7 233.1 232.4 231.8 232.7 233.1 235.2 234.7 233.1 237.8 238.9 239.5 240 239.7 243.2 242.5 242.7 244.1 244.1 245.6 251.4 257.3 263.4 267.4 270.1 273.3 277 280 283.7 285.3 288.8 293 295.4 299 299.4 300.9 300 297.9 298.1 295.2 302.5 308.8 313.4 317 320.7 331.8 345.3 356.6 370.4 382.1 388.1 403.5 392.3 364.4 348.5 339.9 301.9 270.1 251.2 224.5 214.8 198.8 190.4 174.3 149.7 142.3 142.1 136.8 128.3 121.7 116.4 110.1 109.7 112.2 117.2 115 107.5 101.2 100.8 95.1 93.1 91.7 91.8 97.2 96.8 92.2 90.1 94.4 96.7 90.3 82.6 78.4 74.6 67.3 66.8 62.7 62.7 62.7 62.7 62.7 62.7 62.7 62.7 62.7 62.7 62.7 62.7 62.7 62.7 62.7 62.7 62.7 62.7 62.7 78.4 96 114.2 136.4 155.5 169.8 186.7 201 211.2 227.3 239.9 248.4 255.5 264.3 271.4 280.7 292.1 307.3 326.4 337.7 332 317.3 308.2 297.5 287.3 278.9 268.3 261.2 260.5 265.1 269.1 274.8 280.7 285.9 292.3 298.8 304.4 309 316.1 325.6 335.3 344.1 355.7 367.3 382.9 402.4 420.5 441 459.3 468.4 475.6 476.9 476 466 449.1 448.4 464.4 471.6 478.2 484.8 497.5 509.1 521.5 532.1 547.5
211.4 214.1 215 215.2 215.3 215.9 217.4 218 218.9 219.1 220.4 222 223.1 224.3 225.9 226.8 227.5 228.6 229.3 229 229.2 231 230.8 228.8 228.9 229.1 229.3 231.2 230.4 231.6 235.1 236 236.6 235.7 235.9 238.6 236.9 236.4 238.5 238.9 241.8 246.1 251 256.5 261.5 262.9 265.2 267.5 268.6 272.1 275.1 277.1 279 282.7 283.3 285.1 286.1 286 283.7 282.6 283.5 287.8 299.1 303.9 308.8 316.2 328.9 349.9 357.5 384.4 387.1 384 381.8 381.2 346.3 296.9 279.6 261.3 236.2 218.3 197.5 182.6 177.1 166.5 156.1 145.5 120.4 124.8 120.4 111.6 104.9 102.2 101.2 101.5 108.2 107.4 102 95.9 98.2 94.7 94.8 89 87.2 101.2 94.9 90.5 87.3 87.3 82.7 82.3 74.4 75.2 77.8 74.1 62.7 62.7 62.7 62.7 62.7 62.7 62.7 62.7 62.7 62.7 62.7 62.7 62.7 62.7 62.7 62.7 62.7 62.7 62.7 62.4 82.3 99.8 118.8 138.5 160.6 178.1 194.7 209.6 226.8 244.8 260.7 273.9 285.4 292.1 299.6 308 318 330.5 352.6 357.3 357.5 341.9 325.2 314.4 304.9 294.1 283.1 274.5 271.9 265.6 267.4 271.8 276.4 281.8 288.1 293.8 299.9 305.2 309.5 315.7 324 334 344.6 354.1 367.3 383.6 400.3 416.5 434.8 452.9 462.9 467.6 470.9 463.6 453.1 434.6 445 461.5 464.4 470.7 478.3 487.7 499.4 512 525.3 540.2
208 209.4 211.2 211.3 212.7 214.5 216.2 217 217.1 218 219.3 220.6 221.5 222.6 223.8 224.1 224.8 225.9 226.5 226.5 226.3 227 226.6 225.8 226 225.8 225.9 226.5 224.1 228.6 230 230.8 230.5 232 230.8 231.6 231.6 229.4 231.5 232.3 235.2 238.2 241.3 245.9 249.5 250.9 252.2 253.9 255.2 257.5 261.3 261.7 263.9 266.6 268.1 271.3 272.8 266.3 265 260.3 267.4 274.2 280.9 293.1 302.9 315.2 328.3 346.4 360.4 382.5 392.4 390.4 341.8 335.3 308.3 270.1 247.8 222.3 206.6 187.3 169.7 156.3 151.1 146.1 135.7 132.6 116.8 111.3 109.7 101.4 93.9 91.5 91.7 95 100 100.3 93.7 84.9 91 92.2 99.8 93.4 86.4 87.4 84.7 79.7 77.4 84.4 76.4 78.4 69.9 69.4 63.4 66.4 62.7 62.7 62.7 62.7 62.7 62.7 62.7 62.7 62.7 62.7 62.7 62.7 62.7 62.7 62.7 62.7 62.7 62.7 72.2 85.6 105.7 123.6 147.6 168.5 183.3 201.3 221.4 240.2 258.5 275.8 301.9 315 324.9 332.4 339.3 346 366.8 373.8 379.1 380.2 365.4 346.6 330.6 317.8 309.3 300.1 289.1 284.8 279.7 271.6 270.9 273.6 278.9 283.6 290.3 296.9 302.5 305.8 309.8 315.3 323.2 333.9 342.7 350.2 364.9 380.7 396 413.6 428.4 444.1 454.3 462.4 461.5 452.1 439 420.2 445.8 454.6 461.2 464.4 468.2 476.8 487.4 501 513.4 528.6
206 207.3 209.4 210.7 212 214.3 214.5 215 216 216.9 218.1 219.1 220 221 221.8 221.9 222.1 222.6 223.1 223.2 222.5 222.7 222.3 222.9 222.3 220.9 222.6 221.8 219.9 223.9 225.3 226.4 226.2 225.4 225.1 224.8 224.6 222.8 222.6 222.7 226.7 229.5 230.1 232.7 235.5 237 238.6 238.8 239.2 241.9 245.2 245.6 246.8 249.6 250.7 253.2 256.1 250.6 246.1 238.9 247.6 258.9 267.1 280.5 300.2 308.5 320.1 338.2 337.8 333.9 354.1 361.6 334.3 289.3 259.3 232.6 217 195 175.9 159.3 145.1 136.6 129.9 126.5 122.2 120.3 101.8 102.7 101.4 96.4 91.2 90 92.3 90.8 86.2 85.6 86.1 75.6 82 91.7 100.9 94.2 86.4 82.6 79.4 77.8 70.4 72.1 75.9 71 63.7 62.7 62.7 62.7 62.7 62.7 62.7 62.7 62.7 62.7 62.7 62.7 62.7 62.7 62.7 62.7 62.7 62.7 62.7 62.7 62.7 72.8 95.8 112 132.7 153.4 170.4 192.1 209.9 229.4 252.2 274.9 294.9 310.5 335.9 353.6 366.3 386.2 394.5 395.8 396.1 402.1 405.1 390.7 370 352.9 334.9 319.9 310.3 302.1 296.4 292.7 285.8 278.3 274.5 276.5 281.8 287.4 293.2 298.3 302.6 306.4 311.6 315.2 322.7 331.1 339.6 346.3 359.1 377.2 393.6 408.6 425.5 437.3 447.4 452.7 452.2 441.6 424.8 414.9 437.9 448.8 452 457.6 460.9 468.3 475.3 485.9 502 518
204.9 206.8 208.6 210.1 211 212 212.9 214.2 215.1 215.9 216.9 217.7 218.5 218.7 219.1 219.3 219.4 219.2 219.6 219.1 219.4 219.3 219.2 218.2 217.6 216.5 217.6 213.7 218.7 220.5 220.6 221.5 220.5 219.2 219.5 218.3 217.5 215.6 214 213.9 215.4 217 217 217.7 219.7 221.2 221.1 222.8 223.3 225.8 226.5 226.9 225.8 225.9 230.5 231.4 231.9 226.8 222.4 213.4 225.8 240.8 241.4 246.6 262.9 262.3 261.8 287.3 309.3 292.8 290.5 299.2 274.9 243.8 225.9 208.5 185.1 168 150.3 135.7 127.1 119.6 115 110 105.6 109.6 95.5 95.3 96.3 92.2 88.6 91 87.4 81.7 73.3 74.1 72.6 73.6 88.7 91.6 98 92.5 84.2 82.2 74.9 70.5 67.4 68.4 69.4 65.7 62.7 62.7 62.7 62.7 62.7 62.7 62.7 62.7 62.7 62.7 62.7 62.7 62.7 62.7 62.7 62.7 62.7 62.7 62.7 63.8 80.7 100.8 119.7 140.7 160.4 179.7 199.1 217.3 238.1 256.1 280.7 305.2 328.3 348.2 370 386.6 404.3 419.5 428.7 427.1 416.6 420.9 412.3 392.5 371.5 355.8 335 323.4 313.9 306.2 301.4 298.6 291.3 286 280.1 279.1 284.5 290.6 295.7 300.2 302.8 306.4 311.6 317.2 323.1 331.9 338.1 343.1 357.3 370.7 386.5 404 418.8 432.8 444 446.6 442.3 429.9 409.4 417.7 435.6 440.4 442.8 448.7 453.2 458.1 466.2 471.2 489.4 506.6
203.6 205.6 207.5 208.2 210 210.4 211.6 213 213.7 214.3 214.8 215.8 215.4 215.9 216.4 216.7 216.6 215.3 214.9 215.8 215.7 215.3 214.4 212.8 212.3 212.9 212.8 208.9 214.7 216.5 216.3 216 215.9 214 212.3 209.8 209.7 207.3 205.6 201.9 202.7 203.2 202.9 201.9 202.1 202.8 201.8 204.7 204.9 206.8 206.9 205.4 203.3 202.7 203.8 203.6 201.2 203.6 196.1 192.9 197.7 208 204 209.5 220.2 224.9 223.3 232.6 256.6 255.8 242.2 245.3 222.1 200.1 183.3 174 161.1 143.5 128.8 117.1 112.2 107.5 99.9 94.1 91 90.3 89.5 90.3 89.7 88.6 86.3 80.1 77.9 76 71.6 71.2 69.8 79.9 89.5 101.3 94.3 89 83.4 80.9 78.5 74.5 68.1 64.5 62.1 62.6 62.7 62.7 62.7 62.7 62.7 62.7 62.7 62.7 62.7 62.7 62.7 62.7 62.7 62.7 62.7 62.7 62.7 62.7 62.7 83.6 104.4 125.5 143.4 166.4 189.2 206.6 225.8 244.2 268 288.7 305.5 331.7 356 380.1 398.8 416.3 435.8 442.3 445.8 438.1 437 430.1 412.7 391.9 374.2 360.2 346.7 327.7 317.7 314.1 307.2 301.1 297.6 293.1 288.2 284.8 288.8 294.5 297.6 301.2 303.6 306.2 311.3 318 322.8 330.8 335.8 341.9 354.6 367.3 383.3 398.7 412.7 430.6 439.2 439.8 434 418.1 396.4 415.8 431.3 431.2 432.1 436.2 439.2 446.5 455.7 464.9 475.2 493.2
203.6 205.1 206.5 207.3 207.5 208.4 210 211.5 211.3 211.1 212.3 213 212.6 212.5 213.1 212.3 212.4 211.4 212 212.1 210.6 209.8 209.2 208.3 207.3 207.8 208.6 205.5 211.5 211 210.9 210.1 208.1 204.9 204.2 202.2 201 198.8 196.1 187.1 189.3 187.2 185 184.5 184.4 182.7 181.6 184.2 187.8 187.7 188.3 184.4 182.3 181 183.7 182.5 177 175.1 174 170.5 176.8 176.7 174.8 179.1 176.7 184.8 187.7 194.9 216.6 225.7 208.4 199.4 181.5 169.1 151.6 141.3 132.9 124.4 112.4 106.2 102.2 98.5 91.1 85.2 83.4 83.6 84.9 85 84.1 83.2 81.2 78.1 75.6 73.5 70.8 69.9 69.8 81.9 85.4 88 85.5 81.1 81.8 79.1 77.3 73.4 70 65.2 62.7 62.7 62.7 62.7 62.7 62.7 62.7 62.7 62.7 62.7 62.7 62.7 62.7 62.7 62.7 62.7 62.7 62.7 62.7 64.2 85.8 108.8 134.1 154 173.9 189.7 215 235.8 254.7 275.3 292.3 312 334 361.5 383.5 407 429.3 444.3 454.3 458.8 446.2 446.9 440.7 430 414 402.9 385.2 366.1 352.1 332.8 322.1 317.1 311.3 304.3 300.9 297 293.8 290.6 293.7 296.2 299.6 301.3 303.5 306.1 311 318.2 323.2 328.1 333.2 340.4 350.6 364.6 379.5 393.3 408.9 424.8 432.4 431.4 424.4 405.5 388.5 416 418.3 417.4 420.8 421.7 423.7 432.3 443 454.9 465.8 478.2
202.9 203.8 205.4 205.3 205.7 207.2 207.9 208 208.2 208.7 208.8 208.4 208.6 207.9 208.3 208.4 206.8 208 208.3 206.8 204.2 204.1 203.4 202.5 203.2 203.5 204.7 204.8 206.9 206.7 204.2 202.6 200.5 197.9 196.4 194.4 191 186.6 182 172.9 172.3 170.5 169.3 167.1 164.7 165.7 165.2 167.3 170.5 169.7 169.9 167.5 162.4 163 163.6 159.2 156.6 155.9 154.2 152.9 156 154.9 153.7 152.7 151.5 152.7 154.4 160.8 178.4 189.6 173.4 162.4 149.7 137.6 124.3 115.9 110.8 107.3 103.8 99.2 93.9 89.1 83.8 79 78 80.1 81.5 81 79.7 78.4 76.7 75 74.9 72.2 70.4 69.4 69.5 72.3 75.9 77.8 78.5 81 76.1 80.1 78.5 71.3 66.8 64.7 62.7 62.7 62.7 62.7 62.7 62.7 62.7 62.7 62.7 62.7 62.7 62.7 62.7 62.7 62.7 62.7 62.7 62.7 63.9 86.4 114.8 139 166.3 189.7 200.9 218.7 240.4 262.6 282.6 301.5 320 342 365.8 392.1 408 430.9 448.3 461.4 465.4 464.7 456.8 453.8 448.1 436.7 425.6 412.4 394 370.9 355.7 336.2 328 320.6 312.2 307.1 303.7 300.5 296.9 294.5 296.7 298.8 299.5 300.6 302.9 306.5 310.5 315.8 322 325.9 328.1 339.1 348.4 358.5 373.6 386.8 400.5 417.4 425 425.8 412.4 394 383.8 401.1 399.4 397.4 400.5 402.6 408.4 417.2 425.3 442.5 454.5 464.3
201.5 202.4 202.9 203.5 202.3 204.2 204.4 204.6 204.9 205 204 203.2 204.2 204 204.2 202.5 203.5 203.7 202.2 201.3 198.3 198.3 197.3 198.4 197.8 197.7 199.6 202.8 200.2 199.3 197.7 194.8 191.8 190 187.2 182.5 177.2 173.9 167.1 158.8 156.9 154.7 152.2 152.9 152.7 151.8 151.5 152.7 155.7 158.3 158.2 154.6 147.8 144.7 143.4 141.9 141.3 140.2 138.1 132.7 137.1 134.4 135.3 132.8 131 133.6 136 139.7 149.7 152.4 146.8 134.4 120.7 113.2 108.1 102.1 97.2 95.5 96.1 93.6 87.4 82.7 77.8 75.5 75.9 78.1 78.4 77.5 77.7 75.6 73.5 71.8 71 69.6 68.8 70 68.9 72.6 74.4 72.5 73.4 73.7 72.6 75.1 75.1 68 63.5 62.7 62.7 62.7 62.7 62.7 62.7 62.7 62.7 62.7 62.7 62.7 62.7 62.7 62.7 62.7 62.7 62.7 62.7 62.5 88.5 112.9 139.4 172.9 211.4 215 234.5 244.5 260.3 285 303.9 330.1 356.6 365.9 381.6 405.6 425.4 451.7 467.9 478.5 473.3 472 467.5 462.4 456.7 450.2 439.6 423.1 399.7 375.9 359.1 339.4 330.3 321.6 313.8 308.1 304.1 301.5 299 297.4 296.8 298 298.5 300.3 303.2 306.5 310.7 313.6 318.5 320.5 326.4 334.5 343.8 353.2 365.9 381.3 395.6 411.2 418.1 416.7 403.4 381.5 375.2 383.3 381.6 381.9 382.6 385.1 391.7 400.6 408.4 421.5 436.3 456.3
200.1 201 200.8 198.6 200.3 200.3 200.5 200.7 200 198.7 198.6 199.3 200.2 200 199.6 196.8 198.7 197.8 196.1 194.5 191.7 190.2 192.1 192 190.5 190.2 192.7 193.5 187.5 190 188 186.4 183.9 180.2 174.3 168.4 163.3 158.5 151.4 147 142.9 142.1 139.9 138.6 140 139.1 137.7 139.3 144.1 149.2 144.1 137.5 136.7 133.3 130.4 126.4 127.8 127.2 123.6 120 124.6 123.1 121 121.2 122.6 124.4 122.1 121.3 124.8 124.7 122.6 115 104.9 99.5 96.7 92.5 88.7 86.3 88 85.5 81.2 77.3 73.6 73.2 74.6 75.3 76 75.2 74.6 73.1 72 70.3 69.2 67.8 67.7 66.9 69.5 75.5 73.2 71.1 70.6 72.6 75 70.4 73.8 64.2 62.7 62.7 62.7 62.7 62.7 62.7 62.7 62.7 62.7 62.7 62.7 62.7 62.7 62.7 62.7 62.7 62.7 62.7 62.6 89.6 114.9 141.5 177.8 219.2 239.9 241.9 263.6 274 291 305.5 327.8 346.4 368 391.4 406.7 428.5 446.4 467.6 479.4 483.9 486.4 481.9 477.6 472.5 468.5 461.6 447.2 430 403.8 377.7 360.4 345.4 332.9 323.6 315.6 309.8 304.7 301.4 298.1 296.9 298 298.1 297.4 300 302.5 305.4 307.8 311.8 316.8 315.1 320.6 330.4 337.7 347.8 357.5 372.9 388.5 398.1 403.9 402.3 388.4 371.8 367.9 369.1 367.3 375.2 390.1 397.2 403.1 410.9 423.8 434 444.4 461.2
199.2 199.7 196.5 195.8 197.2 196.5 196.4 195 194.3 194.4 194.1 195.1 196.2 195.9 193.9 192.1 191.7 191.2 189.6 187.1 184.5 182 185.4 185.8 182.5 181.1 183.4 185.4 176.6 180.4 178.7 177 173.1 167.8 160.4 154.6 151.6 147.4 142 136.7 131.7 129.3 129 129 130.9 131.7 126.9 128.2 132.7 135.5 130.7 125.6 122.7 122.7 118.2 115.5 114 112.9 111.4 111.9 111.1 111.5 112.2 109.4 108.8 108 106.1 105.2 105.6 104.6 101.8 99.4 95.7 90.5 86.8 84.7 83 79.8 80.9 78.8 76.4 73.5 71.7 71.7 72.3 72.9 73.6 73 71.8 71.2 70.7 69.3 67.9 67.4 67 72.9 72.7 70.9 70.1 69.9 70.6 75.3 77.7 66 62.7 62.7 62.7 62.7 62.7 62.7 62.7 62.7 62.7 62.7 62.7 62.7 62.7 62.7 62.7 62.7 62.7 62.7 62.7 67.6 89 112.9 143.1 183.7 218 245.4 268.5 274.6 293.7 308.8 321.2 337.2 347.6 365.9 385.8 407.9 431.6 449.3 470.1 485 491.3 495.4 491.3 491.8 492.2 486.2 482.3 471.9 454 432.5 406.3 382.7 363.1 346.3 333.8 326 317.1 310.9 305.6 301.4 296.4 295.1 298.1 294.6 296.7 299.5 301.1 301.8 305.4 307.1 309.5 309 313.5 322.2 330.4 338.2 348.3 365.6 377.7 387.8 391.6 384.6 370.8 358.8 357.4 371.8 381.5 390.8 401 407.3 411.4 420.1 432.3 445.9 461.7 476.1
194 194.7 190.4 190.7 192.1 191 189.3 189.1 187.9 188.8 189.9 190.6 189.5 188.8 186.9 185.6 186 182.8 180.9 179.3 177.1 175.3 179 178.3 175.4 174.2 173.3 173.8 171 169.4 166.5 161.5 158.4 155.8 149 144.5 139.8 136.2 131.8 124.5 120.6 120 120.8 121.4 122.6 121.2 119.7 117.5 117.7 117.4 120.6 118.6 115.8 111.8 106.6 104.5 103 102.7 104.7 104.1 102.5 104 101.4 100.5 98.5 97.5 96.3 93.3 93.5 93.6 92.3 91.1 89.4 83.4 81 79 75.5 74.5 75.1 74.4 72.8 70.8 69.7 70.1 70.5 71.7 72.9 71.9 70.4 69.6 68.4 68.2 67 66.8 70.4 68.4 72 69 69.4 69.2 69.5 70 66.8 62.9 62.7 62.7 62.7 62.7 62.7 62.7 62.7 62.7 62.7 62.7 62.7 62.7 62.7 62.7 62.7 62.7 62.7 62.7 73.1 96.5 118 140.9 172.8 230.3 248.5 273.7 296.5 307.9 322.3 335 344.6 357.7 368.8 385.2 405.4 432.5 451.5 471.9 491.9 497.7 502.6 505.1 507.3 505.2 505.2 500.5 495.9 482.6 460 434.6 408.4 382.5 362.4 347.4 334.7 324.8 318 311.6 305.4 300.5 295 294.7 295.7 293.5 297.7 299.3 299.3 299.8 301.3 298.1 302.2 300.9 308.5 314.6 320.1 327.2 340.6 360.4 368.1 375.3 375.7 367.5 352.7 362 379.5 389.2 395.4 402 410.6 416.2 421.2 431.2 444.4 458.8 474.1 485
188.1 187.1 184.9 185.6 186.5 185.6 183.8 184.5 183.8 183.8 184.9 182.9 182.2 181.9 180.9 179.2 177.2 173.8 171.4 171 170.5 170 171.4 170.5 166.9 165.5 162.2 163.7 161.5 156.3 154.5 150 145.3 142.6 139.3 130.3 128.6 125 118.6 112.5 110.6 110 111.3 111.7 111.9 110.9 111 110.8 112.1 113.9 114.1 112 109.4 102.5 97.9 96.6 97.7 99.7 100.8 96.6 96.6 95.8 92.9 91.8 89.5 88.6 86.3 85.8 86.7 88.9 87.4 84.6 82 79.2 77.3 73.5 71.4 72.1 71.5 71.4 67.8 67.8 68.7 69.1 69.4 70.3 71.5 71.2 69.3 68.3 67.6 67.1 69.2 66.1 66.2 65.1 65.2 68.1 68.3 70.5 71.2 64.9 62.1 62.7 62.7 62.7 62.7 62.7 62.7 62.7 62.7 62.7 62.7 62.7 62.7 62.7 62.7 62.7 62.7 62.7 62.7 76.1 99.9 121.9 146.3 168.4 214.3 254.7 281.9 314.2 325.2 337.2 347.9 362 369.1 379.8 388.7 403.5 430.2 456.5 479.2 498.9 508.4 513.3 517.8 521.6 519.2 520.7 518.5 512.7 504.1 486.5 461.4 434 408.2 383.3 361.8 345.5 333.1 324.2 319 312.5 305.3 298 293.6 289.6 290.6 292.4 296.8 298.3 297.3 294.9 294.3 290.8 294 294.8 301.6 307.5 310.1 315 330.8 346.7 358.3 364.1 361 348.3 348.9 369.9 387.4 395.7 403.6 411.1 417 423.4 429 438.7 454.3 467.7 478.7 488.8
183.6 182.2 181 180.3 180.8 179.4 177.7 178.6 178.2 177.1 177.3 176.2 175.7 175.8 173.9 170.7 167.9 166.2 165.4 164 159.6 160.9 163.3 162.1 159.1 156.1 153.7 152.8 151.5 146.3 144.1 140.6 138.4 133.5 128.4 121.2 117.7 113.8 110.2 103.8 101.6 103.2 103.3 104.4 104.2 104 104.7 105.9 112.1 114.1 115.2 110.3 103.5 97.2 93.9 93.6 94.9 96.6 96.5 93.7 90.5 90.2 87.1 84.6 81.8 80.2 81.4 84.3 84 84.4 82.5 78.3 77.1 76.2 73 70.8 67.9 67.4 67.7 69.7 68.9 67.2 67.2 67.5 68.1 69.2 72.3 70 68.7 67.3 67.3 66.8 67 66 65.2 65 64.4 64.5 65.5 63.6 63.7 62.2 62.6 63 62.7 62.7 62.7 62.7 62.7 62.7 62.7 62.7 62.7 62.7 62.7 62.7 62.7 62.7 62.7 62.7 73.7 98.7 125.7 150.7 172.2 197.3 235.5 271.9 321.6 343.7 352.4 364 373 384.9 394.6 402.9 412.4 427.4 450.4 480.1 500.9 519.7 526.4 534.6 538.7 537.6 538.7 536.8 532.4 521.4 507.7 485.6 459.3 432.2 406.6 382.8 363 344 329.4 321.9 316.6 312.7 307.7 299.4 291.6 286.2 286.4 289.4 293 294.2 293.9 290.8 285.5 284 286.7 285 293.7 296.5 296.7 304.6 321 332.9 344.3 350.2 344.8 336.2 357.6 376.9 389.1 398.3 406.6 414.4 422.6 431.1 436.4 443.8 456 469.8 480.3 490.2
178.6 176.5 175.5 174.6 173.6 173.3 172 171.3 170.6 169.8 170.4 170.3 167.7 166.5 164.2 160.3 158.4 158.7 158.9 155 153.7 154.3 153.6 155.3 152 148.3 145.5 144.2 143.4 138.6 134.1 132.6 131 123.9 118 112.2 108.3 106.2 101 99.4 98.1 97.5 98.2 99.5 100.7 100.3 99 101.4 107.6 113.6 116.8 111.1 100.1 93.9 90.1 88.4 88.2 91.9 91.3 88.5 87.1 84.9 82.6 81.2 78.6 77.8 79.1 81.1 81.5 81.3 79.9 76.7 75.8 72.3 68.4 67.6 66.2 66.6 67.9 69.1 68.8 67.4 66.6 66.9 67.3 67.8 68.8 68.9 68.4 70 70.1 69.6 68.9 66.8 65.9 65.2 64.7 64.5 65.3 71.9 66.5 64 62.7 62.7 62.7 62.7 62.7 62.7 62.7 62.7 62.7 62.7 62.7 62.7 62.7 62.7 62.7 62.7 62.7 78.5 98.1 119.4 147.2 176.1 201.4 223.2 247.5 283.6 332.1 369.9 381.2 392 402.3 414.2 421.4 429.6 441.9 456.1 476.6 503.1 526.2 538.9 548.1 553.9 555.9 554.4 553.1 548.9 537.6 522.9 505 482.3 454.7 428 405.2 381.7 357.9 341.8 326.3 318 312.6 308.2 304.3 299.7 292.9 286 282.4 286.1 288.7 289.8 287.9 283.3 282.9 278.1 280.2 278.8 283.4 283.2 283.3 295.1 309.3 318.1 326.2 331.5 334.2 344.6 361.9 375.9 387.7 397.8 408.7 417.4 425.6 434.9 443.5 451.4 460.4 470.5 482.2 490.4
172.6 170.8 170.2 168.5 169 167.5 165.5 164.6 164.3 161.4 164.1 162.9 158.8 155.9 152.9 150 149.7 150 150.4 149 146.2 148.6 147.7 147.7 144.4 140.4 136.6 135.7 133.6 129.6 125.6 122.2 119.6 113.7 109.1 104.2 100.6 97.9 95.7 95.1 95.6 93.5 93.9 96.7 98.3 99.1 97.4 97.6 106.2 111.9 109.5 106 95.6 90.3 88.5 88.4 89.6 87.9 83.7 84.1 84 82.9 81 79.6 79.2 78.1 77.7 77.4 79.9 80.1 78.7 75.7 74 69 66.2 66.3 65.6 66.6 67.2 67 66.4 66.1 66.2 66.5 66.8 67.4 68.6 68.5 69.5 72.4 74.5 76.7 73.8 71.1 67 67.9 65.1 67.6 72.2 73.8 67.3 63.4 62.7 62.7 62.7 62.7 62.7 62.7 62.7 62.7 62.7 62.7 62.7 62.7 62.7 62.7 62.7 62.7 79.9 103.5 123.7 144.3 165.4 196.4 227.4 251.4 278.9 303.3 331.8 385.6 404.7 420 434.5 445 454.5 461.6 473.5 490.6 510.3 534.6 548.2 560.5 565.9 571.1 571 569.3 561.8 551.6 537.6 518.1 499.6 474.6 447.4 421.7 401.4 376.6 354.7 339.9 327.2 316.9 310.1 303.8 297.5 294.7 290.5 284.7 281.5 286.8 285.8 282.1 279.5 278 276.5 274.5 274.5 272 273.4 270.4 270.2 281.8 294.2 302.4 309.2 314.6 324.6 344.9 358.8 373.2 386.2 398.9 410.1 421.1 432.3 441 449.4 455.8 462.6 471.3 480.7 489.8
166.3 164.9 162.9 162.7 161.9 160.3 159.3 156.3 155.2 153.5 153 152.8 148.7 145.6 142.9 140.9 141.9 141.5 143.1 141.5 140.5 141.2 140.2 140 136.3 133.8 130.6 126 122.6 121.2 119.5 115.3 108.6 104.3 100.7 96.1 93.4 93.8 94.8 95.1 92.2 89.6 89.5 94.3 98.9 99 96.3 96 100.8 101.9 101 96.9 91.4 89.4 89.3 88.9 92 91 86.2 82.5 82.5 80.5 78.9 78.1 78.9 78.2 77.6 77.1 78.7 77.3 76.4 74.8 72.8 68.1 66.1 65.4 65.5 65.7 65.5 65.4 65.5 65.8 66 66.4 66.6 68.4 69.5 70.3 72.2 75.7 77.3 78.9 73.8 68.1 67.3 71.1 73 75.9 78.6 73.1 72.5 62.5 62.7 62.7 62.7 62.7 62.7 62.7 62.7 62.7 62.7 62.7 62.7 62.7 62.7 62.7 62.7 78.8 98.4 123.4 149.2 170.6 192.5 214.2 244.7 277.8 309.5 336.4 376.9 398.6 429.7 448.8 466.8 480.3 489.6 496.4 507.6 521.1 544.2 564.2 568.5 573.9 576.3 583.8 584.2 574.7 561.8 548 533.2 513.6 491.3 465 438.8 417.9 394.3 370 350.7 336.6 326.8 316.5 308.2 301.5 295 289.6 285.7 278.8 286.4 286.8 281.8 277.2 273.9 271.9 271.9 271.4 270.8 268.7 267.8 267.1 268.9 274.2 283.4 289.1 295.3 303.1 324.5 342.4 357.4 374.1 387 400.3 412.6 425.4 435.5 444.8 452.4 459.9 465.7 471.2 477.9 484.9
160.3 158.7 157.2 154.7 154.2 153.2 149.2 146.4 145.8 142.1 142.9 140.7 137.5 135.4 135.4 134.3 133.9 134.2 134.6 133.5 132.7 133.2 132.3 132.7 127.7 123.5 121.7 117.6 116.7 115.4 116.7 108.4 102.1 97.2 91.2 87.5 88.7 91.1 92.6 93.4 89.8 87.6 86.5 88.4 92.4 93.3 92.8 93.4 92.2 89.4 90 90.1 90.4 89.9 89.4 89.7 91.1 89.6 94.5 90.3 84.8 80.5 77.1 76.1 75.7 76.1 77.6 76.3 75.9 75 73.7 73.5 70.6 67.9 65.7 65.2 65.2 65.5 65.7 66 66.5 65.9 66.3 67.3 68.6 71.1 73 74.8 76.9 78.1 76.5 74.7 71.3 69.4 78.3 75.4 75.7 75.9 73.7 67.3 62.7 62.7 62.7 62.7 62.7 62.7 62.7 62.7 62.7 62.7 62.7 62.7 62.7 62.7 62.7 64.3 85.6 107.5 125.5 143.3 170.5 197.7 218.8 243 271.5 309.3 330.4 360.7 403.3 437.3 459.1 478.6 495.6 519.2 524.7 537 551.2 561.4 577.4 580.3 582.5 579.4 583.6 589.1 584.8 572.5 556.9 541.2 523.1 503.8 479.2 454.9 432.7 408.2 385.1 363.6 345.6 331.9 323.4 315.1 307.9 301.7 294.6 286.5 280.9 273.5 278.1 277.1 274.5 271.7 270.1 267.9 267.4 267.7 267.2 265.9 265 266.9 269.2 272.1 275.7 280.5 287.6 305.3 321.8 339.4 355.8 372 384.9 398.8 413.1 426.2 435.4 444.7 452.7 459.4 465.1 470.5 475.8 483.3
154.5 151.9 150.6 148 148.2 144.8 142.5 140.1 134.8 131.3 132.1 131.4 129.7 128.6 127.3 126.6 127.1 126.3 127.2 126 124.1 124.3 122.7 119.9 117.7 115.8 114.7 112.8 108 105.1 108 104 98.4 90.2 87.3 84.8 85 88.2 90.5 92.2 88.3 86.7 85.6 84.9 85.9 85.9 87.7 88.7 87.9 87.7 88.5 88.4 88 88.2 88.5 89.3 88.3 88.3 90.9 90.8 84.4 81.1 75.1 74.3 73 73.5 74.6 73.3 72.8 72.9 71.8 71.7 69 66.7 65.5 64.8 65.4 65.7 65.6 67.1 66.7 66.8 67.9 69.8 70.9 72.9 73.2 76.4 78.9 80.1 76.2 73.8 72.1 78.6 78.5 81.4 81.1 82.8 71.6 63 62.7 62.7 62.7 62.7 62.7 62.7 62.7 62.7 62.7 62.7 62.7 62.7 62.7 62.7 66.8 89 111.6 135.3 156.4 169.1 187.5 219.5 246.9 269.9 294.7 335.8 368.9 382 412.7 457.5 488.1 508.9 530.1 553.2 565.7 582.5 588.9 595.7 597.7 591.8 588.7 586 587.7 587.4 578.6 565.1 550 532.9 516.3 492.1 468.5 446 421 399.5 377.5 356.8 340.5 329.1 320.2 312.4 306.3 299.5 293.1 284.5 275.5 270.4 271.9 275 270.8 267.4 266.2 265.1 264.7 265.3 265.4 264.6 264.6 266.5 268.5 270.6 273.2 277.1 286.4 299.2 313.8 331.7 351.3 368.8 382.9 398.1 415.2 427 435.5 443.3 451.4 457.9 462.8 468.1 474 481.2
148.1 146.2 143.3 140.7 140.5 137.5 135.2 131.5 128.3 123.3 122.4 122.5 122 120.1 118.8 119.1 119.7 118.7 119.2 116 113.3 114.5 112.3 109.5 109.1 107.3 106.8 104.7 99.6 95.1 96.4 99.5 91.4 85.6 85.4 83.4 81.4 86.4 86.8 90.5 88 85.7 84.6 83.7 83.8 83.7 86.5 86.2 87.4 87.5 88.3 87.6 87.5 87.8 88.5 89.8 89.1 84.9 85 83.1 82 79 75.2 74.1 73.3 72.2 71.4 71.6 71 70.3 68.7 67.2 66.5 66 66 65.1 65.5 65.7 66.4 68 69.7 70.1 72 74 74 74.1 74.6 74.8 77 78.7 76.2 74 77.1 87.9 86.9 84.4 81.2 75.9 66.3 62.7 62.7 62.7 62.7 62.7 62.7 62.7 62.7 62.7 62.7 62.7 62.7 62.7 62.7 67.6 92.3 112.5 134.2 160.8 186.2 204.3 220.7 244.8 278 298.7 322.7 348.5 378.5 418.9 453.2 472.5 509.4 549.1 570.4 575.4 581.2 587.9 597.1 604.3 605.3 596.9 592.6 589.3 587.4 581.8 570.3 556.8 541.2 523.5 500.4 475.9 456.8 434 412.5 390.4 370.4 350.6 336.8 325.9 318.6 310.5 303.1 296.9 290.6 283.1 274.5 268.2 267.4 270.3 269.4 265.8 263.5 262.3 262.5 263.1 263 262.2 264.4 265.8 267.8 269.5 272.3 276.6 282.7 292.9 306.3 320.8 336.7 360.9 380.4 397.5 414.5 424.2 433.7 442 450.7 456.9 461.1 464.7 470.8 477.9
143.1 140.6 138.1 136 131.5 131.6 128.6 125.2 122.1 118.7 115.4 114.3 112.5 110.6 109.8 107.9 108.4 108.5 108.3 106.6 105.3 103.9 102.7 98.9 98.5 99.2 99.2 96.2 91.9 87.9 89.3 86.8 85.4 81.5 83.1 81.2 79.7 82.4 86.3 83.8 83.6 83.2 83.4 82.9 82.7 82.8 84.4 86.1 87.1 87.4 87.1 87.4 87.5 88 87.7 90.3 92 87.4 85.2 85.1 82.8 79.1 78.7 79 76.6 74.2 71.8 68.6 67.7 66.9 66.1 65.3 65.7 66.2 65.6 65.4 65.5 67.6 68.8 69.8 71.3 71.7 72.9 78.4 76.9 76.7 78.4 77.3 78.1 79.1 78 77.9 86 84.8 94.2 87.3 80.4 72.5 62.7 62.7 62.7 62.7 62.7 62.7 62.7 62.7 62.7 62.7 62.7 62.7 62.7 62.7 62.7 88 115.4 139.6 160.5 182.2 211.8 237.5 274.3 301.2 319.1 323.2 349.4 379.4 408.1 430.1 469.4 511.4 547 579 583.2 585 590.4 595.5 601.3 602.7 603.3 600.8 595.5 588.6 583.2 575 563.3 546.7 529.6 509.6 484.5 465.3 445.7 422.1 402.3 379.7 361.4 345.6 331.7 323.2 316.2 308.4 301.4 293.9 287.9 282.1 272.2 266.7 264.6 264.7 265.4 263.7 261.3 260.4 260.4 261.1 260.7 261.7 262.8 264.9 266.2 267.3 270.6 275 281 287.9 296.7 313.7 340.1 354 364 388.3 407.6 420.6 432 440.6 447.8 453.7 458.6 462.6 466.8 473.5
137.1 134.5 131.9 129.4 128.1 124.5 122.6 120 116.8 113.7 109.4 107.8 106.6 104.5 102.1 97.5 98.1 93.3 92.2 91.9 92.2 91.3 91.3 90.2 90.7 88.8 91.5 89.7 85.6 81.9 81.2 80.5 83.6 78.3 83.4 80 78.7 79.8 80.4 82.3 82.3 82.3 82.4 83.1 81.9 83.2 83.7 86.5 86.4 87.8 87.1 87.2 88.5 87.8 87.8 89.7 89.5 85.4 84.3 88 85.4 82 83.6 80.9 76.3 73 70.5 67.8 65.7 64.7 64.7 64.5 65.1 64.8 65.1 65.3 67.1 68.1 69.6 72 72 72.7 75.9 77.5 80.2 84.4 84.7 83.3 89.2 89.2 83.4 80.6 87.9 85.6 93.2 87.8 77.3 65.8 62.7 62.7 62.7 62.7 62.7 62.7 62.7 62.7 62.7 62.7 62.7 62.7 62.7 62.7 71 102.9 135.1 165.1 188.2 211.2 231.7 264.2 296.9 341.1 352.9 363 377.9 402.7 434.5 456 493 522.6 569.5 589.6 591.8 593.8 597.2 603 606.1 607.1 607.4 602.6 593.8 584.4 577.9 567.2 552 536.5 520.3 496.5 479.2 458.4 435.5 411.5 393.8 373.9 357.1 341.8 326.7 317.9 313.1 305.9 298.3 290.4 283.5 278 270 265 262.2 262.1 261.5 262.2 260.4 258.9 258.5 259.2 259.6 261.1 262.3 263.4 263.6 266.1 269.9 272.7 278.9 291 310.4 332.1 357.4 378.6 375.6 365.9 392.1 414.8 427.9 436.1 442.1 448.8 455.1 459.9 463.4 469
131.1 128.6 126.3 123.3 121.3 117.8 115.1 113.3 110.7 107.4 104.2 101.7 100 98.3 92.1 87.6 88.1 84.9 82.9 81.9 83.9 80.8 81.8 80.7 79.9 77.3 77.6 78.1 76.7 74.6 74.9 75.3 88.3 75.4 76.8 77.6 77.8 78.3 84.9 84.3 82.9 82.6 82.2 82.2 82.5 83 83.2 84.1 85.9 86.1 87.2 87.3 88.4 87.6 87 87.5 88.9 84.3 81.2 80.6 80.6 82.4 87 81 75.1 72.7 69 67.4 64.6 64.3 64.3 64.3 65.6 65.1 65.4 66.2 68.4 69.8 70.6 71.4 72.6 73.3 76.4 78 77.4 84.3 84.2 85.8 89.4 88.4 87.2 82.5 84.2 82.1 88 84.7 73.4 62.7 62.7 62.7 62.7 62.7 62.7 62.7 62.7 62.7 62.7 62.7 62.7 62.7 62.7 76.2 89 115.9 149.5 182.1 215.1 238.6 264.5 301.5 319.9 358.8 385.2 399.2 411.2 428.1 468.1 489.2 515.7 546.9 580.3 596.5 597.3 598.9 599.5 600.4 604.5 605.6 604.6 600.4 593.1 578.6 569.3 556.2 543.4 527.1 508.8 488.1 472.4 448.2 427 404.4 386.9 371.8 353.4 336.5 323.1 312.4 309.5 303 295.4 287.9 279.7 273.2 267.9 263.4 260.7 260.4 259.7 258.7 259.5 259.2 257 257.3 258.8 259.8 261 262.1 262.3 264.6 267.3 271.6 281.2 300.5 320.8 342.9 375 396.1 402.2 394.4 380.3 394.7 415.5 427.3 436.6 444 450.8 456.4 459.5 464.5
126.2 123 120.5 117.1 114 110.3 108.3 107.3 104.6 103 99.4 96.3 94.4 91.3 85.2 80.9 77.2 76.3 76.9 76.8 79.6 75 73.8 74 74.4 69.9 70.2 70 69.9 68.5 70.2 68.3 71.5 73.5 74.5 75.8 76.3 77.6 83.8 87.1 85.1 83.7 82.8 82.8 83.4 83 83.2 84.5 86.5 88.9 88.2 87.1 88.2 86.6 87 88.5 90 87.8 84.7 80.7 79.2 79.2 84.2 79.2 72 65.4 65.5 64 64.8 65.3 64.9 65.4 66.9 68.5 69.4 72.4 70.9 70.9 71.8 72.3 73.5 75.6 80.8 83 83 84.6 86.3 87.7 89.2 90.9 90.1 85.4 81.8 78.8 75.7 71.9 62.7 62.7 62.7 62.7 62.7 62.7 62.7 62.7 62.7 62.7 62.7 62.7 62.7 70.5 84.1 100.4 118.4 135.5 157.5 189.1 232.9 269.5 293.4 336.2 372.1 375.4 401.9 435.5 448.9 459.1 482.8 510.8 550.3 578.6 601.8 603.2 600.6 599 598.3 597.5 597.1 600.2 600.1 595.8 586.4 573 561.2 548.8 535.4 515.2 497.2 481.1 464.1 440.6 423.7 403.2 384.2 369.2 352.2 336.6 322.4 309.4 303.2 299.9 292.1 284.9 276.2 269.8 265.6 261.7 259.5 258.8 258.1 257.5 257.5 258.5 255.7 257 258.1 258.7 259.8 261 261.6 263.6 266 271.3 283.7 303.4 327.3 361.4 394.5 407.3 415.4 416.3 407.7 396.3 395.8 415.8 428.1 436.5 443.1 449.8 455.7 460.5
121.6 118.3 113.9 109.6 107.3 104.5 102.7 101.1 99.8 97.5 94.4 88.2 85.8 82.2 77.5 70.7 68 68.7 69.6 68.7 70.7 71.2 66.9 68.5 69.8 64.3 63.3 62.3 65.4 64.4 64.7 65.4 71 73.4 78.7 79 76.5 79.4 85.4 90.1 88 86.4 85.8 85.2 83.9 83.6 84 85.2 91 90.7 88.5 88.3 86.4 86.6 88.2 91.1 91.6 90 86.6 83.6 82.8 77.7 79.7 74.2 65.5 63.5 68.8 67.6 68.4 67.9 69.8 73.6 73.4 73.8 77.9 76.9 74.2 73 72.6 76.5 75.6 77.4 82 84.9 88.4 87.5 89.2 88.6 91 91.6 89.9 86.5 81.2 75.4 67.6 62.8 62.7 62.7 62.7 62.7 62.7 62.7 62.7 62.7 62.7 62.7 62.7 62.7 67.7 86 104.7 122.1 143.3 163.9 188.1 253.3 285.3 314.8 319 358.5 416.6 425.1 442.7 455.8 487.3 499.8 515 547 580.1 597.3 603 603.2 600.4 597.7 596.6 594.1 591.9 591.3 589.2 586.5 577.8 564.9 553.9 542.1 524.2 505.2 489.9 473.5 456.4 437.3 419.2 400 383.9 367.7 351.7 336.7 323.4 312.3 303.1 294.5 286.8 281.1 274.4 268.5 263.2 260.2 258.5 257.6 257.2 256.9 256.7 254.9 254.8 255.6 256.7 257.7 258.7 259.8 260.5 261.4 263.3 273 286.3 303.7 331 375.2 410 417.5 422.1 425.2 423.2 417.8 412.5 403.8 414.4 429.8 437.8 443.9 450 455.6
118.3 111.6 106.4 102.8 101 99.8 99.3 96.2 94.9 92.8 90.4 84.1 75.8 72.8 68.3 64.6 62.3 59.9 59.2 60.7 62.5 63.6 64.3 57.8 56.1 57.3 58.9 57.6 60.2 60 59.6 68.7 72.6 73.3 81.1 82.4 85.2 82.1 84.1 84.8 86.7 89.1 90.8 91 87.3 85.6 85 85.9 89.3 89.5 88.4 88.8 85.6 85.9 87.9 89.4 90.1 90.6 86.4 86.7 87.7 81.9 74.5 70.9 63.8 67 71.6 72.5 71.5 71.6 76.7 82.1 79.4 77.5 76.8 74.1 72.4 71.6 72.2 76 77.7 80.1 81.8 85.3 89.5 94 97.1 94 92.5 91.8 88.3 83.7 76.2 67.4 62.7 62.7 62.7 62.7 62.7 62.7 62.7 62.7 62.7 62.7 62.7 62.7 62.7 62.7 76.9 102.3 124.1 144.6 168.1 192.6 212.7 269.3 301.1 336.8 351.7 379.1 439.1 467.9 469.5 502.5 520.3 549.8 554.1 569.3 590.6 594.1 598.4 601.5 599 595.7 592.8 590 586.3 584 581.1 574 567.7 557.8 547 528.9 511.8 497.9 481.4 466.6 448.8 433.7 417.6 401.3 385.9 370.4 352.3 337.1 324.3 313.4 305.5 295.8 284.9 277.8 271.4 267.6 262.4 259.5 257.7 256.1 255.8 256.3 255.9 255.9 255.3 254.4 255.9 256.7 258.1 258.4 258.8 259.3 262.1 271.1 289.2 308.7 337.4 372.3 414.5 421.3 426.2 428.5 428.2 427.3 425.5 422 419.1 421.9 432 439 446.8 452.4
110.4 102.2 98 95.8 96.1 95.9 96.1 92.9 90.9 88.8 82.5 78.6 72.1 65 61 56.9 55.2 54.9 53.8 54.4 57.5 61 63.4 53.6 53.1 55.2 54.6 54.3 56.1 55.4 57.7 72.5 79.1 82.5 89.5 92.3 92.7 86.4 85.6 88.6 86.7 93.2 93.6 96.2 93.4 88.3 87.1 85.9 83.9 87.4 86.5 86.5 84.7 85.1 85.7 87 88.8 92.2 87.3 87.2 89 82.2 78.1 70.8 63.3 66.5 70.5 71.5 74 70.1 73.7 74.2 78 77.9 73.9 71.4 71.4 72.1 74.4 81.8 83.9 83.8 87.5 89.2 94.5 99.9 104 100.6 93.8 89.8 89.3 80.4 70.4 63.8 62.7 62.7 62.7 62.7 62.7 62.7 62.7 62.7 62.7 62.7 62.7 62.7 62.7 79.5 101.2 122 146.7 168.9 192.6 217.9 242.2 274.4 314.8 365 394.5 403.4 455.6 505.8 499.3 556.5 555.3 578 579.4 583.6 586.6 588.8 594.9 599.5 597 592.3 589.3 584.5 580.6 575.2 571 566.2 559.1 547.5 535.7 518.7 503.5 487.9 472.5 457.6 442.8 430.6 414.8 401.9 389.7 373.7 358 344.6 327.9 316.4 306.1 296.9 284.9 276.7 271.1 266.8 261.5 258.6 257.2 255.5 255.3 255.9 255.9 255.9 255.9 254.8 255.3 256.1 257.1 257.6 257.5 257.8 261.6 271.3 288.9 315.1 343.5 379.4 416.6 424.5 428.6 430.6 430.3 431.8 431.9 430.4 422 431 434.8 440.8 445.6 451.4
101.9 96.2 92 90.8 91.9 92.8 93.4 91 87.1 81.6 75.7 72 64.2 57.5 54.9 51.7 50.1 50.4 50.2 50.5 49.6 49.3 50.6 49.8 50.2 51.6 52.3 52 52.5 50.6 62.4 77.4 90.3 88.5 98.3 95.2 97.8 92.7 88.8 89.7 90.2 98.4 100.2 97.6 93.2 89 87.9 82.8 82.3 84.7 85.4 81.7 82.9 86.3 86.2 89.7 90.6 91.2 86.9 89.8 88.8 83.2 83 74 64 64.2 68.5 67.8 71.2 66.7 63.5 63.9 64.9 66.5 69.3 73.4 75 77.3 78.9 81.4 91.4 90.8 90.8 92.3 96.3 100.3 104.5 106.4 95.5 87 82.7 73.6 69.6 62.7 62.7 62.7 62.7 62.7 62.7 62.7 62.7 62.7 62.7 62.7 62.7 71.3 89.7 106.7 128.9 149.7 172.1 197.9 220.7 242.6 268.9 301.9 346 417 429.3 450.4 458.9 511.1 537.1 571.2 576.9 580.5 580.2 579.6 580.8 583 588.1 595.7 593.5 587.9 584.1 579.9 574.3 568.3 562.4 556.2 548.1 535.2 524.2 507.6 492 475.9 462.7 449.4 436.5 425.1 412.9 401.4 389.6 376 361 344.5 330.8 317.8 306.6 296.1 284.6 276.2 268.9 266.1 261.4 256.6 255.4 255.1 255.9 255.9 255.9 255.9 255.9 255.5 254.6 255.4 256.1 256.6 256.1 256.7 261 272.8 291.9 316.7 345.6 387 419.5 429 436.4 437.5 435.7 436.4 436.3 436.2 434.9 431.2 438.4 443.6 448.4 454.1
93.1 89.1 86.7 87.2 88.9 89.6 89.2 84.9 79.4 73.4 67.2 62.5 53.3 50.3 50.5 47.9 45.9 46.5 45.8 45.8 46.5 46.6 47.8 46.6 46.5 48.2 49.3 49.3 48.8 48 60.4 71.9 91.6 101.2 103.2 105.4 98.5 92.8 89.8 89.2 93.4 98.9 99.8 96.3 92.1 88.1 85 81.6 81.6 82.7 81.7 81.8 84.7 86.6 87.3 89.3 91.9 88.8 87 87.1 89.3 85.1 86.7 82.3 68.3 62.2 63.1 63 63 61.8 62.6 62.3 63.3 67.9 76.5 82.6 84.3 91.1 88.3 89.1 96 94.1 92.2 95.6 96.3 98.7 102.9 102.9 92.5 82.7 74.8 70.5 71.3 62.7 62.7 62.7 62.7 62.7 62.7 62.7 62.7 62.7 62.7 62.7 69.4 93.7 115.8 135.7 154.3 178.5 197.8 222.4 248.7 273.8 297.4 323.5 375.7 429.5 470.5 505.2 505.3 523.4 560.5 566.2 572.9 574.9 572.3 572.5 574.4 576.9 579.1 584.9 585.4 583.8 580.1 573.4 568.4 561.9 553.1 545.8 535.8 522.7 509.6 496 478.7 465.7 451.9 441.3 430.6 419 410.6 399.7 388.8 377.7 363.4 346.2 330.3 316.6 303.7 294.8 282.6 275.2 267.1 262.8 259.6 254.9 255.8 255.9 255.9 255.9 255.9 255.9 255.9 255.9 253.6 254.4 255 255.5 254.9 256.1 261.6 275.7 295.1 320.8 349.1 393.6 425.9 436.3 445 445.9 444.8 442.1 441.9 441.4 441.2 439.5 438 445 450.7 455.2
86.1 84 82.6 84.5 83.9 81.8 80.6 78.3 73.2 65.7 57.4 54.5 46.6 45.5 46 44.7 41.5 42 43.5 44.2 44.8 44.9 45.2 45.5 43.8 44.3 46 46.4 45.7 46.2 47.7 57.3 72.8 105 108.1 109.1 97.8 90.1 83.8 85 91.2 96.3 97.5 92.2 90.1 87.4 79.6 76.2 78.3 78.8 79.2 81.8 85.9 86.8 89 88.2 88.4 92.2 87.3 86.7 87.8 88.5 89.4 78.9 69.8 63 61.3 62.2 61.3 61.4 61.6 61.7 67.9 78.9 86.4 99.6 99.7 99.8 101.2 99.1 96.1 95.8 97 101.1 100.7 100.2 102.1 99.3 87 77.2 68 65.3 62.7 62.7 62.7 62.7 62.7 62.7 62.7 62.7 62.7 62.7 62.7 62.7 86.3 114.4 140.8 163.4 183.6 204.9 229.4 253.2 277.8 303.4 326.2 354.5 376.8 446.7 500.5 513.4 544.2 555.2 561 564.4 566.1 564.1 562.7 565.3 566.7 569.2 572.5 577.3 579.8 580.7 575.6 569.1 561.1 553.4 541.9 532.6 520.7 509.4 494.8 480.1 465.6 451.7 441.8 431.8 421.3 413.2 406.4 396 386 373.3 361.1 345.1 328.2 315.8 301.8 291.5 280.8 273 265.8 259.7 254.9 255.9 255.9 255.9 255.9 255.9 255.9 255.9 255.9 255.9 255.1 253.7 254.2 254 254.8 256.2 264.3 280.1 302.3 327.3 355.3 397.2 429.7 442.4 448.2 451.3 452.5 448.8 448.3 448.9 446.8 445.9 444.6 443.6 451.2 456.7
79.8 79.9 77.7 77.8 76.7 74.3 72.5 68.5 65.8 57.8 47.9 44.1 41.6 41.2 45.1 44.6 41.9 39.9 42.6 43.5 43.7 44.4 45.1 44.9 43.5 41.2 42.5 43.8 44.8 44.8 45.6 48.7 60.5 83.6 93.4 98.4 89.4 79.2 72.2 76.4 85.3 93.1 88.5 85.3 84.4 79.8 75.4 67.7 72.4 76.4 77.8 81.2 83.1 82.9 87.9 88.9 88.6 94.5 94.7 87.3 89.3 85.6 88.6 76.9 71.5 65.8 61.9 61.4 60.6 61.5 60.8 62.9 71 71 82.6 94.5 94.6 91.8 96.9 104.2 101.1 98.1 100.2 106.3 107.7 106.3 100.2 94.4 81 68.9 64.4 62.7 62.7 62.7 62.7 62.7 62.7 62.7 62.7 62.7 62.7 62.7 62.7 71.3 103 135.4 162.8 189.2 213.4 232.3 257.2 283.1 327.7 332.6 356.4 384.5 418.8 459.1 505.2 519.9 535.1 544.6 550.5 554.8 554.8 553.5 553.7 554.9 557.1 559.8 560.5 569.5 573.5 576.1 569.3 563.1 554.5 540.3 529.2 514.6 504.5 491.4 479.6 464.4 449.5 437.7 428.3 419.8 411.8 405.5 400.2 392 383.1 371.9 360 342.3 326.9 311.1 299.1 288.2 278.2 269.1 260.5 257 255.9 255.9 255.9 255.9 255.9 255.9 255.9 255.9 255.9 255.6 261 257.5 252.7 253.1 255 257.2 267.5 284.4 305.3 331.5 364.9 401 435.8 447.7 454.2 459.9 459.1 456.5 455.8 454.8 452.9 451.5 450.6 449.9 451.6 457.3
75.6 73.4 69.9 69.5 69.2 66.3 65.2 63.7 58.9 51.9 43.3 41.3 39.4 40.9 43.7 43.4 42.5 37.9 41.2 42.6 42.6 42.2 43.4 43 41.3 40.2 41.6 43 43.5 43.2 44.9 45.7 48 59.4 64 68.7 64.4 61.1 62.6 65.9 74.2 80.4 79.6 81.3 80.9 76 71.4 66.8 70.1 72.6 75.9 78.2 74.2 73.6 81 86.5 87.3 89.3 93.7 89.5 88.7 81.2 80.3 69.5 68.3 62.6 60.8 61 60.8 61 61.2 61.7 62.6 66.3 69.3 73.6 84.3 86.5 91.7 109.3 111.8 102.8 103.2 106.1 105.6 99.9 93.2 87.3 78.4 67.4 62.7 62.7 62.7 62.7 62.7 62.7 62.7 62.7 62.7 62.7 62.7 62.7 76.8 85.6 114.2 149.8 185.2 213.9 239.4 265.2 303.3 316.2 359.8 402.3 391.4 412.4 440.5 475.8 506.6 515.6 523.9 532.5 536.3 539.7 540.3 540.9 540.3 542 546.3 548 552.1 559 564.3 567.7 563.3 557.3 546.3 531.9 514.7 499.4 482.4 474.2 461.9 447.9 434 424.5 414.4 405.7 400.4 397.2 392.5 385.5 380.6 368.5 355.8 335.9 321.3 306.4 294.7 283.3 274.3 263.9 257.9 255.9 255.9 255.9 255.9 255.9 255.9 255.9 255.9 255.9 255.9 257.2 259.1 254.1 252.3 253 258.2 261.1 270.9 288.7 309.8 332.5 366.3 404.4 439.4 454.9 462 464.6 464.2 464.1 460.8 460.4 458.7 457.6 456.3 454.9 454.5 456.3
67.2 65.7 62.1 61.9 61.2 61.5 61.8 57.1 52.6 44.9 39.6 39.9 37.8 38.4 40.6 41.5 40.9 36.9 38.6 41.5 41.1 39.1 39.6 39 38.9 40.6 41.7 43.2 42.6 42 42.8 43.5 43.6 45.2 46.7 48.2 50.1 50.7 52 57.4 65.5 71.9 75.7 78.9 78.5 73.1 64.9 63.3 66.1 68.1 70.8 69.3 64 66 73.5 78.8 85.5 88 88.3 91.8 93.6 81.6 73.8 64.9 61.2 60.9 60.3 61 60.5 60.6 62.1 62.3 62.3 62.7 64.2 69.4 73.3 75.1 83.3 87.5 97.4 107.5 115 112.9 98.9 91.6 85.3 78.3 72.9 65.7 62.7 62.7 62.7 62.7 62.7 62.7 62.7 62.7 62.7 62.7 65.8 83.5 95.8 112.1 136.7 169.6 224.4 248.5 265.7 291.3 320 363.5 397.2 429.5 460.4 446.4 475.5 506 509.6 512.4 514.5 520.2 522.6 522.7 524.2 527 525.7 528.1 533.3 536.8 540.7 544 552.4 555.2 553.2 544.7 530.8 514.1 496.7 481.1 468.2 455.3 444.6 431.2 420 409.4 400.1 393.3 387.7 385.7 381.2 379.5 373 362 347.3 330.3 313.9 298.6 288.1 274.8 270 260.6 255.8 255.9 255.9 255.9 255.9 255.9 255.9 255.9 255.9 255.9 256.2 257.8 259.2 252.7 251.6 252.4 257.6 261.8 273 291.3 311.6 338.2 370.9 413 448.7 461.4 470.3 473.5 470.8 469.5 467.9 466.5 465.7 464 462.1 460.3 458.6 459.7
58.5 58 54.6 53.6 53.3 55 56.3 55.5 48.9 45 38 37 36.3 35.8 35.2 36.3 37.7 35.7 35.4 35.5 36.2 36.6 37.4 37.7 38.6 40.5 41.8 41.2 41.7 40.8 40.6 40.8 40 40.6 41 43.6 45.5 46.8 48.4 51.9 60.1 69.6 76.4 77 76.2 73.3 64.3 60.3 60 60.4 62.8 62.4 59.9 61.3 70.2 78.2 83.7 86 87.7 88.9 91.2 79.3 67.7 60.9 60.5 60.9 59.5 59.3 59.7 61.7 62.5 62.8 63.1 63 63.9 68.4 74.1 72.6 73.9 79.5 89.6 106.2 120.4 110.8 94.7 83.1 76.9 70.8 68.5 64.2 62.7 62.7 62.7 62.7 62.7 62.7 62.7 62.7 62.7 65.8 79.2 98.2 121.8 137.3 158 194.6 273.1 328.1 293.4 318 351.2 376.8 416.6 466.8 487.4 495.8 500.2 504.7 507.4 508.2 509.7 512.3 513.6 513.1 512.7 511.6 512 513.6 518.9 523.6 526.6 528.9 531.2 532.1 529.7 521.1 509.3 492.9 477.1 462 446.2 437.5 426.5 415.9 404.5 395.5 387.5 379.7 372.5 369.5 370.6 365.7 366.2 350.9 336.1 322.9 307 291.9 284.7 272.4 265.3 258.9 255.9 255.9 255.9 255.9 255.9 255.9 255.9 255.9 255.9 255.9 259.3 261.5 259.2 252.3 251.2 252.1 255.2 263.5 276.7 294 314.6 340.8 378.7 422.5 454.5 470.2 478.8 481.8 478.3 476.2 474.1 471.9 471.2 469.1 466.7 464.6 463.2 462.1
50.3 49.5 46.6 45.5 47.3 49 48.4 48.4 45.3 42.3 36 35.6 35.1 35 34.8 34.8 34.9 35.1 35.5 35.8 35.9 35.5 36 36.5 37.2 37.6 38.3 38.9 39.8 39.8 39.5 39.4 39.8 40.1 40.8 41 41.2 41.8 43 50 57.6 69.9 76.4 80.7 80.1 74.1 65.5 58.6 59.5 59.5 59.3 59 59.4 60.4 66.9 77.8 81.7 81.3 84.1 86.5 79.6 72.6 61.8 59.9 60.2 59.7 59 60.3 60.5 62.2 63 63 63 63.2 64.8 66.7 68.7 71.8 72.1 80.8 88.9 98.5 106.6 101.5 85.4 75.5 70.9 68.8 77.2 68 62.7 62.7 62.7 62.7 62.7 62.7 62.7 62.7 62.7 83 99.3 113 142.2 165.2 188.6 236.3 303 341.9 347.1 370.8 379.4 414.6 454.6 480.3 489.1 492.7 497.6 500.7 504.1 505.4 505.1 507.1 507.2 503.9 501.6 499.7 496.8 498.9 503.9 507.4 509.5 509.4 506.9 507.3 502.3 492.9 483.3 470.4 456.9 443.6 429.4 419.5 410.1 399.8 390.4 381.4 373.6 363.4 357.2 354 352.3 355.9 350.1 336 326.8 314.3 301.4 287.8 280.6 267.6 259.7 256.5 255.9 255.9 255.9 255.9 255.9 255.9 255.9 255.9 255.9 259.8 264.9 262.5 258.8 252 250.9 251.8 254.8 266.5 279.7 297 315.4 344.2 387.9 436.9 467.7 482.1 484.2 482.1 480.1 480.5 477.1 475.3 474.9 473.3 470.2 468.1 466.6 465
44.1 44.2 41.6 40.1 44.3 47.1 46.2 43.3 38.7 34.5 34.4 34.1 34 34.2 34.6 34.6 34.7 35.1 35.8 35 35.5 36.2 37 36.7 37.1 37.5 37.9 38.5 38.8 38.6 39.4 40.5 40.9 40.7 40.8 41 41.2 42.2 42.9 49.1 53 65.8 77 77.7 81.1 74.6 65.2 57.4 58.2 58.4 58.6 57.9 57.2 58.1 63.9 75 74.1 76.3 77.7 77.9 69.8 59.6 59.5 59.5 60 58.4 59 60.3 61.2 62.6 62.1 63 62.8 64.8 65.5 66.6 67.2 69.1 75.1 75.8 83.8 90.2 88.1 85.1 75 69.7 68.6 69.4 73.4 74.3 66.8 62.7 62.7 62.7 62.7 62.7 62.7 62.7 70.5 94.8 120.1 139 160.2 188.7 206.5 279.8 317.7 376.5 423.3 427.3 428.7 480.6 482.9 482 488.6 492 495.5 497.4 499.3 500 501.6 502 500.7 497.1 492.7 487.4 479.2 483.1 487.1 489.3 490.6 488.3 483.5 479.4 473.6 465.7 456.9 445.8 434.3 421.9 409.9 402.1 394.1 386.2 378.3 369.5 361 350.6 344 341 337.8 340.3 328.8 320.9 315.5 303.1 293 281.6 271.7 264.4 259.6 256.1 255.9 255.9 255.9 255.9 255.9 255.9 255.9 255.9 257.3 263.8 266.8 264.7 259.9 251.5 250.7 251.2 254.9 268 282 299.1 321.9 352 399.5 456.2 485.5 490.8 488 486.3 484.9 481.8 479.6 478.4 477.6 474.9 472.3 470.7 469.8 467.5
38.1 39.5 38.8 37.1 41.2 45.2 45.3 39 33.7 33.9 33.7 34.3 33.8 34.2 34.2 34.4 34.8 35.2 35 35.4 36.4 36.5 37 36.7 37.3 37.8 38.2 38.2 38.2 38.9 39.4 40.1 40.6 40.8 41.4 41.3 42.1 42.6 42.8 48.1 51.4 60.4 73.5 75.1 72.8 70.3 60 56.5 57.8 59.7 60.5 58.7 57.8 57 58.8 64.1 68.6 72.2 71.4 67.7 58.4 58.8 59.1 59.8 59.1 59.3 59.7 60.3 64.7 63.6 64.4 63.7 64.1 65.1 65.6 67.9 73.2 78.4 80.5 78.2 74.1 73.9 75.3 71.8 71.3 67.5 67 68.6 70.3 70.2 72.1 66.4 63 62.7 62.7 62.7 62.7 62.7 73.4 103.7 136.6 165.7 192.8 233.3 265.4 257.9 310 369 402.9 437.8 468.2 479.3 480 481.5 484.9 489.1 492.3 493.5 494.8 494.6 495 494.6 492.2 488.7 483.5 475.7 459.8 465.4 468 469.1 467.3 466.5 460.3 453.3 446.8 438.4 430.5 420.1 410.3 400.9 393.8 387.6 382.5 377 369.5 361.6 352.1 343 335.7 329.3 328.4 322 315.7 310.8 304 295.2 286.4 276.7 266.5 263.2 260.3 255.2 255.9 255.9 255.9 255.9 255.9 256.3 255.9 258.5 266.6 264.8 263.3 262.4 257.8 251.5 250.4 250.4 255.6 270.2 284.7 305.1 326.9 357.2 395.7 441 490 492.2 489.2 490.6 488.3 489.5 485.5 484.7 484 479.3 474.5 472.8 471.8 469.6
35.3 35.2 36.5 36 34.9 40.7 39.3 33.3 33.3 33.2 33.3 33.4 33.4 34.1 33.9 34.3 34.6 35 35.4 35.6 36 36.3 40.6 39.6 38.7 37.3 38.3 38.6 38.9 38.4 38.8 39.6 40.3 41.2 41.5 43.2 43.2 42.5 43.6 48 51.3 54.3 66.6 73.2 71.8 65.1 56.8 55.2 56.9 58.8 61.2 57.1 56.8 57.3 56.8 57.5 64.4 61.8 58.3 56.5 56.7 57.7 57.4 57.9 58.5 58.3 60.2 60.3 63.2 63.6 64.3 64.4 62.8 65.3 68 70.3 74.5 76.3 73.6 72.1 70.3 63.7 63.7 66.9 66.2 66.9 68.3 69.5 70.6 72.6 70.4 71.2 68.8 62.7 62.7 62.7 62.7 62.6 85.8 122.3 155 193.1 207.8 255.6 299.6 328.1 359.2 375.3 368.9 403.7 463 476.2 477.4 479.4 481.4 485.3 486.8 488.5 487.9 487.1 486.2 485.7 481.3 477.6 473.1 461.6 440.8 446.4 448.3 449.5 447.5 443 435.7 426.3 419.1 410.1 403.7 396.6 390.9 386.2 380.6 376.9 373.7 371 364.4 356.6 347.9 339.3 331.5 323.7 315.2 309.9 305.4 300.8 295.1 286.3 280.5 272.6 261.5 260.3 258.9 255.9 255.9 255.9 255.9 265.2 266.7 259.5 264.7 270.4 268.8 266.9 263.1 261 256.5 251 250.4 250.6 258.3 271.8 287.2 306.6 332.5 361.7 401.3 446.4 482.9 491.5 493.2 492.2 493.4 495.2 492.2 489.7 488.2 485 483.3 479.5 473.5 472
34.3 33.6 33.5 33.7 33.6 33.2 32.8 33.1 33.4 33.1 33.1 33.2 33.4 33.9 33.7 34.1 34.4 34.8 35.2 37.6 43.4 48.6 49.9 46.7 46.3 39.1 38.1 38.4 38.9 39.3 39.5 39.4 40 40.6 41.3 44.1 45.4 44.1 43.1 46.3 51.2 51.8 57.9 65 64.6 62.6 56 55.5 55.7 56.8 57.3 56.6 55.8 57.3 56.9 57.4 56.4 57 55.9 56.3 57.9 63.3 64.2 59.8 60.3 59.6 58.4 59.3 61.9 63.8 64.2 61.3 62.1 67.6 70.4 70.7 71.1 70.3 67.8 68 61 57.5 59.8 61.6 65.6 69.3 69.9 70.5 71.1 75.7 69.1 69.2 68.1 62.7 62.7 62.7 62.7 69 101.7 144.5 177.4 229.3 247.1 253.9 321.9 393.8 427.3 438.8 436.7 455.7 474.5 475.5 476.5 477.8 480 481.6 482.9 482.4 481.2 479 476.8 473.7 470.3 465.8 459.3 446.9 429.4 421.6 430.1 429.9 426.7 419.2 409.8 403.3 394.7 386.8 382.7 378.8 375.8 373.6 372.6 373 369.8 365.8 362.1 353.8 345.8 337.9 328.9 319.6 309.2 301.2 298.5 292.5 284.9 281.1 274.2 269.7 258.8 257.4 257.4 255 255.9 255.9 257.2 261 269.1 272.9 272.6 272.5 269.6 266.7 263.4 261.1 255.7 250.5 249.9 250.7 259.4 273.3 289.9 311.9 337.2 367.5 409 453 479.6 492.8 495.4 493.1 494.7 493.2 497.8 503.8 499.2 499.1 493.8 484.3 476.4 473.3
33.9 33.1 32.7 32.6 32.9 32.7 32.3 32.7 32.9 33 32.9 33.2 33.7 33.3 33.7 34 34.1 34.6 35 41.5 47 51.4 52.3 49.8 45.6 42.2 39.1 38.3 39.2 39.4 39.6 39.8 40.3 40.7 41.1 43.7 47.2 46.2 45.7 45.4 50.2 52.3 52.9 58.6 58.1 58.8 55.8 54.7 54.3 55.6 56.1 54.1 55.1 54.6 55 56 56.1 56.8 54.5 57.2 57.6 58.7 63.1 65.3 60.6 60.1 57.4 57.9 59.1 60.5 61.1 59.3 59.1 65.3 71.3 69.9 68.9 68 64.2 57.5 57.6 58.1 59.2 62.9 66.6 69.6 70.2 69.3 69.5 73.6 66.3 65.5 62.5 62.7 62.7 62.7 71.2 88.7 120.1 167.4 210.2 255.3 286.4 326.9 309.5 370.6 423.9 468.1 481.4 483 484.9 479.8 478.9 479.3 478.4 478.5 477.7 476.9 474.5 470.5 458.2 458.3 456.4 451.8 443 432.3 415.1 401 411.1 409.5 405.5 399.2 392 383.9 376 370 368.4 366.8 364.5 364.8 368.4 370.8 369.9 366.2 361.4 353.4 344.7 338.4 329.5 316.4 305.3 296.9 286 281.8 276.3 272.9 268.3 262 259.3 257.9 257.9 258.4 257.7 258.5 269.2 274.4 273.1 275 276.3 274.7 271.7 268.2 264.6 261.9 253.8 249.9 249.5 252.3 261.6 277 293.6 316.9 340.2 371.4 411.9 457.1 481.2 483.6 491.4 489.1 496.2 494.3 504.7 510.8 515 509.5 498.2 488.4 477.4 473.3
33.7 32.8 32.3 32.2 32.1 32.8 32.4 32.6 32.8 33 33.6 36.7 35 33.3 33.8 34 34 34.8 39.6 44.1 48.8 53.5 47.5 45.2 43.9 42.4 40.7 40.8 40.4 39.6 40 40.5 40.4 40.8 40.6 42.4 44.6 44.7 43.7 45.6 48.9 51.7 52.3 53.1 54.7 53.9 54.1 53.1 52 53 53.1 52.7 52.6 53.2 53.9 55.1 55.3 54.5 54.3 56.4 58.3 57.4 59.7 65.2 61.1 61.9 59.3 57.5 58.2 61.4 59 56.7 55.6 57.4 63.5 65.2 66.2 64 56.4 57.7 58.1 58.1 59.3 59.8 67.3 69.7 68.7 70.9 74.3 68 62.3 62.7 62.7 62.7 62.7 79.7 97.2 113.3 141.8 185.5 255.5 296.6 329.5 350.5 358.1 373.2 400.6 466.7 485.4 482.1 482.2 481.8 479.8 479.8 479.9 478 475.6 473 468.9 459.8 449.2 430.2 435.2 429.8 422.8 414.8 398.5 380.5 395 392.4 387.8 382.8 374.8 369.3 361.4 356.8 356 355.4 357.4 362.8 369.4 371.2 369.8 365.7 360.5 353.7 345.7 338.5 328.2 318.5 305.2 289.7 283.4 273.2 268.6 262.2 260 259.3 259.9 258.4 260 261.6 266 270.9 279.4 283.3 281.6 282.7 281.1 277.7 274 270.3 266.1 261.2 253.1 249.4 249 253.6 263.4 279 298 319.6 346.6 372.8 409.1 453.5 468.6 477.3 485.5 484.8 493.6 495.3 511.3 514.6 515.1 509.8 494.5 485.8 478.7 472.8
36 32.7 32 31.8 31.7 32 32.2 32.2 32.3 32.7 33.5 37.6 32.5 33.2 34.1 35.8 37.6 38.1 41 42.9 43.2 43.8 43.8 43.5 43.1 42.7 43 43.2 42.9 43 41.9 44.1 40.5 40.8 41.1 41.2 42.7 43 43.4 43.8 46.1 49.9 51.5 51.6 52.9 50 49.8 49.4 47 47.1 47.7 48.1 49.3 51.6 52.6 53.4 53.5 52.4 54.6 56.1 57.3 59.7 59.9 63 64.3 61.3 58.5 56.2 57.9 59.9 56.8 55.1 55.2 55.6 55.7 56.2 59.4 56.6 57.2 57.8 57.9 58.2 59 59.2 64.4 68.8 69 68.9 67.3 62.2 62.7 62.7 62.7 62.7 69.9 92.3 117.8 137.3 164.5 208.6 294.7 339.3 363.6 391.4 412.9 416.1 423.2 455.7 480.4 480.5 479.7 480.1 484 480.4 479.9 478.5 475.4 471.5 463.3 456.3 445.4 421.5 408.8 397.5 396.5 393.2 382.1 368.3 380.4 378.3 373.8 367.7 361.8 356.6 350.9 347.6 345.6 345.7 352.2 362.2 368.4 370.2 368.4 364.8 358.7 351.7 344.5 336.7 326.3 315.7 301.3 284.4 269.3 263.4 239.8 254.1 257.1 260.1 260.8 260.2 264.1 269.8 275.2 281 286.7 288.9 289.4 288.6 285.1 280 275.6 269.9 266.6 260.9 253.8 249.5 250.3 254.6 266.2 280.7 300.3 322.6 349 377.3 414.7 451.4 465.9 472.5 476 484.2 488.3 497.5 509.9 501.4 510.8 498.8 492.1 478.4 474.6 471.4
36.9 32.8 31.7 31.6 31.7 31.8 32 32 31.9 32 32.8 33.7 34.4 37.1 36.5 36.1 38.3 40.5 41.5 42.8 43.5 44 44 44.4 44.7 44.8 45.3 46 46.1 46.5 47.2 47.2 46.3 44.3 41.6 41.2 42 41.7 43.7 44.1 44.4 46.3 48.8 50.1 49 45.6 48.8 46.8 46.4 47.1 47.7 47.8 48.4 48.8 48.9 50.5 52.5 53.3 55.7 55.5 56.9 56.7 59 63.6 66.4 62.3 56.4 55.5 56.4 61.4 55.4 54.8 55.1 55.6 55.4 56 56 56.4 57.7 58 59.3 60.4 59.9 59.6 62.2 66.5 68.3 69 64.3 60.8 62.7 62.8 64 74.6 87.2 107.8 130.4 157.4 185.4 226.9 321.3 368.6 393.1 436.9 452 467.5 469.9 478.4 481.3 481.5 479.7 479.8 480.6 478.6 478.2 477.6 475.5 471.2 468 459.6 447.8 435.2 416.1 395.2 368.8 370.7 363.9 357.7 367.6 367 362.7 355.4 349.6 344.9 341.1 338 337.1 343.6 354.7 363.3 368 368.5 366.4 362.9 356.4 350.8 344.4 336 322.2 306.4 292 274 258.1 237.3 227.3 251 254.5 260.5 262.4 263.9 272.6 278.4 283.5 290.7 291 293.2 295.4 293.5 288.6 282.6 276.5 271.4 265.9 259.9 253.9 248.2 250.1 256.6 267.7 283 301.4 325 353.6 379.6 414.5 448.9 464.8 470.8 475.7 479 484.4 485.1 489.1 497.5 499.2 495.7 486.7 478.2 472.8 469.5
37.3 33.5 31.3 31.4 31.4 31.7 31.9 32 31.8 31.5 32.3 38.5 37.9 37.7 36.8 37.4 39.5 41 43.6 46.4 46.6 46.5 45.8 45.2 45.6 46.3 47 47.6 47.5 48.2 48.5 48.1 47.5 47.1 44.9 41.5 41.2 42.4 42.6 44.1 44.5 44.8 44.2 45.2 46.1 46.5 49.1 47.9 47.9 48.4 48.5 48.4 48.7 49.2 49.8 49.5 51.5 52.2 54.5 51.6 52.5 53.6 57.7 61.9 64.5 56.2 54.9 57.6 55.7 54.9 55.3 54.9 55 55.5 55.3 55.9 56.5 57.3 64.5 61.1 61.2 62.5 62.2 62.3 61.1 63.1 66.2 65.7 62.1 63 70.1 72.8 78.9 97.3 112.8 128.2 151.7 178.7 216.7 263.2 329 390.1 423.6 456.3 484.2 511.1 497 489.8 487.5 483.6 480.2 477.8 477.2 476.2 475.1 473.9 472 470 467.3 461.3 451.3 438.1 422.6 399 373.8 344.1 337.5 353.8 355.9 354.2 349.8 343.7 337.7 333.9 330.8 328 334.1 345.1 354.9 362.5 366.6 365.1 363.5 360.8 353.5 348.5 341.6 332.3 318.3 298.7 279.7 263.1 241.9 225.2 234.1 245.1 254.3 263.7 268.3 277.9 288.2 297.9 298.4 297.1 297.6 298.6 298 295.5 289.7 283.5 279 271.2 264.1 258.3 252.6 246.6 251.1 258.1 270.2 284.4 303.9 328.7 351.7 379.2 412.1 441 461.3 468.2 469.3 471.9 481.1 480.7 480.7 487.6 490.4 490.1 490 485.3 477 467.1
37.3 32.3 31.3 31.2 31.6 31.3 31.6 31.6 31.4 31.1 34 37.8 39.1 37.6 37.5 39.5 41.9 49.5 49.5 50.5 53.3 52.6 49 47.4 47.2 46.9 46.8 47.5 48 48.6 48.3 47.9 47.6 47.1 45.7 42.1 42.4 43.1 42.8 43.6 43.7 43.7 44.8 47.1 47.8 48.5 50.2 50.2 50.7 51.1 50.4 49.8 49.7 48.5 49.7 49.8 50.6 51.7 52 52.4 53.2 55.3 53.8 55.6 56.9 54.4 57.8 61.2 58.1 55.4 55.1 55.3 54.9 55.1 55.2 55.5 56.7 57.8 60 62 63.6 65.1 66.1 65.7 65.2 62.3 61.9 61.6 64.8 71.8 83.2 91.8 103.4 120.8 141.9 157.7 177.9 212.4 262.1 296.8 305.8 389.3 429.4 485.5 509.2 517.3 509.6 499.3 487.4 482.6 478.4 474.9 472.4 470.9 469 467.6 467.1 465.3 462.7 455.9 447.1 434.7 418 398.2 371.1 342.8 332 343.1 345.5 343.5 337.9 331.3 327.2 323 320.5 326.5 338.6 347 352.9 358.8 362.9 361.9 360.4 357.4 353.4 347.1 339.4 323.2 304.7 284.5 264.1 247.4 224.5 228.8 242.1 250.6 258.4 267.8 286.1 296.3 301.9 305.9 304.4 301.1 302.1 301.3 299 295.8 290.9 284.1 277.3 272.5 266 259.3 254 246.4 250.6 259.2 271.1 286.5 305.7 329.8 349.7 376.5 406.6 430.6 455.8 463 465.1 468.1 473 476.4 476.1 474.8 477 484.3 489.6 483.4 472.9 464.7
35.7 30.8 30.9 31.1 31.1 31.6 30.3 30.6 31.9 32.9 35.6 36.2 36.7 37.5 40.2 48.6 59.6 63.5 63.1 62.3 63.1 60 56.4 52.4 50.6 48.8 48.4 47.8 47.8 47.9 47.8 48 47.2 46.8 46.1 43.6 43 46.2 47 46.8 45.2 43.9 50.5 50 50.1 50.3 50.3 50.6 51.1 52.4 52 51.1 50.4 52.2 52.2 50.5 51.7 53.7 53.9 55.6 57.6 60.6 61 58.3 54.1 55.7 63.5 63.6 59.6 56.2 55.3 55.4 55.1 55.2 55.6 55.9 57 58.7 61.2 63.8 66.5 68.7 70.1 71.4 70.9 70 67.9 65.2 74.4 84.2 98.3 115.3 127.2 146.2 170 188.9 212.7 256.3 307.9 357.9 376.9 367.9 430.5 482.4 513.7 520.4 513.7 502.4 490.8 480.1 475.8 471 466.7 463.5 460.6 460.2 458.6 457.1 453 446.5 437.7 424 408.2 390.7 365.1 336.8 317.3 333 334 330.9 325.4 321.9 318.4 311.9 319.2 331.9 339.3 346 349.7 352.7 355.6 357.3 357.9 354.1 350.4 344.7 332.5 312.3 291 267.5 244.6 224.9 227.9 244.6 257.4 264.4 273.1 282.2 288.9 299.3 307 307.3 306.4 303.2 302.1 300.5 298 293.5 290.1 284 277.9 269.8 265 259.9 254 246.3 252.1 260.6 272.1 288.1 307.6 327.7 347.7 375.5 399.4 431.9 452.5 460.7 462.7 469.2 465.2 465.5 475 472.8 472.1 477.4 483.4 475.6 470.2 465.8
31.5 30.9 30.5 31 30.3 31.2 31.3 31 33.5 36.3 36.9 36.6 37.4 38.9 42.7 60.8 72.1 74.2 76.7 72.2 68.3 66.2 60.9 57.7 55.1 52.5 51.7 49.6 49.5 49.8 49.4 48.5 48.1 48.2 48 48.2 47.9 51.4 53 53.1 53.3 53 52.8 52.8 52.8 52.7 52 52 52.1 53.2 53.3 52.5 52.4 53.4 52.6 52.2 53.3 55.3 55.7 56.6 59.8 64.1 66.1 67 66.1 62.8 64 62.3 63.2 59.4 55.6 55.4 55.4 55.9 55.9 56 57.4 59.7 62.3 65 69.4 72.3 76.3 77.7 78.7 76.1 73 71.3 79 98.6 114.2 132.5 149.6 172.8 194.7 220.1 246.7 317.8 337.9 385 421 446.9 461.4 473.6 512.8 518.1 511.9 503.3 491.3 480.6 473.6 466.9 455.8 450.4 448.1 448.3 448.8 447.8 442.9 435 424 412.1 397.2 378.4 354.3 327 307.4 323.8 323.7 318.8 312.7 309.4 304.5 311.6 322.6 333 339.1 343.8 347.2 348.6 350.8 351.5 351.8 348.7 345.8 335.4 316.7 294.4 273.2 247.7 226.9 225.1 244.2 257.8 271.4 285 294.6 301.6 306.2 310 310.5 309.4 307.2 304.5 300.6 298.2 295.1 291.3 286.7 281.9 277.4 270.7 263.3 257.3 252.8 245 252.1 259.4 271.5 289.1 307.6 322.4 343.8 369.9 393.2 429.8 451.1 456.9 463.7 460.8 460.5 460.4 459.4 463.8 467.5 468 474.1 472.2 468.5 466.9
32.1 30.5 30.5 30.4 30.7 30.9 30.9 31.2 34.4 37 38.1 38.5 39.2 41.6 42.9 57.6 72.9 78.9 87.8 83.4 75.3 70.7 65.4 61.4 59.1 56 54.4 51.9 50.2 50 50.3 48.9 49.5 49.2 48.9 50.1 54.2 58.5 61.8 62 60.5 60.2 55.6 54.8 54.4 54.2 54.2 53.8 52.3 53.3 53.6 53 53.3 53.6 53.9 54.3 53.5 55.1 56.4 56.7 58.5 60.6 64.1 72.2 66.5 63.4 63 63.9 64.4 64.1 63.1 56.4 55.6 55.8 55.3 56.4 57.7 60.3 63.2 66.8 70.6 76.5 82.8 85.8 85.9 82.6 84.4 84 94.5 117.6 139.1 154.2 184 193.8 221.9 247 285 331.3 392.4 410.3 447.8 484.9 514.8 510.4 515.6 516.7 509.9 502.1 488.5 478.5 470.1 460.9 441.9 430.9 432.9 434.7 434.8 433.1 428.9 420.9 411.8 399.7 385.7 365.9 343.4 314.7 299.1 314.1 312.2 306.6 303.1 295.4 301.5 318.2 324.7 329.9 337.3 339.7 342.5 344.7 345.5 346.2 344.2 340.8 336 320.8 298.7 276.3 251.1 228.2 219 240.1 260.4 273.7 287.9 307.1 312.8 313.3 313.3 313.4 311.8 309.8 307.3 304.2 300.3 296.4 292 287.8 285.3 281 275.4 268.6 263 253.8 247.2 243.5 250.3 259.3 271.1 291.6 306.8 320.4 341.7 361.6 385.4 408.3 439.8 451 457.2 457.5 456 458.3 456.3 455.7 464.3 462.3 467.3 465.4 467.6 462.3
