ncols 200
nrows 82
xllcorner 310000
yllcorner 511950
cellsize 50
112.5 112.5 112.5 113.5 115.7 117.1 118.1 118.7 120 120.3 120.8 121.5 121.9 122 120.7 122 123.3 126.6 131.1 136.5 141.8 147.4 162.1 172.8 179.2 189 204.5 223.3 245.2 266.7 290.4 310.5 333.8 368.8 376.8 381.1 387 406 422.3 438.4 458.4 470.7 484.1 495.3 500 497.5 505 506.9 507 508 510.6 512.3 514.2 517.1 519.6 519.9 519.7 518.4 514.1 508.2 502 495.5 489.2 472.2 462.3 471.5 468 479.9 492 498.6 506.2 512.4 517.2 521.3 525 528.1 529.8 531.4 538 545.4 552 553.9 552.3 550 546.7 542.3 537.5 531.2 525.2 517.6 510.8 504.2 496.1 487.8 479.7 473.4 465.8 458.1 460.3 469.2 475.4 482.7 490.9 501.2 513.3 525.2 535.9 545.7 554.7 561.9 572.9 579.4 574.1 533.5 503.1 498.6 501.9 483.6 481.3 490.3 495.4 484.5 471 476.3 484.8 502.9 523.4 524 505.9 487.9 454 428.6 413.4 406.6 397.5 378 365.6 344 325.7 310.7 291.5 265.6 251.1 231.1 214.2 197.4 180.4 164.9 149.1 133.8 120.4 107.9 101.8 102.2 102.2 102.2 102.2 102.2 102.2 102.2 102.2 102.2 102.2 102.2 102.2 102.2 102.2 101.6 104.6 107.3 113.5 116.6 119.6 130.5 141.2 150.3 154.8 169.3 188.6 214.6 243.4 270.2 304.2 327.6 347.4 366.6 393.5 398.1 412.7 413.3 408 408.8 414.4 415.5 422.6 436.9 444.5 458.5 467.2 479.1
112.5 112.5 112.5 112.5 113.7 114.9 115.9 116.9 117.4 117.4 117.7 118.2 117.5 118 118 118.5 119.4 121.6 125.1 129.4 134.2 153.4 171 177 186.3 195.6 208.6 230.4 250.8 273 289.1 294.9 309.7 334.2 346.1 352.8 372.2 378.9 390.8 404.4 425.1 439.1 455.8 468.6 477.1 477.9 478.4 483.8 485.3 487.2 492.4 495.6 497.8 502.2 508.1 509.2 510.9 511.5 508.7 503.1 496.5 489.5 483.5 472.9 448.9 457.7 456.6 477.6 489 497.8 507 513.6 518.6 522.8 527.4 531.4 534.6 539.3 551.4 562.1 571.4 576.7 574.7 568.8 562.4 557.1 551.5 544.4 537.6 529.4 521 512.8 504.9 494.9 484.7 477.5 471.3 469.5 471.2 475.5 482.2 490.6 501.4 514.4 528 541.6 553.5 561.8 569.4 577.5 585.3 590.3 590.2 551.5 514.4 506.4 504.9 497.5 496.5 502.1 509.8 508 493.7 499.8 509.8 529 539.8 543 539.9 520.3 483 460.4 447.2 443.7 434.5 409.6 397 379.1 361 345.8 308.6 295.7 277.1 262.2 240.8 220.7 203.3 184.8 167.4 151 134.9 120.4 111.2 102.3 102.2 102.2 102.2 102.2 102.2 102.2 102.2 102.2 102.2 102.2 102.2 102.2 102.2 102.2 101.8 105.1 120.5 127.2 124.1 123.2 129.9 139.7 144.3 155.6 173.1 195.3 218.4 246.2 285.9 299.9 320 343.8 359 370.2 384.6 390.3 389.4 388.5 386.3 390.1 396.8 406.6 419.2 434.1 446.7 459.4
112.5 112.5 112.5 112.5 112.5 113.3 114 113.8 115.1 115.5 115.3 115.4 115 115.4 115.3 116.4 118.3 120.4 123.1 126.4 138.5 155.8 172.3 185.4 200.5 211.7 218.8 234.4 259.2 280.7 297.8 301.6 303.6 311.9 325.2 335.5 343.8 353.3 362.4 374.5 390.5 401.9 420.5 432.5 446.5 454.7 457.8 461.6 464.8 467.9 472.1 475.3 480 486 491.6 495.2 498.1 501 500.6 496.9 489.8 483.1 476.9 472 451.3 441.2 455.2 470.4 484 495.7 506.7 514.4 519.3 523.5 528.5 533.8 538.2 545 556.8 568.6 579.9 587 593.8 594 587.9 578.3 570.5 560.2 552.8 543.9 533.8 524.1 514.9 505.7 494.9 486.2 480.6 478.7 480.3 484.9 492.3 503.2 515.3 528.8 541.9 555.8 566.2 573.3 580.8 587.6 593.7 598.9 601.4 563.8 522.7 510.4 505 501.8 501.3 506.8 514.9 519.4 516.7 519.3 532.9 549.3 554.9 560.3 560.2 543.9 523.3 507.2 495.3 477 468.6 444.9 436.5 419.4 396.7 364.6 342.8 331.4 310.4 292.2 267.8 243.7 225.8 207.3 186.5 169 152.1 136.4 124.8 116.3 108.7 102.3 102.2 102.2 102.2 102.2 102.2 102.2 102.2 102.2 102.2 102.2 102.2 102.2 102.2 102.2 119.3 129.7 132.3 129.1 128.6 128.7 134.2 141.3 157 174 194.1 218.7 252.2 273.1 293 314.7 326.1 338.3 354 364.6 370.2 370.5 367.9 367.5 374.1 382.4 397.7 415.8 424 437.6
112.5 112.5 112.5 112.5 112.5 112.5 112.5 112.5 113 114.1 114.1 113.9 114.3 114.7 115.1 115.7 117 119 121.1 124.9 136.5 154.6 176.2 199.1 218.9 241.6 242.8 244.3 271.6 297.6 310.6 317.9 321.5 314.1 316 319.7 325.6 329.8 334.6 341 352.9 365 382.5 395.5 414.3 425.4 432.9 438.3 443.7 447.2 450.4 453.3 456.8 462.2 469.7 477.5 483 488 491.4 489.3 481.5 473.2 463.3 464.2 455.2 435.5 445.8 459.7 476.1 489.4 501.4 510.3 515.3 519.6 523.9 529.6 534.9 543.3 553.4 566.1 579 590.6 599.8 604.6 604.2 596.8 589 580.3 569.6 561.2 550.5 538 527.6 515.7 504.1 496.1 490.9 489.2 491 497.5 505.1 515.6 527.5 542.1 554.8 567.1 575.4 581.6 588.7 594.4 600.4 605.8 608.1 586.6 538 519.7 513.2 509 505.6 507.8 514.4 524.9 529.6 535.6 550.2 564.3 571.4 587 590.1 577.4 559.7 546.5 532.2 507.8 488 470.6 456.8 442 417.8 372.9 380 361.3 343.1 317.6 291.8 267 249.1 230.5 206.8 187.3 170.1 152.9 140.1 128.2 117.9 111.2 103.7 102.2 102.2 102.2 102.2 102.2 102.2 102.2 102.2 102.2 102.2 102.2 102.2 102.2 102.2 116.9 129.7 128.3 125.2 123.6 128.2 135 146.5 158.7 176.1 197.9 220.5 241.4 263.7 279.6 296.4 317 338.9 352.3 353.6 348.6 346.8 348.3 353.4 366 377.5 392.1 402.7 417.6
112.5 112.5 112.5 112.5 112.5 112.5 112.5 112.5 112.5 112.5 112.9 113.4 113.8 114.2 114.4 114.8 115.8 118.5 121.5 126.2 135.1 155.9 179.3 206.9 230.9 251.9 269 263.3 271.8 301.7 322.3 325.5 328 322.6 310.9 306.2 308.5 309.5 309.8 313.9 321.1 332.1 344.6 356.9 372 387.1 402.4 413 418.1 424.7 429.1 432.6 436.2 442.7 449.7 458.4 462.7 470.4 476.7 478.2 471.2 458.1 451.6 455.4 449 438.8 432.3 446.6 464.1 481.1 492.5 500.7 506.6 510.7 514.4 519.7 526.8 535.6 547.1 559.9 574.9 590.3 605.2 619.5 620.5 611.3 600.9 591.7 579 571.2 563 553.5 539.8 526.8 516.3 509 502.3 502.9 506.5 511 518.7 529 541.8 554.4 564.7 574.6 581.9 588.6 593.7 598.5 604.4 610.2 614.9 602.2 562.8 539 526.7 518.5 515.6 516.1 520.6 531.8 537.8 551.2 566.1 578.3 588.5 611.9 616.1 602.9 583.4 566.1 546.8 513.6 487.5 475.3 460.7 442.9 404.7 412.2 402.9 390.2 367.2 340.5 314.3 294.2 269.5 249.1 225.6 206.4 187.7 171.4 156 140.6 128.1 117.7 110.3 104.6 102.2 102.2 102.2 102.2 102.2 102.2 102.2 102.2 102.2 102.2 102.2 102.2 102.2 102.2 115.1 126 120.4 119.6 125.1 131.9 140.4 155.5 181.4 199.5 205.6 222.3 240 260.5 280.5 302.5 329.1 342.8 344.1 335.7 327.6 330.5 339.3 350.1 358.6 367.6 382.7 395.1
112.5 112.5 112.5 112.5 112.5 112.5 112.5 112.5 112.5 112.5 112.5 113.2 113.5 113.5 113.8 116.9 119.9 123.4 125.4 128.5 145.6 164.4 186.7 214.4 234.1 262 284.4 279.5 272.5 291.9 305.4 315.7 320.3 318.6 313 304.2 298.1 294 291.8 292.4 297.2 305 314 324.9 338.8 352.2 367.9 379.8 390.3 398 405.2 410.7 415.1 418.4 426.7 437.1 441.8 452.1 460 462.3 457.9 438.3 440.8 445.9 440.1 439 424.3 432.9 450.3 469.4 481.3 489.4 494.6 498.4 502.2 507 515.1 526.5 540 554.9 570.8 591.8 612.8 630 631.3 617.8 603.9 595.2 583.4 577.4 570.3 562.4 552.6 538.7 529 524.2 517.5 516.5 518.3 524.6 534.1 544.6 553.4 563.4 571.4 579.3 587.1 592 596.6 600.8 606.8 613.4 619.7 619.4 585.9 557.4 543.6 529.6 532.2 533.4 533.4 542.3 552.6 566.4 580.6 592.8 607.9 633.7 633.9 613 589.2 563.8 539.6 507.5 484.9 473.4 457.8 447.9 442.1 432.5 419 403.5 383.5 362.3 339.7 317 288.1 264.1 242.3 222.9 206.1 188.4 172.5 155.7 140.7 125.9 118.2 112.6 105.1 102.2 102.2 102.2 102.2 102.2 102.2 102.2 102.2 102.2 102.2 102.2 102.2 102.2 102.4 106.8 107.7 114.7 122.9 124.5 136.5 153.8 175.9 214 210.5 219.8 237.1 256.5 272.1 287.1 303.6 324.1 323.2 319.3 306.7 309.8 322.9 332.2 338.8 352.3 372.6 392
112.5 112.5 112.5 112.5 112.5 112.5 112.5 112.5 112.5 112.5 112.5 112.5 113.1 113.2 115.5 118.3 121.3 125.2 128 131.8 159.4 186.1 208.8 229 249.8 276.9 292 293.9 285.3 281 292.5 302.6 307.2 308 307.2 301.5 294.6 283.2 279 276.8 279.2 285.8 293.2 302 313 325.6 337.9 348.4 356 367.4 377 384.3 391.5 398 400.8 410.8 417.2 426.9 435.7 440.4 440.2 423.7 432.8 434.1 430.7 429.4 423.5 420.8 437.7 456.3 468.8 475.3 479.7 482.7 486.3 495.3 505.9 518.5 533.1 549.6 567.7 588.8 610.9 626.5 630.5 614.3 597.9 587 581.1 575.2 570.9 566.3 561.1 556 547.9 541 535.3 531.3 532.7 543.3 551.5 556.5 562.7 569.1 576.4 583.3 589 593.3 596.9 602.1 608.2 615 622.1 628 623.7 584.4 566.1 553.9 552.7 553 550.8 558.7 569.7 582.7 592.8 603.1 624 638.9 632.7 609.1 582.9 556 528.9 499 481.7 475 474.3 469.8 461.4 444.1 425.7 410.7 393.7 378.7 363.2 333.9 301.6 279.8 259.4 238.3 221.1 202.9 187.1 171.3 155.5 140.9 128.1 120.8 112.2 102.2 102.2 102.2 102.2 102.2 102.2 102.2 102.2 102.2 102.2 102.2 102.2 102.2 102.8 104.6 108 108.2 109.9 117.8 125.2 148.7 162.9 184.7 197.1 212.5 236.1 247.2 272.6 286.7 293.1 296.4 302.3 301.6 292.1 288.9 298.8 307.4 323.3 346 364.3 378.5
112.5 112.5 112.5 112.5 112.5 112.5 112.5 112.5 112.5 112.5 112.5 112.5 112.5 114.6 117.7 121.2 123.2 125.6 129.4 139.2 192.2 237.1 245.2 255.5 276.9 313.6 316.3 304.9 298.4 292.5 291.6 294.4 295.4 298.1 298.9 293.3 285.6 278 270.8 268.5 269.2 271.2 276.7 284.8 293.8 301.4 310.5 319.3 327 335.4 346.7 355.3 362 369.8 376.7 382.8 391.4 401.3 410.6 416.9 418.8 413.8 419.5 420.2 420.4 411.3 414.9 410.2 425.5 442.1 453.7 460.9 465 469.2 475.9 486.6 497.8 510.7 526.5 543.5 562.2 582.8 602.2 614.4 611.9 600 588.8 582.6 577.3 571.2 567.2 564.9 560.3 563.4 564.3 562.1 559.1 555.5 555.8 559.5 563.7 566.2 570.4 575 580.1 585.4 589.7 592.8 596.5 601.8 607.6 615.3 622.7 630.9 638.1 614.1 593.4 578.2 573.1 575.2 575.9 585.8 596.7 604 607.4 613.4 624 625.7 615.1 595.5 571.9 545.8 516.4 492.7 483.3 481.8 483.6 482.2 476.4 456.8 436 417.2 400 389.4 373.8 348.5 321.2 294.2 274.4 253 233.8 217.4 202.4 188.1 172.3 155.9 142.3 129.7 120.9 112.4 107.6 105.4 102.2 102.2 102.2 102.2 102.2 102.2 102.2 102.2 102.2 102.2 102.2 104 105.2 105.1 105 110.8 117.1 133.8 146.1 151.2 163.7 191.5 222.1 228.7 256.4 274.1 274.3 280.1 283.7 282.2 273.7 265.6 274 288.7 307.7 326.9 349.6 366.5
112.5 112.5 112.5 112.5 112.5 112.5 112.5 112.5 112.5 112.5 112.5 112.5 112.5 115.3 121 122.8 123.8 126.2 132.3 168.7 214.2 249 289.5 301.6 307.2 320.1 326.4 311.8 305.7 298.5 294.4 293.8 293.4 290.3 287.4 284.6 277.3 270.9 265.9 267 266.7 266.7 267.6 273.7 281.2 285.9 291.4 298.5 306.1 314 321.8 329.4 334.6 341.3 348.3 356 362.4 370.4 381.5 391.6 396.1 396.5 401.2 402.3 403.2 401.6 403.5 402.1 416.5 425.9 437.6 444.6 447.8 453.6 464.7 477.1 489.3 501.8 516.9 533 552.8 572.5 588.1 594.4 592.1 587.4 581.5 576.2 570 565.4 563.3 561.6 560.2 565.2 569.3 574.1 575.5 575.5 572.8 571.2 572.7 574.4 576.7 579.6 582.7 585.9 588 590.4 594 599.7 606 613.4 622.1 631.5 640.5 647.4 635 612.5 603 608.2 616.3 617.7 628.1 629.3 625.3 623.4 619.5 610.4 596 578.5 557.7 533.2 507.3 491.4 486.7 488.3 491.2 492 487.9 471.9 444.2 425.5 409.2 397.2 386.8 368.8 347.8 314.8 290.1 268.4 250.8 236.3 221.5 207.1 190.6 172.4 156.7 142.9 129.7 121.1 117.1 114.1 110.9 102.2 102.2 102.2 102.2 102.2 102.2 102.2 102.2 102.2 102.2 102 103.1 102.7 102.3 101.7 107.4 119.5 126.6 131.6 141.1 164 190.6 210.4 236.6 256.9 254.4 270.8 268.5 259.4 253 250.3 268 279.9 293.3 314.6 339.3 355.3
112.5 112.5 112.5 112.5 112.5 112.5 112.5 112.5 112.5 112.5 112.5 112.5 112.5 115.6 122.9 123.9 124.9 126.5 130.5 169.1 220 254.7 283.6 318 326 324.9 325.6 318.9 308 301 295.3 292.8 289.3 285.3 280.3 274.7 269.1 264.7 264.3 265.3 263.5 262.3 262.2 265.2 270.6 275.5 279.8 284.1 288.9 294 300.3 305.8 311.9 318 324.6 330.2 337.3 347.2 356.3 367.5 374 377.5 383.7 384.7 382 386.3 391.3 390.7 403.7 409.9 420.2 426.4 427.6 440.1 453 465.5 478.9 493 506.4 522.7 540.8 556.1 570.4 578.6 578.9 575.6 571.7 567.6 562.9 558.2 556.3 555.2 557.6 564.5 572.1 579.9 584.2 585.1 584.5 580.4 579.8 579.6 579.9 581.5 582.4 584.1 585 586.7 590.7 596.1 603.6 611.4 620.7 631.4 643 654.2 663.3 650.8 643.3 646.5 658.4 654.6 658 654.5 642 632 615.3 596.7 580.3 559.8 539.3 515.5 497.4 489.3 489 493.3 497.9 499.7 498.3 485.1 462.4 436.6 422.8 411.3 402.1 387.4 365.1 339.5 317.8 293 276.6 257.9 243.8 229.2 209.5 190.5 173.9 159.8 143.6 130.1 123.4 122.7 120 110.3 102.2 102.2 102.2 102.2 102.2 102.2 102.2 102.2 102.2 102.2 102.2 102.2 102.2 102.2 102.2 111.7 115.9 121 126.5 151.7 176.2 197.6 239.5 228.4 229.3 239.1 243 239.1 235.7 243.5 258.3 268.8 283.6 303.5 319 334.8
112.5 112.5 112.5 112.5 112.5 112.5 112.5 112.5 112.5 112.5 112.5 112.5 112.5 117.7 123.2 125.1 125.9 127.3 128.9 156 194.4 226.1 268.4 307.3 326.8 323.3 317.8 316.8 306.2 297.4 292.1 287.6 284.2 279.4 274.5 269.1 264.3 261.9 262 259.4 257.7 256.8 257.3 261.2 262.6 264.7 268.6 271.6 274.9 278.7 283.1 287.2 291.5 296.6 303 308.9 317.2 327.3 337.9 342.2 348.4 358 364.5 361 361.5 372.4 375.3 380.8 387.5 393.3 402 407.1 412.5 424.6 436.8 450.1 464.7 479.9 494.3 508 525.4 540.7 552.7 560.9 563.7 562.2 559.5 556.7 552.4 547.2 545 543.4 551.9 560.6 572.7 580.3 585.5 588.7 589.3 584.9 584.5 583.5 581.5 580.1 579 579.3 580 582 585.8 591.7 600 609.6 619.5 631.9 643.9 657.2 671.1 684.4 688.4 692.5 701.5 692.1 687.9 673.5 650.8 628 602.2 580.7 560.6 539.1 516.8 502 496.3 490.8 492.4 497.8 502.6 507.8 510.1 499.4 479.9 459.6 442 430.3 419.6 408.8 387.1 367 346.1 326.4 305.4 283.9 270.4 252.9 231.6 214 199.8 183.7 163.6 147.1 136.2 134.4 130.6 120.3 109.2 102.2 102.2 102.2 102.2 102.2 102.2 102.2 102.2 102.2 102.2 102.2 102.2 102.2 102.2 102.2 103 107.8 112.9 134.5 157.3 186.9 202.7 199.1 204.4 209 214.6 217.1 215.7 230 244 259.4 272.2 288.3 303.9 310.4
112.5 112.5 112.5 112.5 112.5 112.5 112.5 112.5 112.5 112.5 112.5 112.5 112.5 115.8 124.7 128.2 126.4 128.1 130.6 145.3 179.5 224.6 257.3 289.9 307.2 308.8 306.4 306.1 293.1 292.2 286.4 281.6 278.4 274.1 268.9 263.8 259.9 259.5 257.1 252.8 250.3 251.1 253 250.3 250.9 253.9 256.4 258.1 260.8 264.5 269.2 274.3 278 282.5 287.2 292.1 299 308.8 316.9 320.6 324.9 331.9 336.7 334.7 348.8 353.4 354.5 363.8 370.4 376.4 382.4 385 394 403.8 414.8 428.5 444.3 460.1 475.3 489.4 504.1 519.2 531.4 541 546.9 547.9 546.5 543.7 540.4 535.8 530.1 530.6 540.9 551.9 563.8 574.3 580.4 584.5 587.3 585.1 583.6 580.9 577.8 574.5 571.7 571.2 571.9 574.8 579.6 586 594.3 603.5 614.4 627.7 643.1 658.1 673.7 691.8 709.9 733.3 744.9 733.7 711.9 683.9 651.8 620.6 591.2 563.9 538.6 517.6 502.2 494.5 496.6 495.2 495.3 500.4 508.5 514.5 519 512.9 496.9 477.3 462.4 451.6 443.3 428.9 416.3 397.1 381.2 365.7 346 318.9 298 277.1 258.6 251 230 207.4 186 168.7 151.8 144.9 140.1 129.7 118 106.1 102.2 102.2 102.2 102.2 102.2 102.2 102.2 102.2 102.2 102.2 102.2 102.2 102.2 102.2 102.2 102.2 105.4 121.9 137.2 153 165.8 173.3 187.1 193.5 195.2 198.3 203.7 213.7 230.7 245.7 257.5 268.4 278.6 286.4
112.5 112.5 112.5 112.5 112.5 112.5 112.5 112.5 112.5 112.5 112.5 112.5 112.5 112.5 129.4 141.7 131.3 128.6 130.4 134.8 161.3 196.9 242.4 269 288.3 292.1 295.2 284.1 281.1 286.3 285.3 276.5 272.6 268.2 263.2 257.2 255.3 255.4 251.7 246.9 241.8 244.5 241.1 235.1 238.4 241.1 243.1 244.6 246.9 250.6 256.4 262.4 266.7 269.5 273.1 278.9 285.6 293 299.3 305.4 312.5 316.3 316.9 329.8 334.7 337.2 340.7 346.3 351.6 357.6 363.8 365.1 375.2 384.8 394.1 406.4 422.2 438 452.9 467.2 481.9 496.5 509.2 519.5 526.9 531.1 531.8 530.2 527.4 523.2 514.3 513.9 527.7 540.2 553.1 564.8 572.4 576.9 581.2 581.4 580 576.8 571.8 567.4 564 561.7 562.9 566.8 572.5 580 588.9 598 610 622.5 638.6 656.6 674 692.9 711.9 738.2 752 749.4 723.9 686.7 648.8 613.4 581.7 552.6 526.4 508.2 497.3 496.6 496.6 497.1 495.7 502.1 511.2 521 529.3 527.5 514.6 498 482.5 471.7 465.5 452.6 444 429.8 412.1 395.6 375.6 347.2 324.1 302.9 289.3 300.3 276.7 241.1 212.5 190.3 168.3 157.8 149.9 138.7 127.1 115.6 103.6 102.2 102.2 102.2 102.2 102.2 102.2 102.2 102.2 102.2 102.2 102.2 102.2 102.2 102.2 102.2 102.9 118.7 129.4 138.9 149.2 157.3 166.8 174.5 178.8 184.7 192.6 201.6 217.3 231 242.8 252.2 262.5 272.3
112.5 112.5 112.5 112.5 112.5 112.5 112.5 112.5 112.5 112.5 112.5 112.5 112.5 112.5 131.5 139.6 140.8 143 135.4 133.7 148.8 176.4 206.7 235.8 258.4 265.1 263 266.7 272.2 273.1 269.3 271.4 263.8 260 256.9 253 249.8 248.1 245 241.2 236.1 230.5 225.9 224.8 226.4 228.9 230.7 233.2 235.3 238.3 243.5 248.6 252 254.8 258.3 264.2 271.1 276.8 281.5 288.1 293.8 295 301.8 311.9 318.3 320.8 323.7 327.8 331 335.3 340.6 344.3 352.8 361.8 370.1 381.4 394.1 408.8 423.8 438.1 453.1 466.6 478.7 489.4 498.2 504.3 507.4 507.7 507.6 505.3 496.2 490.8 506.4 520.4 535.8 550.3 559.1 563.2 568.4 571.8 572.1 567.2 560.1 554.4 550.2 547.3 550 554.9 563 571.5 582.2 593.4 606.5 619.3 633.4 655.8 676.6 693.5 713.7 734 744.9 744.5 718.3 681 637.1 605.7 583.6 551.4 529 514.1 501.1 496.6 497.1 500.8 499.6 507.1 520.4 537.4 545.1 545.3 538.3 523.9 511 503.2 494.3 483.8 480 469.5 447.3 433.3 411.7 386.6 362.7 339.5 326.6 322.5 295.5 265.3 243.4 218 190.2 174.3 162.9 150.1 137.3 125.8 113.5 101.7 102.2 102.2 102.2 102.2 102.2 102.2 102.2 102.2 102.2 102.2 102.2 102.2 102.2 102.2 105 118.4 139 140.4 142 145.9 151.1 157.7 162.6 169.1 177.5 185.7 199.4 211.6 223.4 235.5 249.4 261.1
112.5 112.5 112.5 112.5 112.5 112.5 112.5 112.5 112.5 112.5 112.5 112.5 112.5 112.5 116 138.6 142.8 145.4 140.8 135.5 139.8 154.9 177.9 201.3 227.2 252.6 231.7 254.7 260.9 261.1 264.4 261.2 260.1 253.2 252.9 249.1 243.7 240.2 237.7 234.4 229.2 224 218.4 216.8 216.6 218.5 220.2 221.9 223.8 225.1 228.2 231.4 235.6 240.3 244.4 250.1 256.5 262.4 267.4 272.6 277.1 283.2 288.5 297.1 301.8 303 304.6 307.4 311.9 315.1 318.7 325.6 332.2 339.2 346.2 355.1 366.3 379.1 392.6 406.2 420.5 433.7 445.8 456.3 466.1 474.3 479.3 483.2 485.5 485.3 477.6 465.4 481.4 499.6 516.5 532.4 540.9 543.5 549.3 555.3 558.3 553 546.1 539 533.3 530.2 532.4 542.7 553.8 564.1 575.7 588.2 603.9 616.7 632 654.8 677 694.5 713.2 729.8 739.4 740.9 711.1 671.1 632.6 607.8 588.3 564.8 541.6 530.5 523.7 519.1 511.9 511.4 515.6 524.9 540.5 555.9 563.9 566.5 563.7 553.2 540.8 533.3 520.4 521.1 519.5 500 486.6 472.6 451.8 431.4 408.3 380.6 364.8 344.3 313.9 281.4 257.6 235.3 210.8 189.4 176.8 163 148.8 134.7 122 109.1 103.5 102 102.2 102.2 102.2 102.2 102.2 102.2 102.2 102.2 102.2 102.2 102.2 102.2 105.7 113.5 121.1 131.4 135.3 138.2 142.6 147.5 153 159.5 167 176.3 186.6 198.2 210.7 224.1 238.5 249.7
112.5 112.5 112.5 112.5 112.5 112.5 112.5 112.5 112.5 112.5 112.5 112.5 112.5 112.5 112.5 114 126.5 131.9 136.2 135.4 136.4 143.6 154.7 170.5 190.2 208.6 229.6 235.8 234.2 246.6 246.5 248.9 250.5 245.3 244.7 243.7 238.4 230.4 227.8 226.8 222.6 217.9 212.6 209.1 207.8 208.5 210.1 211.4 212.7 213.4 215.6 216.9 221.5 226.7 232.8 238.1 243.8 248.6 253.9 258.7 263.4 270 275.2 282.7 286.1 288.6 291.1 295.3 299.1 300.8 303.3 309.7 315.1 320 325.8 331.7 341.2 351.3 363.5 376 389.8 402.2 414.2 425 435.2 443.4 450.4 455.9 460.8 464.1 461.9 443 458.5 478.9 495.9 509.7 518.7 520.8 528.3 535.3 539 535.5 530 522 515.5 512.1 515.5 531.2 547.3 560.2 573.3 586.2 600.2 614.2 635.3 657.2 675.8 694.7 712.6 726.2 733.5 735.3 708.7 667.8 634.2 609.9 593.7 578.2 565.2 554.8 549.1 542.8 535.8 533.4 536.7 546.7 559.5 575.5 585.5 594 596 594.2 587.7 577.2 561.6 562.8 559.4 549.5 533.4 514.9 498.6 479.2 452 421.9 393 365.3 335.6 301.3 275.1 252.9 231.8 209.4 194.9 179.5 163.3 147.8 132.8 118 107.7 103.7 101.9 102.2 102.2 102.2 102.2 102.2 102.2 102.2 102.2 102.2 102.2 102.2 103.8 109.3 115.2 121.7 126.1 130.8 135.7 139.4 144 150.8 158.5 166.3 174.8 184.7 197.2 209.5 222 233
112.5 112.5 112.5 112.5 112.5 112.5 112.5 112.5 112.5 112.5 112.5 112.5 112.5 112.5 112.5 112.5 112.5 118.7 123.2 126.2 130.6 134.7 142.4 151 162.1 176.2 196.5 214.9 218.4 222.5 227.5 231.8 235.4 236.1 235.3 234 229.5 221.2 216 215.5 215.5 211.1 206.4 202.2 199.8 197.7 199.1 201.3 203.4 204.9 206.9 206.3 209.2 214.6 220.4 225.6 229.8 235.1 241 246.6 252.1 258.7 263 267.2 271 275.1 278.8 282.4 285.8 288.5 291.3 295.4 299.9 304.9 309.3 314.6 322.2 330 339.9 351.2 362.1 372.1 381.2 391.2 401.7 410.9 419 426.5 433.9 439.1 438.6 423.1 439.2 456.6 472.4 483.3 491.3 496.1 502.7 509.6 514.4 513.3 507.7 500.1 494.2 488.2 506.5 525 540.3 556.2 570 581.9 595.6 615.3 635.2 658.2 679.1 695.2 712.5 724.8 731.6 727.3 716.3 678.9 649.6 627.5 612.4 597.8 586.1 575.4 566.9 560.8 558.8 559 559 566.1 578.5 593.3 607.6 625.2 638.6 642.4 635.9 623 605.1 616 616 613 593.6 570 546.7 516.6 486.7 456 423.2 393.7 360 327.3 298.8 273.4 254.3 233 216.2 200 181.5 163.9 146 127.2 120.2 111.9 104 102.2 102.2 102.2 102.2 102.2 102.2 102.2 102.2 102.2 101.8 102 102.6 105.8 112.5 115.6 118.8 121.5 126.7 132.7 136.2 140.2 147.8 154.1 160.4 167.4 176.5 186.4 196.1 204.5
112.5 112.5 112.5 112.5 112.5 112.5 112.5 112.5 112.5 112.5 112.5 112.5 112.5 112.5 112.5 112.5 112.5 112.5 112.5 114.4 118.3 124.4 129 137.1 142.4 150.7 165 177.9 193 196.8 204.4 213.5 221.2 223.2 222.8 221.8 219.8 212.5 202.1 203 206.3 203.6 198.5 194.4 192.1 189.6 189.5 190.6 192.8 195.6 197.4 193.5 195.3 201.6 207.4 212.3 216.3 221.9 228.5 234.5 240.5 247.6 251.2 254.7 258.9 263.1 266.7 270.1 273.1 277.2 280.9 283.4 286 289.6 295.6 300.4 306.3 314.5 323.9 333.2 342 348.7 353.9 362.2 370 378.4 385 392.8 401.6 406.5 409.7 400.9 416.8 431.1 443.3 454.5 461.6 468.3 475.5 482.8 485.7 488.9 484.2 477 470.2 474.4 501.1 519.3 535.5 551.4 565.5 578.3 593 612.5 633 657.5 679.7 699.1 712.3 723.7 728 723 719.1 706.9 684.2 665.3 650.2 626.5 602.5 586.3 577.7 573.9 573.8 576.7 576.9 583.5 594.9 609.2 626.2 649.1 673.4 683.2 668.7 651.2 642 660.3 662.3 646 613.1 583.5 557.7 529.8 505.1 480.9 449.7 417.8 380.3 344.4 314.4 287.3 264 245.1 228.7 213.9 194 170 159.1 146.3 132.1 122.5 113.5 103.9 102.2 102.2 102.2 102.2 102.2 102.2 102.2 102.2 102 101.4 102.8 104.7 106.8 110.2 113.4 119.3 125.6 129.6 131.6 134.8 140.6 144.8 151.5 155.1 160.6 169.7 174.7 180.9
135.5 119.4 112.5 112.5 112.5 112.5 112.5 112.5 112.5 112.5 112.5 112.5 112.5 112.5 112.5 112.5 112.5 112.5 112.5 112.5 112.5 112.9 119.5 121.3 126.5 131.3 140.9 152.3 163.1 171 181.7 190.9 198.7 203.6 206.1 207.3 205.4 198.5 189.3 185.5 192.9 194.9 189.9 186.4 184 181.4 179.6 179.6 182.3 186.4 187.5 183.4 185.6 190.1 195 199.6 204.2 209.5 215.8 222.2 228.3 235.3 238.9 243.1 247.6 251.6 255.8 259.5 263.2 266.4 269.9 272.1 274.5 277.9 283.5 288.2 293.9 301.2 310.5 317.9 323.5 330 333.7 338.8 345 351.6 357.2 362.7 368.4 374.7 381.5 377.7 391 402.3 413.8 422.9 429.7 440.4 446.9 453.7 457.2 459.9 458.6 450.8 441.5 472.2 496.4 514.3 530 546.2 560.7 574.7 591.2 608.3 632.4 655.6 677.4 698.2 710.9 717.2 721.5 721.5 720 718.6 713.1 699.9 687.8 670.6 625.1 598.9 581.2 578.9 579.3 584.4 592.6 598.6 608.2 622.6 643.1 667 697.5 711.7 701.7 680.3 673.3 688.5 689.4 652.1 614.4 582.9 559.6 537.5 510 490.7 464.6 430.1 396.8 362.1 326.4 296 270.2 253.4 240.8 224.2 208.2 190.5 173.2 159.8 145.4 134 123.6 113.4 102.2 102.2 102.2 102.2 102.2 102.2 102.2 102.2 102 102.6 103.1 104.7 106.4 109.1 113.6 118.4 123.3 126.1 127.8 131.8 134.8 137.6 140.4 143.8 147.1 150.6 156.8 162.4
195.5 159.1 124.2 112.5 112.5 112.5 112.5 112.5 112.5 112.5 112.5 112.5 112.5 112.5 112.5 112.5 112.5 112.5 112.5 112.5 112.5 112.5 112.5 114.4 115.5 119.1 123.6 134.1 143.1 150.5 158.1 165.3 170.7 177.1 183.5 188.8 187.1 181.4 175 169.9 177.8 184.4 180.5 177.3 175.6 173.6 172.4 171.6 173.5 175.4 175.2 175.6 177.8 180.8 183.7 188.6 193.4 198.5 205.2 210.4 216.6 223.3 227.9 232.5 237.1 241.7 246.4 250.6 254.3 256.9 259.5 261.7 264 267.5 272.6 278.3 282.6 288.6 296 303.8 308.3 312.5 317.1 321 327.6 331.9 337.2 341.8 346.9 352.6 357.5 358.9 365.6 374.9 384.8 393.4 400.8 412.6 419.1 426.7 431.7 432.4 427.9 421.6 440.7 469.8 490.1 507.8 524.1 539.7 556.2 571.5 588.7 606.2 629.3 652.4 673.4 692.2 707.9 714.8 716.9 717.8 716.7 714.3 714.2 715.3 720.4 689.1 642.2 607.3 584.7 581.5 582 592.9 605.7 611.4 619.7 636.8 657.3 686.2 715.6 734.9 732.7 712.5 711.7 711.2 686.8 646.9 610.9 579.5 555.9 534.4 513.2 491.1 468 438 408.5 381.3 343.2 303.2 276 261.7 249.3 236.9 220.4 213.4 192.9 172 158.5 147.3 134.8 124.5 112.3 102.2 102.2 102.2 102.2 102.2 102.2 101.8 102.3 102.8 103.7 103.2 105.9 108.5 112.4 114.6 119.6 122.3 124.1 125.7 129.8 130.5 133.4 133.5 135.9 137.9 141.2 144
231.1 184.9 149.5 112.5 112.5 112.5 112.5 112.5 112.5 112.5 112.5 112.5 112.5 112.5 112.5 112.5 112.5 112.5 112.5 112.5 112.5 112.5 112.5 112.5 112.5 112.5 112.7 117.5 125.7 132.4 135.7 141.4 146.2 151.2 157.2 162.5 165.1 164.2 159.8 156.6 163.8 170.8 169.2 167.9 166.5 164.2 162.8 162.7 165.5 167.2 169.1 169.7 172.3 174.8 177.7 181.7 185.5 190.8 196.6 201.8 208 215.3 218.4 222.9 228.2 232.7 237.5 242.3 246.3 248.8 251.6 253.4 256.1 259.5 264.2 269.3 274.6 279.2 286.3 290.9 295.5 299.2 302.4 306.5 312.4 316.2 318.8 321.9 329.8 336 338.2 341.8 344.9 351.9 359.4 364.8 373.9 380.2 389.6 399 404.2 403.4 395.4 416.8 442.3 463.2 480.5 497.8 515.8 533.1 549.6 568.9 586.3 605.5 627.6 647.2 668.4 686.4 700.8 711.8 713.2 712.7 712 711.7 713.6 715.6 725.2 709.6 663.6 623.8 600.4 594.2 599.3 612.4 626.5 627.4 635 651.3 672.2 704.1 732.9 755.9 759.8 747.1 732 704.7 672.7 639.3 604.4 573.5 551.1 532.2 508.7 487.7 464.5 441.1 410.1 386.7 361.8 315.8 284.7 271.1 260.3 241.4 242.4 246 216.5 188.6 172.9 162.7 150.3 137.1 124.8 111.1 102.2 102.2 102.2 102.2 102.2 102 102.4 103.1 103.8 104.4 105.6 107 108.6 108.2 109.8 111.6 117 118.5 120.8 123.8 126.2 127.9 131 131.6 131.9 134.3
237.8 205.2 165.9 128.1 112.5 112.5 112.5 112.5 112.5 112.5 112.5 112.5 112.5 112.5 112.5 112.5 112.5 112.5 112.5 112.5 112.5 112.5 112.5 112.5 112.5 112.5 112.5 112.5 112.5 117 119.7 121.7 124 128.8 133 136.3 142.5 147.4 146.2 150.2 152.4 154.6 153.8 154.7 156.6 161.1 162.2 162.8 163.3 166.2 169.5 172 175.1 176.6 178.2 179.9 181.8 184.4 187.1 192.7 199 206.1 209.2 214.6 219.5 224.4 230 235.8 239.1 242.3 245.8 248.1 251 254.6 259 262.8 269.8 275 280.5 282.7 286.6 289 291.4 295 299.6 301.9 305 308.9 315.5 318.6 320.7 325.4 325.8 331.9 337 344.9 350.1 357.5 364.6 371.6 375.8 372.1 389.8 412.3 430.2 448.8 467.1 486.4 505.2 523.5 542.3 563.3 583.1 601.5 622.8 642.2 660.9 676.1 692.1 709 711.7 709.1 707.8 708.6 711.9 715.4 721.8 731 693.8 651.4 623.6 620.2 621.1 652.3 653.8 647.7 653.6 664.9 691 723 753.2 782.6 777.3 755.6 725.2 696.4 662.8 631.7 598.8 567.4 546.8 526.4 502.8 481.3 458.6 431.1 404.3 379 350.8 320.5 293.5 278.5 265.2 264.3 256.8 266.1 237.2 205.4 187.8 176.4 164.3 148.9 134.6 120.9 106.5 102.2 102.2 102.2 102.2 101.9 102.5 103.1 103.7 104.4 105.1 106 106.1 107.4 108.4 110.5 111 113.7 114.1 117.1 120.2 122.3 124.8 124.9 124.1 126.2
229 207.5 175.8 142 116.4 112.5 112.5 112.5 112.5 112.5 112.5 112.5 112.5 112.5 112.5 112.5 112.5 112.5 112.5 112.5 112.5 112.5 112.5 112.5 112.5 112.5 112.5 112.5 112.5 112.5 114.2 116.2 117.9 120.3 122.7 124.5 127.7 132.9 134.4 136.3 138.4 139.6 139.6 140.6 147.5 158.2 159.8 161.2 161.7 166.2 170 173.4 177.7 181.3 186 190.7 191.5 194.9 194.8 192.2 193 197.9 203.1 208.1 213.4 218.3 224 229.4 233.1 236.3 240.1 243.6 246.8 250.3 254.9 259.2 264.8 270.8 273.2 276.2 278.7 279.7 282.1 286.1 287.4 289 291.5 296.2 300.6 302.9 308.1 309.5 309.8 315.1 318.4 324.3 328.1 335 340.6 346.5 351.1 361.5 380.3 396.6 413.6 431.5 453.2 474.3 494.5 513.6 532.8 553.1 576.3 597.2 616.1 635.6 653.5 669.3 686.5 705.5 709.6 706.4 703.6 703.8 705.7 709.6 715.2 725.4 712.5 693.5 671.4 661.9 688.4 680.4 695.1 683.2 681.4 689.5 714.2 742 775.7 795.7 784.2 752.4 723 692.2 660.3 626.6 593.3 563.7 544.9 520.3 498.8 477.5 450.2 424.8 398.8 373.9 351.8 326.4 306.8 290.3 278.1 280.6 277.8 278 265.3 241.2 213.7 194.4 178.1 162.1 147.5 135.3 120.5 106.1 102.2 101.5 101.7 101.8 102.3 102.9 103.9 104.6 105.2 105.7 105.9 106.7 109.9 110.5 117.2 119.4 120.3 116.6 116.2 116.3 118.1 118.6 119.8 120.8
218.9 195.2 170.7 146.6 130.3 115.5 112.5 112.5 112.5 112.5 112.5 112.5 112.5 112.5 112.5 112.5 112.5 112.5 112.5 112.5 112.5 112.5 112.5 112.5 112.5 112.5 112.5 112.5 112.5 112.5 112.5 112.5 112.5 114.7 117 120.3 122.9 123.8 125.4 128.9 132.8 131.2 129.7 134.5 140 151.7 159.1 158.6 161.1 165.5 169.3 173.9 180.9 189.7 199.3 203.9 205.7 209 209 206.6 204.3 204 202.1 210.2 215.2 216.9 218.8 223.7 227.1 230.1 235 238.8 243.1 247 251.4 256.2 261.8 265.8 265.9 268.2 270.4 272.2 273.5 276.8 277.3 277.8 281.5 285.6 288 291.1 294.1 294.4 297 300.8 304.4 308.6 312.8 318.7 323.4 327.8 336.2 348 363.7 378.1 393.9 414.7 433.6 455.9 480.2 500.1 520 539.6 561.8 585.2 610 627.3 644.8 661.7 677.8 692.7 703.3 701 697.6 697.3 699.1 703.6 707.5 716.5 726.3 732.2 712.3 732.7 750.2 727.3 740 731.4 711 720.6 741.1 764.9 796.8 800.4 784.4 747.4 721.8 687.4 656.6 621.2 587.4 560.8 540.6 519.7 493.3 470.2 440.9 415.7 393 373.9 359.5 337.2 319.7 303.1 293.4 294.5 294.8 291.6 292.2 284.8 240.4 220.7 208 190.1 171.1 150.7 133.5 118.9 104.2 102.2 100.9 101.8 102.1 102.9 104 104.7 105 105.2 105.3 106 109 114.8 120.4 123.8 126.2 127.2 129.1 131.5 125.9 122 125.2 125.9
219.2 195.8 175.5 155.9 141.6 129.6 115.4 112.5 112.5 112.5 112.5 112.5 112.5 112.5 112.5 112.5 112.5 112.5 112.5 112.5 112.5 112.5 112.5 112.5 112.5 112.5 112.5 112.5 112.5 112.5 112.5 112.5 112.5 112.5 116 116.7 118.9 119.1 121.6 124.5 126.9 124.3 125.3 130.6 136.4 144.1 154.4 155.6 159.8 165.1 170 175.1 185.2 198.3 212.5 217.1 220 222.9 223.3 220.9 218.9 218.2 217.5 223 223.7 225.2 226.5 227.5 229 230.7 234.7 238.9 243.5 255.7 253.3 253.4 256.8 259.7 260.7 262.6 263.8 265.5 267 267.7 267.5 268.4 271.4 276.9 277.5 279.8 283.1 285.7 288.3 291.4 294.2 297.1 301.8 306.7 309.9 317.4 321.6 334.9 347.9 361.4 378 396.7 411.7 434.3 458 480.8 501.3 521.3 540.9 565.4 589.2 610.7 631.4 652.1 668.2 680.8 694.1 693.4 687.9 688.3 692 694.8 700.2 708.5 722 732.5 734.4 762.1 772.6 769.4 778.6 775.7 747.6 758.6 776.8 798.3 805.5 784.5 760.9 715.6 693.8 667.7 640.2 603.4 573.3 550.5 531.9 510.6 488.7 460.6 433 407.6 390.2 371.4 359.8 344.4 327.2 313.2 308.1 311.5 311.4 311.1 308 304.3 282.9 278.4 263.7 239.1 213.9 174.8 151.5 134.5 117.6 102.7 101.7 101.9 102.5 103.2 103.7 104 104.2 104.4 104.6 105 108.4 113.8 118.9 123.1 131.7 141 150.1 152.2 147.1 141.8 143.1 139.7
223.6 202.8 185.2 173.6 156.5 139.9 123.1 112.5 112.5 112.5 112.5 112.5 112.5 112.5 112.5 112.5 112.5 112.5 112.5 112.5 112.5 112.5 112.5 112.5 112.5 112.5 112.5 112.5 112.5 112.5 112.5 112.5 112.5 112.5 112.5 113.9 113.9 114.6 117.7 119.9 120.2 121 121.9 126.1 131.9 136.8 148.3 154.7 156 163.6 170.5 179.8 196.2 210.3 221.6 230.4 234.6 237.1 237.3 235.3 233.9 233.4 233 232.4 231.9 233.8 236.1 234.3 233.8 234.6 237.9 240.7 247.1 254.6 254.1 252.4 255.5 257.3 258.9 259.4 259.6 259.7 260.1 260.7 259.8 259.9 264 269.5 268.9 270.9 272.8 276.2 280 281.4 284.2 286.3 290.4 295.1 298.9 303.7 311.6 321.4 333.3 348.2 362.4 374.9 393.9 413.4 434.5 456.7 477.8 496.7 516.9 540.2 562.1 582.6 604.2 628.2 642.5 654.5 675.5 677.2 672.6 675.6 682.6 687.8 693.3 703 713.9 728.3 739.4 758.1 774.8 789.8 799.8 805.2 782.2 800.9 802.3 805.1 789 753.3 725.7 688 659.4 639.7 608.9 580.4 557.6 537.9 517 496 472.2 449.3 418 410 395.9 373.9 363.4 355.2 343.7 327 324.8 328.8 329.1 327.7 323.3 316.7 315.1 301.1 274.5 249.1 223.3 197 174 149.7 129.9 113.4 103.6 102.1 102.4 102.6 102.9 103.2 103.4 103.6 103.7 103.7 104.3 109 114.2 123.4 143.7 157.9 168.7 176.1 177.2 175.4 168.7 164.5
232.6 214.4 205.6 190.3 175.4 157.3 135 124.2 112.5 112.5 112.5 112.5 112.5 112.5 112.5 112.5 112.5 112.5 112.5 112.5 112.5 112.5 112.5 112.5 112.5 112.5 112.5 112.5 112.5 112.5 112.5 112.5 112.5 112.5 112.5 112.5 112.5 112.5 114 116 116.8 118.1 118.7 122 127 129.2 138.6 146 148.7 160.9 168.2 181.1 198.6 214.2 226.1 236.5 248.5 254.6 253.8 250.6 247.6 250.3 249.5 246.5 242.5 243.7 243.2 240.5 238.9 239.4 240.9 243.6 245.7 249 250.9 254.7 257.3 258 258.3 258 255.9 255.4 254.1 253.6 254.1 254.7 256.8 261 261 262.9 265.3 267.2 269.7 272.2 274 275.7 279.5 281.5 287.5 291.6 299.8 308.5 318.9 330.3 343.7 355.9 371.9 388.8 408.8 429.7 451.3 471.8 491.6 512.4 533.4 553.2 571.5 589.3 605.3 619.6 636.2 642.3 644 655.7 669 678.7 687.5 693.5 708.9 722.7 737.8 758 773.2 787.2 799 802.2 797.9 800.2 798.8 798 767.5 721.8 699.7 654.5 631 607 585.2 557.7 540.6 524.6 509 488 470.8 444.3 417.1 404.5 393.4 377.8 369.6 360.9 352.2 341.9 342.6 348.3 348.5 344.6 336.6 330.3 320.2 311.2 291.6 264 237.9 213.5 190.6 163.5 138.7 121.3 107.2 103.1 102 102.3 102.2 102.4 102.6 102.7 102.8 103.1 102.9 103.3 114.3 134.3 147.2 176.1 207 210.2 211.5 205.3 195.7 194.7
249.9 232.5 222 211 192.2 171.4 149.2 134.1 127.5 117.3 112.5 112.5 112.5 112.5 112.5 112.5 112.5 112.5 112.5 112.5 112.5 112.5 112.5 112.5 112.5 112.5 112.5 112.5 112.5 112.5 112.5 112.5 112.5 112.5 112.5 112.5 112.5 112.5 112.5 112.5 113.2 114.8 115.7 116.9 119.5 120.6 128 137 142.6 158.4 165.9 182.6 198.7 207 220.7 239 251.4 261.1 266.1 265.6 262 262.1 261.9 258 253.9 250.9 248.2 245.2 244.1 243.4 244.7 246.8 249.6 251.5 252.9 256.7 259.3 260.3 257.6 256.2 254.2 253.2 250.8 248.5 249 249.8 251 254.4 255.1 255.3 257 259.1 260.9 262.9 265.5 266.7 269.5 270.2 276.3 281.2 289.1 295.2 302.9 314.2 327.3 337.1 349.8 364.4 383.5 402.9 424 444.6 465.5 484.3 503.9 522.4 539.6 556.4 571.1 585.9 595 603.3 610 634.5 653.4 667.6 679 688.4 701.5 718.4 733 751.3 769.4 778.5 790.1 796.3 787.7 789.5 791.1 789.9 742.5 699.2 664.5 632.4 605.6 580.1 556.4 535 517.4 508.4 496.7 479.5 465.3 437.9 418.1 404.5 392.8 383.4 376.8 374.4 370.9 369.7 371.9 375.2 370.2 365.8 359 344.6 324.5 313.5 300.8 272.5 244 221.7 197.5 173.4 151.9 132 116.1 104.7 102.3 102 102.5 102.5 102.5 102.1 102.2 102.3 102.1 105.7 118.5 134.1 145.2 176 236.7 249.3 246.8 233.4 230.4 229.3
274.5 255.5 241 232 213.1 191.1 167.7 151.2 140.5 130.7 121.6 112.5 112.5 112.5 112.5 112.5 112.5 112.5 112.5 112.5 112.5 112.5 112.5 112.5 112.5 112.5 112.5 112.5 112.5 112.5 112.5 112.5 112.5 112.5 112.5 112.5 112.5 112.5 112.5 112.5 112.5 112.5 113 113.5 113.1 112.5 118.1 126.4 137 156 166.5 181.9 191.2 198.8 211.3 228.9 245.1 256.4 261.7 265.4 267.1 264.1 264.5 261.8 257.6 254.8 252.8 250.1 248 247.5 248.7 249.7 252.2 255.7 256.3 257.9 260.1 260.2 258.8 257 253.4 252 249.4 247.1 246 244.9 246.6 248.6 247.6 248.3 249.7 250.3 252.4 254.4 255.7 257.2 259.5 260.2 263.4 271.4 277.8 283.3 289.5 298.7 309.7 319.1 328.1 343.7 360 376.9 397.5 417.9 436.9 455.5 473.5 490.9 507.5 523.3 537.5 550 558.6 566.1 585.2 612.8 634.8 653.4 669.6 684.1 700.8 715.5 724.6 743.9 759.7 770.3 776.8 776.5 774.7 779.1 781.2 780.9 752 697.1 654.1 620.6 589.9 564 542.9 516.5 498.4 486.3 480.2 463.4 450.5 436.8 417.8 405.7 400.3 394.9 395.7 398.3 400.1 403.6 408.1 403.6 397.8 388.3 372.3 354.5 331.7 317 298.4 276.3 253.4 232 204.7 191.6 177.7 152.8 130.2 112.9 102.3 102.9 102.6 102.5 102.5 102.4 102.6 102.5 102.3 105.9 119.1 129.9 145.8 174.3 211.6 240.3 262.3 263.8 270.7 276
298.5 280.2 265.1 253.4 232.3 207.5 184.1 166.4 153.9 142.2 133.8 125.1 114.7 112.5 112.5 112.5 112.5 112.5 112.5 112.5 112.5 112.5 112.5 112.5 112.5 112.5 112.5 112.5 112.5 112.5 112.5 112.5 112.5 112.5 112.5 112.5 112.5 112.5 112.5 112.5 112.5 112.5 112.5 112.5 112.5 112.5 113.1 117.4 131.4 152.5 164.9 174.3 181.2 190 201.9 218.8 235.1 239.3 243.7 247.3 250.8 250.6 258.4 265.5 259.3 257.8 257.4 254.6 252.8 251.6 252.7 253.6 254.9 257.5 257.4 258.6 258.9 257.1 257.4 256.3 253.9 251.1 248.3 245.4 243.2 241.5 241.6 242.8 241.5 241 241.2 241.2 243 244.5 246.9 249.3 247.6 248.7 257.6 262.8 267 270.9 276.2 285.7 294.4 300.4 310.4 322.8 336.7 350.1 370 387.8 407.6 426.9 444.5 461.7 476.2 491.8 503.4 513.8 520.6 530.9 559 587.6 611.5 631.6 649.5 675.5 693.8 710.1 713.4 727.3 742.5 751.6 756.4 761.2 764.1 769.3 770.5 766.9 748.7 704.5 666.2 613.3 584.8 557.3 538.2 512.9 499.4 486.3 476.6 461.4 449.5 441.2 430.1 416.2 413 422.1 430.8 442.7 448.8 449 444.3 436 427.3 407 386 365.9 345 331 315.6 286.8 259.5 239.2 218.2 206.1 194.3 170.6 147.4 127.3 109.9 103 102.7 102.5 102.5 102.5 102.6 102.8 103 108.3 116.2 127.5 148.1 174.6 205.5 239.8 264.1 285.5 306.3 316.3
325.6 306 301.6 278.2 250.2 222 197.3 182.1 171.3 160.6 147.6 138.2 127.3 115.9 112.5 112.5 112.5 112.5 112.5 112.5 112.5 112.5 112.5 112.5 112.5 112.5 112.5 112.5 112.5 112.5 112.5 112.5 112.5 112.5 112.5 112.5 112.5 112.5 112.5 112.5 112.5 112.5 112.5 112.5 112.5 112.5 112.5 112.5 123.5 139.7 154.5 165.8 172.5 181.3 192.5 208.6 214.6 220.3 223.5 227.7 230.6 232.5 241.1 247.5 250.8 250.1 253.7 256.1 256.3 255.6 256.8 257.4 255.7 255.7 254 254.8 256.9 256.3 255.6 254.7 253.9 251.1 246.7 242.7 240.2 237.9 236.6 235.2 233.6 232.6 232.1 232.5 234.5 235.8 238.5 238.8 237.7 241.7 248.2 252.3 256.7 259.6 264.2 272.7 278.6 284.9 292.9 304.7 313.6 325.4 341.5 359.4 377.2 395.4 413.4 429 446.1 460.4 470.8 480.5 483.8 504 532.2 558.2 579.6 598.2 621.1 645.9 684.2 697.7 692.5 705.5 726.8 737.3 737.4 737.7 752.4 758.4 758.1 756.5 743.2 727 681.8 634.7 616 567.7 557 532.8 514 502.9 495.6 474.7 459 447.8 447.9 438.9 442.2 452.9 473 488.9 504.1 495.5 484.7 489.9 463.3 427.5 399.8 377 356.3 342.6 332.8 308.8 273.5 250.8 233.5 224.8 210.1 189.5 171.3 143.6 120.2 106 102.9 103.2 102.8 102.9 103 103.2 103.6 105.1 113.2 131 147.2 174.5 205 233.3 257.1 288.2 315.7 347.7
346.7 336.1 340 305.1 269.1 237.2 212.4 199.1 189.2 176.5 163.1 154.7 146.7 134.8 124.2 115.1 112.5 112.5 112.5 112.5 112.5 112.5 112.5 112.5 112.5 112.5 112.5 112.5 112.5 112.5 112.5 112.5 112.5 112.5 112.5 112.5 112.5 112.5 112.5 112.5 112.5 112.5 112.5 112.5 112.5 112.5 112.5 112.5 112.5 121.8 135 146.6 156 168.4 180.7 187.5 192.5 200.3 203.7 208 210.5 213.8 217.8 223.8 227.2 228.5 233.8 241.8 246.1 248 248.8 247.9 248.1 249.7 248.7 248.1 248.1 247.7 250 249.7 247.2 244.4 240.3 236 235.4 232.2 229.7 227.5 226 223 224.1 223.8 225.4 228.9 228.6 227.3 225.1 231.4 238.1 242.2 244.1 248.1 252.1 258.8 263.7 266.4 276.3 285.6 293.6 303.1 315 330.1 347.3 364.8 382.8 399.5 415.2 430 441 448.5 450.3 480.1 503 525.5 547.2 567.3 589.6 616.3 646.3 662.3 664.9 683.7 700.8 712.3 712 718.3 735.5 742.4 745.5 742.9 738.2 730.1 700.2 709.2 698.1 614.8 592.1 559.5 543.5 531.7 518.6 499.1 481.3 464.4 463 462 475.9 487.2 509.6 531.6 557.8 558.8 552.5 537.9 507.7 449.9 414.2 390.5 362.9 355.1 338.4 321 293.7 264.7 247.9 235.4 219.7 200.6 186.5 159.2 131.1 113.8 104.5 103.5 103.6 103.5 103.3 103.5 103.9 106.4 119.1 129.1 149.6 179.9 204.5 222.2 250.7 282.5 312.9 350.4
376.4 370.3 368.6 349.4 304.3 262.7 235 219 206.9 194.1 183.6 176.4 165.4 154.2 141.6 130.5 121 112.7 112.5 112.5 112.5 112.5 112.5 112.5 112.5 112.5 112.5 112.5 112.5 112.5 112.5 112.5 112.5 112.5 112.5 112.5 112.5 112.5 112.5 112.5 112.5 112.5 112.5 112.5 112.5 112.5 112.5 112.5 112.5 112.2 116.3 125 132.3 143.1 154.1 160.4 167.3 174.4 180.5 187.3 189.2 190.5 195.1 200.4 203.9 206.9 212.7 220.2 225 226.1 227.1 228.5 230 230.2 231.7 233 236 233.6 235.1 235.7 235.8 234.4 231.8 228.7 227.3 223.6 221.7 220.1 217.9 216.8 217.2 216.3 218 220.7 219.2 215.2 219.1 223.9 227 230.3 233.3 239.3 249.2 249.7 249.2 253.7 259.2 265.6 273 284.6 293.3 304.2 315.8 333.7 351.3 370 383.6 398.1 408.4 414.8 431 452.6 472.9 491.8 515.8 537.7 557.9 583.2 606.8 626.6 628.4 662.2 670.2 678 683.8 692.2 710 724.1 727.4 725.7 726.2 729.8 728.8 733.2 706.3 659.6 629.9 606.7 595.2 582.5 570.3 532.7 503.8 488 489.7 492.7 510.5 532.5 538.8 566 589.1 611.4 598 574.5 526.2 468.4 430.6 398.9 371.5 360.7 346.6 326.4 306.2 279.4 261.9 246.9 228.1 211.9 193.5 167.7 139.5 122.8 110.1 104.1 103.9 104 103.6 103.8 104.1 107.6 118.3 134.9 153.7 172.4 191.8 214.2 240 271.2 303.2 334
426.3 412.4 396.2 365 327.8 292.9 260.7 241.3 229.5 218.1 205.6 195.4 185.8 174.2 162.3 150.9 137.4 127.8 119.5 113.3 112.5 112.5 112.5 112.5 112.5 112.5 112.5 112.5 112.5 112.5 112.5 112.5 112.5 112.5 112.5 112.5 112.5 112.5 112.5 112.5 112.5 112.5 112.5 112.5 112.5 112.5 112.5 112.5 112.5 112.4 112.3 112.2 115.9 120.4 129.8 134.1 141.4 148.3 153.5 159.2 161.9 166.1 171.5 176.7 181.1 184.9 191.4 196.5 200.5 204.5 206.1 209 211.4 210.4 212.6 215.9 218.1 218.2 219 219.7 221.3 220.6 220.6 218.6 215.3 213.6 212.1 209.6 206.3 210.3 210.4 208.5 208.5 209.9 209 203.1 210.1 212.6 214.4 217.7 221 223.8 235 244.3 235.5 245 244.3 249.2 257.8 263.9 274.1 284.5 291.8 305.2 319.5 335.9 351.5 365.7 375.2 386.2 406.9 424.8 442.2 462.6 484.8 506.2 526.2 544.9 569 582.2 607.5 631.3 638.9 648.8 655.6 663 684.1 697.5 699.1 698.3 703.8 707.1 713 726.9 727.2 702.5 670.3 660.3 646.4 634.7 590 566.7 540.3 522.6 518.3 524.6 547.4 561.1 571.9 622 647.1 645.5 624.8 589.6 534.8 478.5 446.5 410.9 383.8 369.1 358 336.6 312 289.2 269.1 254.3 238 223.1 199.7 173.8 148.9 130 117 105.7 104 103.8 104.5 103.9 104.8 104.5 115.4 133.3 147.5 166.6 185.3 207.1 225.3 258.2 286.6 312.7
457.4 436 419.5 393.6 361.8 323.9 290.7 265.6 249.9 240.5 228.8 217.1 206.9 197.4 184.2 171.2 158.1 144.6 135.4 126.8 116 112.5 112.5 112.5 112.5 112.5 112.5 112.5 112.5 112.5 112.5 112.5 112.5 112.5 112.5 112.5 112.5 112.5 112.5 112.5 112.5 112.5 112.5 112.5 112.5 112.5 112.5 112.5 112.5 112.5 112.5 112.5 113.4 113.6 113.8 116.3 119.2 122.9 127.7 131.3 137.4 142.3 147.1 151.6 155.9 164.8 170.6 173.8 176.1 180.2 184.1 188.3 191.7 193.6 196.5 199.6 202.1 202.6 203.1 203.6 205.1 206.2 205.6 204.4 202.2 199 197.5 194.4 194.2 199.8 201.9 196.6 197.6 200.2 196.6 194 197.2 199.3 200.4 204 207.9 210.8 221.8 235.1 229.5 234.3 243.4 250.3 251.1 250.7 255.5 265.7 276.9 284.1 292.6 304.7 316.2 331.3 345.5 359.3 379.4 396.7 413.3 431.9 453.3 472.4 492.4 511.3 526.6 545.5 571.6 588 613 626 622 630.3 647.2 659 664 668.3 676.6 680.8 692.5 709.4 713.1 714.4 711.2 692.1 693.2 669.3 633.5 617.4 600 571.4 575.8 570.8 564.2 577.1 601.8 642.9 679.6 675.5 646.2 602.2 560 496 460.5 425.4 400.6 381.4 366.2 342.7 318.5 299.1 284 263 246.8 231.5 213.7 186.2 157.1 138.8 123.6 112.1 104.6 104.4 104.8 104.1 105 105.1 113.8 126.1 140.9 159.8 176.4 194.9 214.4 242.6 267.1 293.6
465.6 445.3 426.4 412 390 353.7 319.3 295.1 275.9 263.2 251.4 243.1 231 219.4 206.4 192.3 178.8 167.5 153.4 145.5 136.4 126.9 116.4 112.5 112.5 112.5 112.5 112.5 112.5 112.5 112.5 112.5 112.5 112.5 112.5 112.5 112.5 112.5 112.5 112.5 112.5 112.5 112.5 112.5 112.5 112.5 112.5 112.5 112.5 112.5 112.5 112.8 113.7 114 114.1 114 114.7 114.8 114.2 115.7 116.2 119.8 124.9 130.1 136.4 145.5 150.2 152.1 153.1 156.4 160.9 165.5 171.1 175.8 178 180.3 181.6 181.6 183.1 184.2 186.4 188.3 188.6 187.6 186.3 182.9 180.9 179.3 182 184.4 184.4 182.6 183.1 184.1 179.5 179.6 182.9 184.5 183.9 189.4 194.1 197.3 203 208.8 219.2 230.2 232.9 239.2 243.7 248.7 245.2 250.4 259.3 267.4 274.8 281.3 293 302.1 317.6 330.3 347 364.6 383.3 401.7 421.7 440.2 460.4 478 491.7 518.2 534.6 552.1 578.7 594.9 585.8 591.1 611.3 620.1 624.5 634.7 645.1 650.7 666.6 683.3 692.9 699.8 705.9 715.2 720.6 705.6 681.1 657.8 648.4 628.1 615.7 592.5 579.1 594.9 624 654.8 688.1 693.1 657.3 608.4 567.4 518.8 481 443.2 417.9 397.1 375.1 349.1 322.7 305.6 289 264.3 248.5 233.3 213.3 185.2 161.5 145.2 130.3 117.3 106.4 105.5 105.6 105.4 105.6 105.6 107.7 120.9 136.2 151.1 166.6 181.7 199.4 221.6 245.6 274.6
467.4 450.4 430.2 419.1 401.8 381.3 351.7 326.5 304.6 290.1 277.6 265.9 255.8 242.9 228.9 214.2 204.2 191.2 177.5 168 158.6 148.8 137.9 128.1 121.6 117.6 116.4 115 114.6 112.5 112.5 112.5 112.5 112.5 112.5 112.5 112.5 112.5 112.5 112.5 112.5 112.5 112.5 112.5 112.5 112.5 112.5 112.5 112.5 112.5 112.5 112.9 113.5 113.9 113.9 113.7 114.8 114.7 115.4 115.6 115.8 116.2 117 117.6 119 125.9 129.3 131 133.1 137.8 142.5 146.6 150.2 153.8 158.4 159.6 160.9 162.3 164.2 165.9 168.1 170.8 171.9 170.7 169.5 167.2 165.2 166.5 170.6 170.5 168.6 167 170.1 167.6 166.2 168.4 171.7 174.6 174.4 176.7 181.7 184.8 187.7 190.8 197.3 203 211.6 215.8 228.7 231.8 232.7 237.2 241.6 248.6 261.2 261.8 275 283.2 290.5 303 319.9 336.4 353.5 371.2 389.9 409.2 428.3 443.5 464.1 485 498.8 526.5 545.8 556.6 556.2 555.9 564.8 575.9 590.8 600.1 608.1 616.8 634.8 652.4 662.2 673.4 682.7 697.7 707.1 721.4 718 703.7 682.1 674 646 617.4 600.5 613.1 643.5 678.3 709.2 701.5 662.9 612.4 567.1 531.7 492.2 458.3 433.6 408.8 385.9 358.7 332.9 309.5 290.8 268.3 250.8 232.4 213.9 189.7 168.7 152.4 139.4 123.9 111.3 110.9 107.6 106.6 105 106.4 106.5 112.1 124.6 143.1 155 168.8 184.6 203.5 226.5 255.2
468.1 454.3 435.7 423.7 404.9 388.6 372.7 351.4 329.2 313.4 298.6 285.2 274.7 261.3 248.2 235.8 225.4 211.5 202 190.1 181.7 174.4 162.7 154 146.1 139.3 132.1 126 123.5 119.4 115.7 113.5 113.5 113.8 112.5 112.5 112.5 112.5 112.5 112.5 112.5 112.5 112.5 112.5 112.5 112.5 112.5 112.5 112.5 112.5 112.3 112.9 113.5 113.8 114.2 114 114.5 115.9 115.6 115.9 116.9 117.8 117.9 116.7 116.5 117.2 117.5 117.8 117.9 124.1 130.5 128.3 129.6 133.3 138.3 138.8 139.8 142.2 145.7 149.3 150.7 153.9 155 153.9 152.5 151.5 150.7 154.2 155.9 155.6 154 152 156 156 157.5 157.6 160.6 162 163 165.4 172 171.5 172.2 173.7 180.3 185.6 194.1 197.5 198.8 208.9 217.2 219.7 222.6 230.4 247.8 250.5 255.6 261.8 268.7 282.7 295.1 310.1 324.3 341.2 359 378.2 396 412.4 433.2 450.6 468.1 492.9 510.1 519.5 522.2 528.6 531.7 542.3 555.8 565.2 573 581.7 601.7 615.3 627.4 637.2 652.6 664.9 684.3 698.5 708.1 718.3 720.3 708.5 677.3 644.1 629 638.8 664.5 695.7 721.4 707.9 665.8 622.2 574.1 538 503.6 477.9 449.3 422.2 399.7 373.8 349 324.6 303.8 279.1 258.2 242.4 217.4 194.4 175.3 159.5 143.1 128.8 121.4 115.7 111.9 107.6 105.8 106.3 107 107.6 115.1 131.6 144.8 158.8 172.8 189.6 209.2 237.3
468.3 456.2 439.3 426.8 407.7 393.1 377 362.2 346.9 328.3 315.4 300.9 290.3 277.1 264.3 251.5 240.4 229 221.2 211.7 204 196.3 186.9 177.7 170.9 164.8 156.9 148.1 142.7 137.2 129.9 122.8 119.1 121.2 117 112.5 112.5 112.5 112.5 112.5 112.5 112.5 112.5 112.5 112.5 112.5 112.5 112.5 112.5 112.5 112.5 113.1 113.4 113.6 113.9 118.4 118.2 116.2 116.5 117.5 118.5 119 119.1 118.7 117.1 117.3 117.6 117.3 118.6 118.7 119.3 120.9 121.7 122 122.6 123 128.8 134.6 134.5 131.8 135.5 137.2 136.8 139.3 141.2 141 140.6 142.6 143 143 143.1 144.7 147.2 149 150.7 147.6 148.5 150.2 151.6 154 159.5 156.2 157.4 165.4 169.2 173.5 179.1 185.4 185.9 190.3 197 200.7 206.6 214.9 231.3 235.5 236.1 241.7 251.9 263.1 272.6 287.5 297 313.2 329.8 346.7 364.6 382.7 400.4 417.1 434.9 454.5 473.8 483.9 485.2 500 501.2 507.4 520.4 531.1 538.7 547.6 566 578.1 591.5 604 617.3 632.4 646.5 662.3 680.9 700.6 712.3 724.3 705.9 678.2 662.2 668.1 688.7 720.1 732.9 717.6 672.9 625.7 589.7 552.4 528.3 499.4 468.8 441.5 416.2 388.8 363.9 332.1 314.1 289.5 268.8 248.4 222.6 199.6 181.4 165.6 150.2 136.8 129.9 120.6 117.6 112.7 108.2 106.8 107.9 108.7 113.3 125.1 135.9 147.5 162.2 177.2 201.2 220.4
467.1 455.2 440.1 427.1 413.5 394.6 382.5 370.9 357.2 344.4 328.9 314.7 301.5 291.5 280 267 258.2 246.8 238.1 230.3 224.7 217.2 209.5 200.2 194.1 190.6 183.2 171.4 165.3 159.2 151.3 143.8 136.1 130.2 124.3 120.2 114.6 112.5 112.5 112.5 112.5 112.5 112.5 112.5 112.5 112.5 112.5 112.5 112.5 112.5 112.5 112.5 113.1 114 115.4 117.7 117.8 116.7 117.6 118.7 119.7 120.1 120.9 120.8 120.1 117.7 118 118.6 117.7 118.8 118.7 120.7 121.5 122.2 122.8 123.4 124.5 125.2 125.2 125.7 126.6 127 128.3 131.4 133 133.3 135 135.6 135.2 135.3 136.6 138 141.9 143.4 142.1 140.1 139.6 138.5 140.3 144.7 146 147.1 147.7 155.2 158.8 162 163.7 167.4 169.6 175.7 181.1 187.2 189.7 201.3 212.2 215.3 216.2 223.9 232.1 241.1 255.6 268.6 276.3 284.5 300.8 316.5 335.4 350.1 368 385.9 400.7 418.9 437.2 449 452.2 464.6 472.7 475.8 482.7 498.7 507.1 515.1 528.6 544.4 556.9 566.7 581.6 592.6 606 622.7 654.4 674.4 687.4 709.1 720.5 714.8 718.8 719.3 721.3 735.1 741.6 729.4 687 640.9 606.4 578.5 546.7 517 486.1 454.2 425.1 398 371.6 341.6 327.9 308.1 280.8 253.5 230.1 206.8 187.2 171.6 157.1 146.3 137.3 131.4 124.7 119 111.4 107.9 108.1 109.2 110 112.7 121.2 132.7 151.8 167.8 188.8 209.3
461.8 453.5 438.7 424.7 415.9 402.4 385.7 377.2 364.5 355.6 338.6 326.5 316 304.2 293.5 284.1 274 263.5 254.5 248.7 242.3 236.3 231.5 224.9 219.2 215.7 209.8 198.7 191.1 183.4 173.7 166.5 158.3 149.2 140.7 130.6 127.1 118.9 117.2 114.3 112.5 112.5 112.5 112.5 112.5 112.5 112.5 112.5 112.5 112.5 112.5 113.2 113.8 114.1 118.6 117.9 117.4 118 118.9 120.2 121.6 121.6 122.1 122.1 121.7 120.1 120.4 119.6 119.5 118.8 119.3 119.4 120.2 122.3 123.4 124.2 124.7 125.2 125.3 125.7 126.2 126.9 127.9 128.4 129.1 129.3 130.6 131.2 132.6 132 133.1 133.3 135.8 136.2 134.6 135.8 136.7 137 137.3 138 140.1 139.7 140.9 145.7 148.1 151 153.1 153.3 155.8 159.6 166.1 172.9 173.9 181.8 189 195.7 200.4 207.1 216.7 224.6 238.3 249.7 253 263.2 274.7 288.8 304.5 319.5 339.6 352.9 367.1 385.4 403 414.8 421.8 431.9 439.5 445.9 451 466.5 474.5 482.8 493.8 506.5 518.3 532.4 546.5 557.8 569.7 591.9 619.4 635.7 658.4 677.5 689.9 707.7 716.4 712.7 722.9 740.9 742.8 732.3 696.2 659.5 631.2 596.7 564.7 531.3 498.6 465.6 434.2 407.8 387.2 365.9 341.7 327.8 291.9 259.4 236.7 214 199.7 182.6 167.4 156.9 146.1 141.6 137.5 131 119.8 109.3 109 109.8 110.4 111.7 116.4 129.9 144.9 159.1 176.1 194.7
458.5 446.9 435.7 425 417.5 406 394.7 381.4 372.9 362.9 351.9 336.7 327.1 315.7 307.5 299.5 293.5 283.8 277.4 272 263.1 256.5 249.6 244.9 240.3 235.1 229.2 223.6 217.1 210.5 200 192.2 181.9 170.5 160 149.9 139.6 134.1 127.8 123.5 117.4 112.7 112.5 112.5 112.5 112.5 112.5 112.5 112.5 112.5 112.8 113.5 114 116.9 119.7 119.3 119.1 120 120.6 121.7 123.5 123.5 123.9 123.7 122.8 122.6 121.6 121.2 121 119.5 119.5 119.8 120.8 121.1 122.6 123.7 124.2 124.3 125.7 125.9 126.4 126.8 127.8 127.6 128.3 129 129.7 129.9 131 131.4 131.8 132.6 133.3 133.8 134.6 135.6 136.1 137.1 137.8 138.1 138.4 139.1 140.7 141.5 142 143.7 143.6 143.6 144.2 146.2 150.8 153.3 157.5 162.1 169.4 179 187.5 192.9 200.6 208.4 216.5 225.6 231.5 242.1 253.5 265 276.5 295.6 307.4 319.3 332.2 351.1 370.2 379.5 391.8 403.1 411.4 417.2 422.9 434.1 440.9 450.8 462.3 472.5 485.3 498.6 513.6 524.9 535.9 559.1 583.4 600.3 622.3 637.8 657 681 683.9 684.2 698.9 711.6 732.1 734.3 714.7 684 648.4 611.2 577 542.3 509.5 477.5 444.3 420.7 403.7 392.1 363.4 334.9 313.4 271.7 248.5 237.3 222.4 197.4 179.8 165.8 157.1 150.9 147.2 143.1 130.9 112.5 109.8 110.3 111.6 112.2 117.1 127.9 137 150.6 164.3 180.8
452 443.4 429.6 420.1 413.9 405.3 397.5 387.5 380.6 372 362.8 352.1 337 324.1 316.1 306.9 300.1 292.2 288.3 282.3 281.4 271.5 264.1 260.5 257.5 255.2 251.2 246.9 241.3 234.5 226.5 217.7 206 193.8 182.1 168.8 158.9 150.5 142.4 135.4 129.7 124.2 122 118.3 113.5 112.5 112.5 112.5 112.5 112.5 116.5 118.5 118.9 120.1 121.2 120.8 121.6 121.6 123.2 123.3 125.1 125.5 126 125.5 124.7 124.1 123.2 122.2 121.5 120.1 119.6 120 121 121.4 121.5 122.2 123.7 124 124.6 124.5 125.9 126.3 127.1 127.3 128 128.6 129.2 130.1 130.6 131.2 131.7 132.3 133.1 133.8 134.7 135.1 136 136.4 137.3 137.6 137.9 139.2 140 140.5 140.7 141.8 141.9 142.6 143.4 145.6 145.9 146.5 147 151.2 161 169.1 175.4 183.8 187 189.2 196.1 204.5 210.8 221.8 232.4 243.3 253.8 265.7 277 287.7 299.9 315.9 333.7 345 360.9 372.4 382.1 391.2 398.9 405.4 414.3 425.4 434 444.6 453.7 467.3 480 492.2 505.9 527 548.2 567.3 586.6 604.3 624.2 639.2 648.7 650.1 662.7 685.3 699.6 705.3 703.1 690.7 654.4 619.1 584.9 550.5 513.9 483.2 453.4 433.8 418.8 395.8 363.9 336.3 321 289.7 266.3 252.6 235.7 210.9 193.2 180.3 170 162.3 158.7 149 135.7 119.6 112.1 111.7 112.4 113.7 115.8 123.4 129.7 137.5 150.5 165.1
440.2 434.9 423.6 416.9 410.1 401 394.1 390.5 383.5 375 367.3 361.3 350.2 337.3 325.7 315.9 308.3 302.1 296.8 290.9 288.3 290.3 282.8 279.3 275.6 272.6 271.2 265.4 260.4 254.4 248.1 239.3 231.7 220.2 206.9 192.9 180.9 172 158.6 151.1 147.8 141.1 133.8 128.1 124.5 121.3 115 112.5 112.5 114.9 114.4 116.4 118.3 120.3 120.6 122.4 123.4 124.3 125.5 125.8 127.1 127 127.2 127.2 126.1 125.7 124.8 123.7 122.8 120.9 120.2 119.8 120.7 121.7 122.2 121.9 123.3 123 124.1 124.5 126 126.7 126.8 127.9 128.4 128.6 128.8 129.6 130.7 130.1 131 131.5 133.1 133.6 134.5 134.4 137.1 137.6 135.8 137 137.6 139.6 140.1 140.2 141.6 142.2 144.1 144 144.3 145.3 145.9 146.6 147.7 147.8 156.1 160 164.2 170.7 172.7 170.4 175.5 188.1 196.7 202.8 211.9 222.6 232.3 241.8 251.2 261.6 273 285.1 300.6 314.8 328.7 342.3 352.6 361.2 370.5 379.5 386.8 398.3 407.2 414 420.2 436.9 448.3 461.5 477.1 498.7 516 535.7 550.3 569.2 583.4 598.8 608.8 613.7 628.8 646.8 662.8 671.7 672.1 669.5 650.2 615.6 582 548.8 514.7 481.3 457.1 435.1 419 393.2 365.2 338.8 318.8 297.2 270.6 250.4 230.1 214 204.8 189.3 181.7 179.7 171.2 155.7 142.8 127.7 119 114.7 114.2 114.4 116.1 121.3 124.8 128.1 136.5 151.4
432 426.3 419.7 413.7 408.5 402.9 396.3 390.9 383.5 375.8 375.9 372.4 361.4 348.2 335.1 325.9 320.2 313.7 309.5 305.6 307.4 308.7 299.6 294.6 292.3 291.3 287.5 283.2 277 273.6 269.8 262.3 252 243.4 233.9 221.5 208.5 197.9 184.1 172.4 169.5 162 152.4 145.2 139 134.6 126.8 120.5 117.1 114.1 113.7 114.5 115.8 118.4 120.9 123.4 125.3 126.2 128.3 128.9 129.7 129.8 130 129.7 128 128.3 125.4 123.6 123 121.8 120.8 121.5 122 121.5 121.8 122.1 122.8 123.2 123.4 124.5 125.3 126 126.5 127 127.6 127.9 129.1 130.2 130.3 130.7 132.2 132.1 132.4 132.8 132.6 133.8 135.1 134.9 135.8 138.5 142.9 143.4 143.6 143.6 143.3 143.3 145.2 145 145.9 146.8 147.2 147.7 148.7 149.1 149.2 152.9 153.6 157.8 159.5 160.9 165.3 174 180 185.7 193.8 203.2 213.9 226.4 238 248.1 256.7 261.4 274.1 283.9 295.2 309.3 322.9 332.7 340.2 347.3 356.9 366.5 376.2 383.9 390.4 402.6 419.6 432.7 446.5 465.1 478.1 496.2 514.7 536 548.7 562.2 572.3 579.1 592.2 614.7 634.5 646.9 652.8 641.7 625.7 601.4 572.5 541.6 513.1 481.7 449.4 426.4 407.1 386.4 363.2 334.4 313.4 290.6 274.5 261.3 248.7 234.2 218.9 209.7 199.8 195.4 188 170 155.2 144.3 133.7 131.8 124 118 118.5 119.5 121.7 125.9 132.2 142
426.4 421.9 417.7 412.2 406.4 402.5 397.9 392.9 390.1 389.5 385 379 367.8 357.4 345.1 333.9 326.9 320.1 317.5 318.1 316.9 320.7 319.6 310.2 308.7 306.8 304.7 300.9 294.4 289.3 286.4 278.3 271.8 263.3 255.5 245.1 234.3 223.3 212.6 200.2 188.9 182.5 174.6 167.3 158 151.3 145.2 138.3 130.4 124.2 120.3 118.8 118 119 121.6 124.1 126.8 128.7 130.2 131.1 132.5 132.6 132.9 131.5 129.7 129.2 127.8 127.1 127.7 126.3 126.3 125.9 124.7 124.3 123.3 122.4 123.1 123 124.4 124.8 125.2 125.3 126.2 126.4 127.7 128.6 129.6 132.6 131.7 133 134.9 134.4 134.8 134.4 132.9 134.3 135.2 135.7 139.1 143.5 145.3 146.6 148 148.3 148.8 148.4 148.1 148.1 149.6 150 150.4 150 150.7 150.5 150.9 149.7 150.4 152.9 154.4 159.6 159.6 161.5 164.8 168.1 179.6 190.7 201.2 213.6 224.9 233.9 241.3 245.1 252.6 261.5 271.1 280.7 290.8 302.1 311.9 319.3 329.3 335 341.4 349.1 357.5 373.4 390.1 402.4 412.3 429.6 445 463 479.8 495.4 513.3 525.7 535.8 545.9 571.5 593.7 610.3 622.7 630.1 621.5 602.8 580.2 560.8 535.8 502.9 474 450.2 426.4 407.6 385 366.6 347.5 326.1 310.9 291.9 280.9 264.4 247.3 234.2 224.6 220.2 210.1 198.9 184.8 170 159.3 151.9 144.4 134.5 124.5 120.8 122.8 124.9 124.9 128.5 136.3
419.6 415.7 414.8 411.4 407.5 403.5 400.3 398.4 397.8 396.3 392.5 388.5 379.4 367.5 354.6 341.8 332.9 327.9 323.6 325.3 329.3 330.7 327 322.5 322.6 323.3 317.9 314.2 310.2 303.4 302.1 296.7 290.8 282.7 274.6 267.5 257.7 249.1 237.8 229.5 217.2 205.6 196.6 190.4 180.7 174.3 167.8 160.8 151 143.8 139.2 133.5 128.5 126.5 124.7 125 127 129.5 132.6 133.7 134.3 135.9 135 132.6 136.2 136.7 136.7 136.2 137 137.9 137 136.7 138.4 135.7 135.9 134.8 132.9 130.1 126.2 126.7 129.3 125.1 126.7 128.4 129.4 129.6 132.8 133.3 135.1 135.3 135 135.7 135.7 135.7 136.4 140.2 143.7 142.4 144.2 147.1 149 150.7 151.5 152.8 154.1 155 156.1 156.4 156.7 156.1 156.6 156.5 156.4 155.6 156.1 154.8 152.5 152.2 153.3 155 155.2 156.9 158.8 160.8 168.3 178.4 188.5 200.8 210.9 217.3 223.2 227.2 232.5 242.8 254.9 262.4 265 272.9 280.9 291.1 299.9 308.1 313.8 319.6 330.6 345 360.1 372.1 384.2 398.3 411.9 429.5 443 461.3 477.2 491.1 500.9 525.6 554.6 573.3 589.3 602.2 609 601 582.2 564.5 553.1 533.5 508.7 478.6 470.1 437.3 409.6 388.4 372.8 358.6 349.2 332.7 318.4 301 278.5 265.7 255 248.2 241.1 227.2 216.2 200.5 186.5 175.9 169.9 161.1 146.3 138.2 130.1 126 127.5 131.7 133.9 135
412.2 412.1 412.7 410.6 408.8 408.3 408.8 407.7 406.7 404 400.3 400.7 395.8 384.3 371.6 356 344.5 335 333.9 334.1 339 350.2 352.3 341.2 335.3 331.2 330 323.8 320.7 317.9 312.5 310.5 305.5 300.1 291.8 288.3 282.8 275.6 265.5 256.7 246.5 232.9 221.4 214.9 206.4 197.6 191.7 183.8 176.7 167.8 160.2 154.1 149.8 141.6 137.2 133.5 133.4 132.7 133.1 135.2 137.2 138.5 137 143.5 146.2 148.1 148.6 150.5 151.2 151.3 151.4 151.6 152 152.1 150.7 151.9 150.7 146.9 143.7 142.8 142 141.3 139.3 137.5 137.5 137.9 137.6 139.1 140.1 141.6 140.9 137.5 136.4 137.6 142.3 147.6 149.4 149.9 151.1 153.5 155.1 157.5 159.5 160.3 162.4 163.1 163.8 164.9 166 166.2 166.3 167.5 166.2 163.2 161 162.4 159 156.8 155.3 156.1 156.9 157.9 157.6 158.8 162 164.4 182.4 187.3 192 198.9 205.4 209.3 215.1 224.4 233.3 238.6 243.5 251 257.9 266.5 274.5 282.7 289.1 295.2 306.3 319.7 329.6 338.7 353.7 368.2 382.6 396 413.3 431.1 451.1 461 480.2 509.7 532.5 546.7 568 589.5 591.5 589.8 569.4 554.5 541.6 535.1 518.8 487 465.9 443 417.5 396.2 382.5 372.6 366.7 355.7 338.3 320.6 301.6 287.1 279 294.7 280.9 258.5 243.2 224.8 207.7 200 192.2 178.7 164.8 151.8 141.7 134.4 131.9 136.5 139.1 142.2
408.3 409.4 410.6 410.8 413 413.4 413.5 414.6 413.1 415.9 417.2 418.8 417.6 411.9 396.8 380 366.1 352.9 349.9 349.4 348.1 351.5 360.2 351 344.2 340.7 335.6 337.3 331.8 328.1 327 322.9 320.4 315.3 308 305.8 299.4 294.5 287.3 281.2 271.2 260.7 250.2 237.7 229.9 223.1 213.6 210 208.2 202.1 193.5 184.1 175.1 167 159.9 153.7 148.3 146.4 142.5 139.8 140.4 140.9 137.9 148 153.5 161 163.9 165.9 168.1 167.9 167.9 168 168.1 169.8 169 168.9 168 164.8 160.7 159.9 158.1 156.4 154 153.1 151.4 152.3 153.7 151 151.7 153.2 151 145.2 144.5 146.4 147.4 155.5 156.1 157.3 159.2 161.7 166.8 169.9 170.7 171.4 172 172.5 174.4 175.4 176.4 176.9 177.9 178.7 177.3 175 170.6 169.4 166.5 165.6 162.5 160.2 158.1 158.4 159.7 159 160.8 162.1 165.2 170.6 173.5 178.5 190.1 194.3 200.1 206.2 213.8 217.4 223.6 230.7 239.8 250.7 252.8 261.9 267.2 273.6 283.5 295.5 303 310.4 324.5 337.1 350.5 366.4 386.4 403.4 417.3 437.7 465.8 488.5 505.6 522.8 545.8 570.7 570.6 569 558 547.8 534.4 531.2 534.3 508.9 485.2 463.9 437.2 412.4 399.9 387.6 398.3 378.2 358.5 344.3 337.6 311.2 310.2 311.3 317.3 297 272.8 255.8 238.4 228.7 212.4 196.1 182.2 169.8 160 151.5 148.9 150.4 150.4 149.5
410.7 412.3 412.7 416.9 418.3 420.2 421.3 424.6 424.9 430.3 434.5 435 436.5 438.1 424.1 406.4 388.4 373.8 367.5 364 359.1 358.1 358.2 357.1 353.5 351.4 347.7 345.1 342.9 339.4 338.6 337.2 333.5 327 321.1 317.2 313.1 308.1 303.4 296.7 292.5 285.2 273.9 262 256.3 251.3 239.1 234.5 236.9 239.8 233 219.6 206.4 198.5 189.6 180.1 168.9 162.7 157.6 151.5 146.1 143.1 141.7 151.9 160.4 169.9 176.6 181.6 184.7 185.1 186.3 186.3 186.4 187.3 187.6 189.4 186.7 183.8 181.1 180.2 177.6 175.5 172.6 171.7 170 172 170.8 169.4 168.3 166.6 162.7 158 157.4 157.9 160.4 165.2 166.4 170.2 174.2 178.3 180.3 181.1 181.9 182.7 183 183.1 184.7 185.9 186.9 187.7 188.3 188.1 187.7 186.2 180.7 180.8 178.6 178.3 173.9 174.5 171 167 167.2 167.7 165.2 164.2 165.1 164.5 167.4 175 177.9 183.1 185.9 187.7 194.4 201.2 209 217.9 226.2 234 233.4 241.4 246.6 257.3 264.6 274.4 279.4 287.2 298.2 309.7 325.3 339.7 357.8 374.8 391.7 419 445 461 477.4 506.8 529.9 540.4 546.5 547 549.5 539 532.5 529.2 535.7 533.9 509.6 484.7 456.2 434.8 414.8 407.7 408 417.9 391.7 378.9 354.1 345.8 340.5 340.9 345.3 330 310.1 288.2 276.9 255.1 238.1 226.3 207.2 194.8 183.6 178.5 173.8 165.6 161.3 163.6
413.1 417.5 418.6 421.7 425.2 428.2 431.9 436.3 440.9 444.1 450.7 453.3 460.6 461.2 461.7 445.5 422.6 400.1 389.8 386.6 378 373.2 370.6 368.6 360.9 356.3 355.2 355.2 351.9 349.9 348.1 346 344.3 339.1 333.5 329.2 324.7 321.7 316.9 313.1 306.2 302.5 294.3 283.6 279.2 275.5 266.6 259.4 259 264 264.7 254.8 237.8 229.5 220.6 208 198.6 185 176.9 169.6 160.5 152.4 145 156.7 167.6 177.8 186.3 196.4 203.3 204.2 204.5 206.4 207 208.4 211.1 211.9 210.4 208.2 205.2 203.6 206.1 203.6 197.7 195.8 193.3 193.2 189.3 187.5 185.7 182.6 180 176.2 174.6 181.6 180.8 183.9 187.4 190.4 194.2 197.1 196.1 193.7 193.3 194.1 194.6 193.9 194.7 197.3 198.1 198.8 199 199.4 200.4 200.1 194.1 194 192.4 191.9 191.6 190.8 191.9 187 179.1 178.1 175.3 173.4 174.4 175.4 172.3 167.7 172.8 174.9 177.7 180 183.2 188.4 198.8 206.1 207 213 219.9 226.3 234.3 243.3 248.1 253.6 256.2 266.7 278.7 289 302.8 317.9 334.4 345.4 370.1 392.1 412.5 427.5 450.7 475.2 498.3 508.6 518.1 524.5 528.3 529.1 528 528.1 543.1 552.9 547.7 526.3 482.9 465.5 441.5 426.5 422.6 437.3 413.1 401.8 379.5 378.6 391.3 373.8 372.2 374 344.9 323.7 306.8 291 272.7 253.4 236.1 222.7 211.1 212.8 199.9 183.6 178.5 180.3
421.1 425 428.2 430.4 433 435.9 440.8 447 453.9 462.1 466.2 473.1 476.1 480.8 482.2 485.3 471.8 434.5 417 403.1 395 389.2 385.6 387.2 378.4 371 367.8 364.4 363.7 359.1 356.7 352.8 351.8 348 342 338.1 337.2 331.9 327.3 323.2 319.1 317.9 313.3 306.7 297.4 294.5 291.8 286.7 283.4 281.8 283.1 276.7 264.7 254.8 248.2 238.6 225.2 209.3 196.3 189.1 178.3 165.5 147.9 158.7 170.5 182.2 199.5 211.4 221.6 233.5 230.4 230.2 234.1 236.4 241.1 240.1 239.4 236.8 234.3 232.3 237.3 240 231.5 223.6 221.3 215.3 212.6 211.2 209.4 206.9 203.1 201.2 197.2 204 204.1 209.8 214.4 210.7 214.9 216.8 215.1 211 209.3 207.5 206.6 205.2 206.8 209.5 210.6 212 214.2 213.1 214 214.9 207.7 204.4 209.8 207.6 206.1 206 206.3 204.3 195.1 191.6 189.2 186.5 185.7 184.9 181.7 176.5 174.7 173.3 174.3 176.5 177.4 181.2 186.7 190.2 191.6 202.7 208.2 217.5 224.2 227 229.3 231.4 236.5 248.3 258.1 269.3 285 299.4 310.2 326 342.2 362.8 381.1 398.4 422.2 442.3 463.9 481.8 491.3 494.1 506.3 511.9 516.4 521.8 536.2 550.5 557.9 548.4 512.2 514.2 466.7 447.3 438.5 442.1 434.6 428.5 411.1 428.2 426.5 415.7 409.9 406.6 382.1 355.7 342.8 324.8 303.1 286.3 266.7 252.3 241.9 238.4 230.5 202.3 195.7 200.2
418.6 427.4 429.7 432 438.3 443.7 449.9 457 464.3 469.5 477.1 482 491.4 496.6 499.9 500.6 498.2 485.1 453.8 429.8 416.9 408.3 401.5 401.4 397.2 389.9 379.8 377.9 373.7 370.6 365.7 361.6 358.5 355.1 350 345.5 344.2 341.2 336.7 334 331.1 327.7 326.8 324.8 315.2 312.3 311.7 306.2 304.8 301.2 303.2 298.3 291.4 279.7 268.1 258.3 246.5 233 218.1 205.6 190.9 176.3 158.1 156.7 170 184.5 208.6 223.7 238.8 254.5 259.3 261.6 266.6 268.1 271.7 279 281.7 279 273.8 271.1 267.3 264.5 259.6 256.2 257.7 256.8 240.8 238 236.6 232.3 230.2 228.7 224.8 223.7 226.1 228.1 229 231.7 235.2 236.8 234.1 229.6 226.3 224.6 221.7 221.3 220.7 222.9 225 227.1 232.8 230.6 228.3 228.8 222.6 214.1 217.1 217.8 219.9 221.5 220 216.4 212 206.9 208.4 203 200.4 196.4 192.3 189.9 186.6 183.7 181.1 179.3 181.3 183.4 181.3 179.4 185 189.7 197 205.6 206.6 206.5 206.4 214.4 223 229.9 239.4 249.2 264.1 278.3 295.2 302 313.9 331.7 350 369.9 391 411 429.8 450.5 461 466.7 477.6 490.2 497.4 503 515.9 534.1 553.6 553 547.4 537.2 497.2 477.6 463.3 443.3 439.7 442.3 439.1 458.7 463.6 468 486.8 443.4 427.8 422.3 402.9 374.4 363.1 324.4 299.2 288 271.6 256.3 243.2 225.2 212.5 222.2
428.1 428.8 437.5 441.6 448.4 452.4 459.5 464.5 468.7 472.9 484.2 491.1 497.5 506.3 510.8 514.4 517.6 510.1 503.1 492.6 452.2 434.9 426.6 420.2 414.8 407.9 400.8 393 387.1 382.8 378 373.5 367 362.6 358.3 355.1 352.7 351.2 346.2 342.3 338.5 339.4 340.3 338.8 332 327.9 327.8 324.4 325.3 323.7 320.2 319.5 314.2 306.5 298.2 282.1 267 246.7 231.1 221 202.9 183.7 166.2 158.6 171.4 191.8 213.8 231.3 254.7 271.6 284.4 293.4 303.2 303.7 305.8 313.6 316 317.8 314.9 314.7 310 306.6 300.2 292.9 291 288.1 278.7 271.8 267.3 265 260.8 261.3 261.8 254.6 256.4 258 261.9 262.8 256.2 256.8 253 248.5 244.1 241.8 239 237.8 236 237.9 239.5 241.1 247.8 248.3 245.5 243.2 239.6 228.3 232.7 235 237.4 237.9 235 231.7 227.3 223.1 222.1 217.2 215 211.2 208.5 205.5 202.3 198.5 194.1 189.8 190.8 191.7 190.1 186.9 186 184.3 185.3 188.3 192.7 199.4 201.8 206.3 209.4 214.4 222.1 234 245.7 260.5 272.2 278.5 290.8 305.7 322.1 340.2 358.9 376.8 399.1 419 434.2 440.8 448 462.2 470.9 481.6 496.8 519.3 537.2 546.5 550.4 539.9 518.9 508.7 476.8 452.7 443.1 450.1 461.6 482 495.4 517 530.8 491.3 451.8 463.3 475.2 444.4 400.7 371.1 340.4 323.7 300.2 286.3 266 249.5 232.5 241.8
441.8 440.7 436.4 444.8 449.7 457 465.2 470.2 479 484.7 490.5 498.4 508.7 512.7 517 524 527.6 527.1 527.1 520.1 500.6 470.2 457.5 446.9 439.5 431.4 424.2 411.8 404.7 394.8 389.4 382.2 376.9 371.1 367.7 363.5 360.4 355.4 352.9 349 347.9 350.2 350.4 348.8 345.3 341.7 340.2 342.5 345.7 347.1 341.1 335.6 328 317.1 315.2 303.3 285 263.1 241.6 232.6 208.2 189.4 169.8 164 173.1 195.8 217.8 238 261.5 287.1 304.9 321 335.4 343.1 343.2 346.4 347.6 351.7 355.2 357.7 353.1 349.6 342.6 335.2 328.9 320.2 311.9 309.4 302.7 296.9 294.3 293.6 289.3 287.7 290.8 289.8 288.8 286.1 282.9 275.3 270.3 266.3 261.8 258.6 255.5 254.1 251.6 253.4 254.4 255.9 258 259.4 259.5 259.7 255.4 246.8 250.8 252.9 254.9 254.3 250.7 248.4 244.5 238.4 236.7 233.2 228.4 225.5 222.4 219.6 216.7 213.3 208.1 206.4 205.5 206.1 205.1 200.1 197.4 195.1 193.1 190.7 190.2 189.9 191.7 194.4 200 207.9 214.9 223.8 233.3 240.8 248.6 255.6 265 282.9 292.7 309.6 327.4 344.6 364.5 382.8 401.7 413.6 420.1 428.8 437 449.4 472.5 494.2 514.4 526.2 546.8 546.2 537.2 511.6 475.5 449.1 446.1 452.6 472 502.9 516.5 543 561.7 525.2 489.6 497.2 546 493 459.4 422.8 380.1 353.4 334.8 314.2 295.8 273.3 257.4 252.8
448.4 451.1 452.1 457.2 459.7 465 473.5 479.7 483.9 489.5 494.6 502.6 512.2 518.6 521.9 530.3 534.8 533.3 532.6 535 533.3 515.2 497.8 495.6 473 465.1 450.1 431.5 422.9 413.4 403.7 395.1 388.9 380.7 375.1 372.8 368.7 363.2 361.2 359.1 361.2 361.3 361.2 358.8 357.6 354 355.3 355.8 360.8 362.6 357 351 342.6 332.7 324.6 315 299.8 275.6 251 239.1 211.5 193.3 170.7 170.9 171.2 192.6 216.9 244.7 269.6 290.8 315 336 354.4 368.3 374.7 376.6 381.7 377.4 383.3 387.8 379.5 382.5 379.3 373.8 365.2 361.6 356.7 347.8 339.7 330.4 326.7 322.1 319.4 317.1 316.8 317.8 310.8 306 300.3 292.1 284.3 280 275.5 270.5 268.1 267.1 265.8 267 268.1 269.9 271.8 273.7 274.9 274.3 266.2 263.1 267.9 269 270.1 269.8 267.7 265.6 261.3 258.3 256.5 250.1 245.9 243.5 239.5 237.6 234.7 230.3 226.7 223.7 221.7 220.7 220.5 215.5 210.6 209.2 202.6 198.7 197.3 195.8 196.7 199.5 199.2 200.9 204.7 213.8 221.1 223.7 227.1 238.3 249.1 259.9 271.9 284.2 297.9 312.3 332.1 350.6 368.9 383.1 391.8 397 407.8 427.9 452.1 472.4 490.1 506.7 524.3 527.3 526.8 516.2 478.2 443.5 439.3 444.9 474.5 499.1 530.5 551.2 569.8 544.5 572.3 552.9 567.9 553.3 495.4 460.2 424 405.3 368.6 346.5 321.7 296.4 278.7 269.2
461.4 464.8 468.3 470.5 473.3 474.8 479.3 483.6 488.6 494.7 500.2 505.4 514.5 520.4 525.2 530.4 533.7 537.1 541 539.9 540 537.7 532.5 522.7 510.3 496.2 479.2 457.8 441.7 434 423.3 410.8 399.8 394.3 386.4 385 380.4 375.5 370 369.8 372.1 372.9 371.9 372.8 372.5 366.9 366.3 368.1 374.2 376.6 373.3 365.1 357.1 343.9 330.7 323.3 310.3 286.6 258.3 236.1 214.8 197.6 179.5 177.8 175.7 189.1 215.6 241.5 266.4 294.3 318.7 344.4 363.5 374.8 384 391 397.2 400.7 404.2 410.7 405.6 406.2 404.4 396.4 392.2 389.1 382.1 372.3 363.5 358.9 351.1 348.3 342.2 338.1 336 334.9 328.3 321.1 316.5 308.8 300.9 293.8 289.2 284 281.8 280.8 278.9 279.1 281.3 283.8 286 288.1 289.6 289.3 285.4 283.6 287.2 285.3 286.5 285.9 283.8 282.7 279.8 278.5 273.2 266 263.4 261.8 258.4 256 253.2 249 245.5 242.4 240.1 237.5 235.7 232 225.8 224.4 217.3 211.5 205.8 204.1 205.5 209.1 212.1 211.3 208.8 206.5 211.9 215.1 220.7 228.4 234.1 244.3 252.9 263.3 272.5 285 300.7 318.6 337.3 355.3 362.2 375.8 389.2 412.9 437.6 450.2 462.6 475 487.7 495.5 501.2 502.5 473.2 434.6 431.2 434.3 458.4 483.5 517.3 548.6 565.5 575.1 589.9 586.8 575.5 560.3 552.2 527.9 479.8 432.9 404.6 374.9 347 324.8 307.3 303.4
475.5 476.8 478.6 479.8 481.1 483 486 489 492.7 497.5 502.3 507 513.4 520.2 524.9 530.5 535.1 540.1 541.6 544.9 544.3 542 538.6 531.9 522.1 512.3 495.7 478.2 462.5 451 440.4 431 419.9 412.6 400.6 395.6 391.2 384.4 381.5 379.8 379.1 381.2 381.7 381.4 382.6 381.1 378.1 380.1 385.1 389.3 389.1 378.4 374 360.8 347.7 330.9 313.7 289.7 263.9 235.9 216.4 196 189 197.9 183.1 187.7 210.5 235.1 263.6 291.4 319.8 346.6 367.3 374.3 383.2 393.3 403.1 407.6 413.4 418.9 422.5 421.7 421.4 415.8 411 409.7 401.3 392.7 385.4 376.6 370.1 364.4 362 357.6 355 348.5 340.2 333.2 328.3 322.2 314.8 305.9 301.1 297.2 294.1 292.1 291.3 291.1 293.3 295 300.2 305.1 306.2 306.4 304.7 304.5 303 301.7 304.4 304.6 303.5 302.6 300.2 297.1 291.6 282.6 280 280 276.8 273.8 271.3 268.3 263.5 261.6 259.4 257.3 255.1 250.3 246 244.9 241.6 232.5 221.3 219.3 218.2 223.6 226.2 225.8 219.3 211.2 210.1 209.2 209.3 212.1 220.6 227.4 237.9 244.3 250.5 264.4 278.3 292.7 308 325.2 341.2 357.8 371.1 391.9 409.2 419.1 432.3 445.2 461.8 469.3 476.5 478.9 461.9 427.5 427.4 434.2 452.1 476.9 506.2 535.4 551.9 581 592.1 594.2 577.8 568.5 580.3 568.8 529 512.5 457 408.3 377.4 363.9 370.6 343
485.2 485.9 486.5 487.2 488 488.4 489 492.4 495.3 498.7 502.2 507.3 513.2 519 524.2 528.3 534 539.8 543.9 547.5 546.7 546.6 543.6 538.4 531.2 522.3 511 495.1 479.2 464.1 455.4 448.4 438.1 428.1 420 409.8 403.1 396.9 399.1 395.8 392.1 389.3 388.4 391.3 406.4 395.6 392.6 393.4 400.5 398.5 397.9 391.7 387.8 378.4 364.7 341.3 315.6 292.3 262.8 234.8 215.6 193.3 208.9 216.6 201.6 184.2 200.4 226.7 254.8 285.1 314.8 341.5 363.1 372 382.8 395.2 400.3 405.5 413.9 418.8 423.2 426.2 429.4 424.1 422.9 421.1 413.1 407.1 399.6 390.8 384.5 378.2 374.3 372.5 368.4 358.3 350.2 341.7 332.2 331.3 325 318.2 312.7 308.2 303.6 302.9 301.9 301.4 303.7 306.3 310.7 315 317.4 320 322.1 322.6 317.6 319.3 322.5 323.1 324.8 322.5 315.4 315.9 309.8 301.9 298.9 296.3 293.4 291.6 290.1 287.5 281.2 280 279.3 277.1 273.2 270 266.8 263.5 257.2 252.3 244.6 240 234.9 242 243.4 242 234.9 229.4 224 220.8 214.2 211.2 212.3 214.8 221.4 231.5 237.6 248.8 258.5 275 286.8 299.6 315.7 332.3 348.4 364.5 379.2 391.8 405.4 417.5 431.3 445 448.5 453.1 442.9 422.6 426.5 434.5 443.9 460.5 484.1 512.4 535.9 564.5 585.6 583.6 573.2 562.3 566.5 563.3 558.4 547.4 520.2 495.1 464.3 417 419.5 378.3
492.1 492.1 491.4 491.3 491.1 490.9 490.4 492 494.3 498.2 501.6 506.3 511.9 518.1 523.5 527.7 532.4 539.4 544.1 547.6 549.4 548.7 548.3 543.9 537.6 530.5 522.2 510.7 497.2 483.4 467.9 461.7 458 448.2 438.9 429.1 419.5 414.9 413.4 411.3 407.4 404.6 400.5 403 416.2 413.9 406.7 411.9 421.5 414.5 405.9 398.6 388.3 382 369.8 341.5 313.7 289 261.4 234.9 211.6 204.6 225.7 231.5 219.7 200.2 193.7 217.1 244.2 269.4 295.9 326.8 351.4 362.8 378.1 389.7 397.6 402.6 411 419.2 422.2 425.9 431 430.3 428.5 424.8 420.4 417.8 408.4 401 396.2 391.2 385.6 381.6 375.4 367.7 359 347 346.7 340.4 337.2 331.1 327.4 319.3 314 310.4 310.1 311.2 313.1 316.6 319.2 323.4 329.3 335 334.9 335.9 334.7 337.7 340.8 342.3 345.7 342.3 339.7 336.8 327 321.7 318.5 316.7 315.2 312.4 310.6 310.4 310.3 306.1 300 298.8 300.3 293.5 290.3 287.6 281.3 272.1 265.9 260.7 259.6 260.6 263 258.2 255.1 253.6 245 235.8 226.1 219 215.9 214.3 213 222.1 226.4 231.7 243.5 257.4 270.8 281.2 293.4 308.3 323.5 336.8 352.7 366.5 379.1 389.5 401.6 411.7 422.3 428.1 424.5 415.1 420 430 447.7 457.6 474.4 495.8 519.8 553.9 578.4 569.2 565.5 561 555.1 549.2 546.2 547.8 540.2 534.9 525.4 478.6 435.8 412.3
498.1 497.4 495.9 494.1 492.3 490.3 488.1 489.5 493 496.3 500.5 504.9 511 517 522.4 527.3 531.6 538.4 543.7 548.3 550.9 552 550.2 547.9 544.4 539.3 532.4 523.9 512.6 499.7 488.1 477 469.3 464.4 455.9 448.2 440 433.6 429.6 430.1 422.6 419.3 415.3 415.2 418.6 426 421.4 422.4 435.3 431.5 418.7 408 395.2 379.8 362.8 338.1 310.8 287.3 261.5 236.5 211.4 223.3 241.6 245.2 234.3 215.7 195.7 207.7 236.7 260 284.8 311.6 335.7 354.2 369.1 384.5 394.8 402.5 408.6 414.8 420.9 428.6 431.5 434.2 432.5 427.8 426.4 423.4 418.6 410 404.1 399.1 391.8 386.7 380.5 371.6 361.5 361.2 357 351 347.1 342.6 336.4 329.2 323.1 320.1 317.3 318.7 322.6 326 328.9 334.7 339.5 343.3 346.9 348.4 340.6 354.4 356.4 360 362.5 362.1 360 356.6 348 342.7 341.3 338.8 338.9 335.9 336.6 334.8 339.2 338.1 327.9 325.5 327.5 322.8 318.7 315.2 307.7 297.9 289.4 280.8 281.2 282.8 283.1 276.5 272.5 272.3 263.4 254 243.3 236.1 226.3 218.9 219.4 218.9 217.7 220.5 224.7 243.1 256.5 265.1 273.8 283.9 300.4 315 330.4 343.4 354.6 364.5 375.9 385.4 395.6 405.5 405.4 398.8 409.2 417.8 432.9 441.7 463.8 480.7 505.6 533.7 547.7 553.4 559.5 551.7 542.3 543.7 538.2 534.1 533.5 534.6 538.5 524.4 483.6 451.7
503.9 501.4 498.9 495.7 491.9 487.4 483.2 485.3 489.2 493.7 498.8 503.2 506.8 512.9 519.4 525.2 531.9 537.3 543.6 549 552.3 553.7 554 552.1 547.6 545.5 540.7 535 525.4 516.7 505.5 497.2 487.1 473.8 468.4 463.3 457.7 447.7 442.5 442.9 436.4 431.1 431.4 432.3 435.2 435.3 433.8 435.2 448.1 442.5 431.8 420.6 404.2 384.9 364.8 336.9 308.1 282.7 255.3 237.6 216.6 227.1 250.8 257.7 252.8 234.1 217.9 203.3 228.5 251.1 273.3 299.9 323.4 341.8 360.7 378.7 388.2 398.8 404.4 411.2 421.1 426.6 428.1 435.2 432.4 430.2 431.8 428.2 423.6 416.3 411 406.1 398.4 391.5 385.4 376.4 369.1 371.2 366.8 362.9 358.6 353.2 345.6 337.3 332.1 328.4 327.1 327.6 330.7 334 338.4 342.5 349.2 352.3 356.3 359.5 355.9 361.4 370.9 376 380 380.7 382.2 379.5 371.7 370.6 369.2 366.7 365.9 366.5 367.8 364.7 366.4 364.6 358 353.6 359.4 358.4 354.8 349.4 339.4 327.4 323.4 311.6 314 312.6 303 301.2 298.2 295.6 282.4 273.1 261.6 252.6 240.8 224.8 222.1 221.6 221.6 221.9 222.8 229.6 244.1 251.7 259 267.8 278.9 293.6 308.6 321.7 334 342.3 352.1 364.6 374.3 389.2 393.5 386.1 393.8 406.4 420.5 431.4 446.2 464.5 484 504.3 523.9 543.8 547.2 545.9 531.7 533.7 530.1 526.9 526.6 525.3 527.7 524.2 509.2 491.9
508.5 504.3 499.6 494.3 488.2 482.4 477.7 480 485.7 490.8 495.3 499.9 504 509.2 515.6 522.6 530.6 539 544.2 548.4 552.5 555.2 556.5 555.9 554.2 550.3 546.6 542.9 537.3 529.6 519.3 512.6 506.2 494.4 482.2 476.3 470.1 461.4 455.4 450.7 446.1 444.3 448.3 452.3 455.9 449.5 446 444.1 449.6 448.6 440.2 425.7 407.7 393.1 369.6 342.6 315 290.3 266.8 244.6 221.5 227.6 250.6 268.4 270 256.7 238.3 212.6 219 241 265 290.2 313.2 334.1 349.6 367.7 382 390.8 396.9 409 419.8 427.3 429.1 431.7 431.9 432.4 433.2 430.2 426.1 422.2 415.1 411 403.3 396.1 389 375.7 378.4 377.8 376.5 372.6 368.7 363.9 356.9 348.8 343.3 338.8 337.5 339.2 341.8 345 348.9 354.7 361.1 364.6 368.5 369.5 370.8 366.4 382.1 389.9 397.5 401.9 405.8 405.2 400.2 400.1 399.5 398.8 405.8 400.8 399.3 399.9 399.3 395.3 392.2 396.5 390 388.9 389.5 383.2 374.2 366.4 362.2 349.7 351.7 339.1 327.8 330.5 322.5 316.6 302.9 291.8 280 268.9 253 236.6 232.1 226.9 223.9 223.4 223.1 228.7 235.7 240.2 244.8 254.3 261.5 272.8 287.6 298.7 313.9 320.2 330.7 344.5 351.9 364.2 366 368.1 376.5 390 403.1 415 431.3 446.6 462.3 480.2 497.2 515.8 532.1 543.2 535.4 522.6 525.6 529.7 526.1 527.1 528.5 522.3 510.7 517.6
510 505.5 497.9 490.1 483.2 475.5 469.4 473.1 480.6 486.5 491.1 496.5 500.4 505.8 512.2 520.8 529.8 538.9 545 548.9 552.2 555.5 558.5 559.7 558.6 555.6 552 548 545.5 539.7 532.4 525.8 517.9 511.5 501.6 494.6 487.6 476.6 470.7 462.9 460.5 459.2 461.3 466.8 468.9 467.2 460.2 455 451 448.2 444.8 430.5 413.8 398.8 377.7 352.8 323.5 297 271.8 250.3 227.9 230.6 250.1 271.9 284.6 277.5 259.9 240.5 227.8 231.5 255.8 278.8 301.3 319.8 336.8 350.3 371.2 384.1 397.4 406.8 415.8 423.6 430.7 433.5 433.9 433.7 435.1 433 431 427.1 421.5 417.4 408.5 399.8 390.8 379.5 384.9 386.7 387.2 384.6 380.9 375.9 369.5 361.1 355.6 352 351 351.1 353.5 357.6 363.4 368.5 375 378.6 381.3 381.9 383.1 371.4 388.6 401 411.5 421.1 426.6 430.1 430.6 430.5 436 434 440.8 440.4 438.2 437.3 440.6 430.8 425.4 439.4 427.2 429.4 422.2 418.5 410.5 405.9 412.6 399.5 382.5 361.1 363.3 357.2 364.4 343.2 328.2 316 305.1 289.4 274.1 258.6 250.4 244.4 233.1 227.7 225 223.7 229.9 233.5 236.5 241 245.3 257.2 269.1 278.6 291.8 300.9 312.9 323.2 334.8 343.2 344.2 347.8 362.3 373.6 385 398.9 413.8 426.6 439.8 454.2 470.4 488.3 503.9 519.2 527.4 514 520.7 523.9 524.5 531.5 525.5 522.7 523.7 528.6
509.8 502.1 491.9 484.3 476.9 468 462.4 466.7 474.1 479.8 486.4 492.3 497 501.6 509.2 518.3 527.8 536.3 543.9 547.7 551.5 554.6 558.9 563.3 562.6 559.3 555.8 553.4 550.9 547.5 540.7 535.6 531 525.7 519.8 514.8 508.6 498.1 487.3 478.7 476.4 475.7 476.4 481.3 484.6 485.7 481.2 467.2 458.9 452.2 448.5 436.3 417.5 403.2 383.7 363.4 332 305.9 281.1 258.6 238.8 232.3 251.6 275.2 291.5 292.8 281.5 267.5 254 248.7 245.4 265.9 286.1 306.1 320.6 337.9 358.7 378.9 391 402.7 411.4 420.4 431.1 433.4 435.4 434.6 435.7 436.2 435.6 430.8 427.5 422.5 413.8 403.8 393.9 383.6 391.9 392.2 397.3 398.9 396.6 392.1 383.3 376.7 372.9 369.6 368 368.3 368.7 372.3 378.4 384.2 390.7 393.7 396 397 395.3 381 393.6 407.1 419.7 432.5 443.9 452.1 457.8 465.8 466.9 474 483.9 490.6 485.4 479.7 487.1 472.2 467.1 469.3 467 479.6 480.3 464 444.3 459.9 452.1 445.4 409.1 401 412.9 419 396.7 380.1 370.9 348.5 333.5 320.9 301.4 285.7 269.5 259.4 245.4 238.6 230.2 224.9 226.6 229.9 230.4 236.4 241.7 249.3 257.7 268.9 281.4 290.6 297.3 306.2 313.9 324.7 327.8 331 345.1 353.3 367.1 381.4 395.1 404.4 416.6 428.8 444.2 459.6 474.4 491.6 505.5 513.3 512.7 523.9 541 537.2 521.4 519.1 525.2 522.2
505 497.9 486.5 477.5 470.7 461.7 455.4 458.8 464.9 473.1 480.8 486.9 492.5 497.5 503.8 510 521.2 529.9 537.8 542.7 547.7 554.6 556.7 560.9 562.2 561.2 559.3 557.6 556.9 555 551.5 546.7 542.8 540 538 533.8 532.7 526.3 516.9 506.8 498.4 497.1 495.4 498.4 501.9 499 496.7 485.3 474.6 461 449 437.5 420.7 406.9 389.8 368.4 344.5 318.3 292.5 268.7 250.9 236 256.9 277.3 297.2 301.6 297.9 286.6 273.7 263.3 252.5 251.9 273 292.7 307.9 327.5 346.4 367.8 385.1 399.5 408 419.8 428.1 434.4 435.5 436.5 438.2 440.2 441.5 437.4 434.6 429.3 420.7 411.2 400.4 390.4 395.8 402.2 406.4 411.6 415.7 411.3 402.9 395.9 393 390.9 390.1 389 388.2 390.8 394.5 399.8 403.4 405.8 410 410.3 408.6 398 401.6 413.2 422 435.5 453.2 467.6 480 498.4 508.8 514.5 530.1 523.4 524.2 521.3 516.5 505.1 503.9 502.3 503.5 514.8 524 508.5 488.2 480.6 478.9 460 436.7 441.8 449.1 457.2 424.9 411.2 417 392 368.3 345.5 328.7 310.6 292 277.9 263.4 253.7 241.6 232.6 229.4 231 231.6 231.6 237.5 244.2 249.8 261.1 270.7 278 289.8 296.1 297.3 306.3 307 318.7 326.2 334.9 351.2 363.9 374.5 383.8 392.3 403.9 416.6 430.2 446 459.6 477.3 492.2 499.6 515.2 533 527.9 519.5 520.4 519.6 522.3
498.5 490.4 478.8 471.3 462.5 453 447.6 450.5 456.6 466 473.4 478.6 486.1 491.6 497.4 502.7 509.2 517.5 527.5 533.7 540.8 550 553.6 555.3 559.5 559.9 560.1 560.6 561.8 561.7 560.8 559.4 556.3 553.7 552.4 553.6 554.7 555.7 554.4 546.5 536.9 532.1 526.8 523.3 521.6 514.6 508.4 500.4 486.9 469.4 455 439 420.1 407.9 392.8 374.2 353.2 329 306.6 281.2 262.8 244.4 258.7 284.2 302.4 312 310.6 302 292.2 281.1 270.1 254.9 259.6 279.5 299.1 316 334.5 354.7 377 393.1 404.9 418.3 425.4 433.6 436.3 438.7 442.2 445 447 445.7 443.9 436.6 429.4 418.5 406.2 397.8 394.1 407 415.2 420.3 427.4 432.5 428.5 421.5 417.1 416 414.5 412.7 412.8 411.3 414.5 416.4 420.6 423.6 425.4 424.1 420.9 415.1 410.5 420.9 429.7 439.7 453.5 474.7 493.5 514.3 536 544.6 552.1 561.9 570.9 553.7 550.1 543.4 541.8 540.1 537 550.2 571.8 544.7 530.6 513.1 498.9 474.8 457.7 457.5 485.4 488.2 461.5 463.3 442 426.3 398.7 377.1 353.8 335.5 317.2 300.3 283.7 270.2 258.7 248 240.2 237.1 235.2 235.3 233.7 237.5 243.7 253.1 260.6 271.9 277.1 282.2 287 289.7 293 306.9 312.9 323.9 333.5 342 352 362.4 369.4 377.6 390.9 403.1 416.3 429.1 444.7 458.5 473 492.2 520.7 521.4 518.2 522.3 537.1 533
489.9 482.4 472.5 463.8 454.6 445.4 436.5 441 448.3 455.7 461.4 469.7 476.7 483 488.9 494.8 501.2 508 515.2 521.2 528.4 539 545.1 549.2 551.1 553 558 562.8 565.7 567.9 569.1 569.1 568.2 567.7 566.9 567.2 571.1 574.2 575.7 577.9 580.2 574.9 572.5 568 557.8 539.2 524.9 516.4 499.9 483.7 464.1 446.7 427.5 410.3 397.1 380.9 363.2 341.1 321.1 297.3 275.8 252.6 264.8 285.3 305.8 322.9 323.1 312.5 305.5 296.9 286.8 272.2 259.8 266.7 288.7 307.8 324 341 363.7 388.3 402.5 415.3 425.1 430.7 434.9 440.4 447.1 450.7 452.3 452.7 454.7 448.5 439 426.5 415.4 404.2 399.1 407.8 422.2 430.3 438.1 449.6 457 451.2 445.2 444.7 443.5 440.5 441.5 437.8 436.8 436.6 437.1 441.8 438.5 437.9 433.7 428.3 415.8 428.9 436.6 443.2 455.9 474.1 495.8 515.4 536.7 551.4 566.8 580.6 588.1 593.6 587.7 591.7 583.3 576.8 582.4 596.1 595.8 591.6 563 548 522.3 488.8 475.1 470.6 491.6 505.9 492.5 490.8 477.5 459 429.7 403.4 382.8 362 344.4 325.9 306.4 289.4 274.9 261.8 255.5 248.9 242.7 236.2 236.2 237.2 236.8 241.9 248.1 257.1 261.4 266.3 274.3 276.2 289.7 290.3 301.4 310.7 314.6 322.8 333.8 344.9 346.8 357.6 364.6 375.4 387 400.8 410.4 424.5 443.6 462.5 481.7 495.9 516.7 524.3 533.4 539.9
480.5 473.6 467 457.8 447.2 437.2 427.9 432.9 439.9 445.3 452.1 460.2 468.2 475.3 481.1 487.4 493.6 498.5 505.4 511.7 519 526.5 533.5 540.8 545.1 547.6 557.1 563.7 568.4 572.2 575 576.9 577.9 579.4 580.7 580 584.7 588.5 591.7 595.1 596.9 597.4 597.5 596 589 576.7 556.3 537.1 513.5 493.7 478.3 457 438.4 420.3 401.1 390.1 370.9 349 328.1 306.3 286.7 264.2 269.6 285.7 312.6 332.8 337.2 327.4 316.4 309.5 301.4 287.1 272.2 264.2 281.2 298.9 315.7 330.8 352.8 379.6 399.2 412.4 422.1 431.6 438.4 443.9 450.9 454.8 459.8 461.5 462.7 457 449.2 436.9 426.4 415.6 408.7 414.9 422.7 436.8 445.4 457.6 473.1 483.9 483.3 480.7 475.9 466.4 465 459 457 456.4 458.9 464.2 452.4 450.4 444.2 437.2 429 435 442 447.8 458.6 472.7 498.1 518.2 536.4 551.5 567.8 585.3 597.5 611 622.9 621.3 620.5 621.7 624.4 617.2 629.2 623.1 598.6 572.6 534.9 507.1 496.5 489.2 501.7 523.3 524.3 524.9 512.7 502.7 476.3 450.1 419.5 395 372.3 348.6 327.1 308.3 292.4 278.6 270.1 261.7 252.7 241.4 237.6 238.5 239.8 237.6 241.2 245.5 251.2 257.3 260.8 266.9 274.6 278.6 286.3 295.7 302.2 313 322.3 325.5 328.6 336.3 345.2 352.3 362.4 372.5 381.2 394.8 414.7 431.6 448.7 471.8 499.3 509 518.7 523.8
472.1 466.3 459.1 451.4 441.5 430.9 419.9 425.8 430.9 436 443.3 451.9 459.6 466.3 473.3 479.6 485.4 490.6 496.4 503 510.6 517.4 524 530.4 535.8 545.9 555 562.9 569.6 574.9 579.6 583.6 586.8 588.1 590.4 592.7 595.2 598.2 601.8 605.5 608.6 608.1 607.1 606.7 602.9 593.8 582.7 563.3 534.4 506.2 487.5 467.8 445.8 427.5 409.8 394.1 376.2 355.8 335.9 315.9 302.2 277.7 279.4 295.8 312.4 335.1 346.2 343.5 330.6 319 312 299 286 271.6 275.3 291.1 304.8 326.5 349.4 375.9 396.9 412.1 423.4 432.9 442.1 449.3 455.7 461.8 469.4 469.9 470.7 464.5 459 448.8 436.9 425.9 420.3 422.1 425.2 442.3 452.5 467.2 484.4 504 518 521 507.6 493 483.6 478.4 477.4 485.2 482.7 480 471.1 469.8 457.3 448.3 439.8 441.4 446.1 450.8 463.4 474.5 500.1 520.1 537.9 551.7 568.3 584.3 602.7 620 634.8 647.5 659 668.5 665.1 656.7 657.3 649.3 628.3 594.6 551.6 529.6 514.1 507.5 514.7 531.5 543.5 541.6 548.1 545 527.6 499.7 465.3 438.2 409 377.4 351.3 330.5 309.8 297.6 284.1 275.2 262.4 250.5 245 243.4 244.8 243 241.9 241.7 245.6 248.9 252.8 258.3 263.7 267.7 272.9 284.8 289.9 298.6 300.4 303.4 313.8 318.4 326.1 332.2 338 353 359.5 371.2 387.9 405.2 425.3 447.6 474.6 494.1 513.6 515.3
463.2 458.2 453.3 445.3 435.3 423.9 414.4 417.6 423.3 427.9 434.4 441.6 450.2 456.2 463.4 469.4 475.3 482 487.2 493.4 500.5 508.5 515.7 523.9 533.7 543.9 553.6 563.1 570.5 576.8 583.1 589.1 592.8 594.9 597.1 599.8 602.9 606.2 610.7 614.8 617.6 618.6 616.3 613.4 607.9 601.6 591.8 579.8 556.1 523.9 498 475.2 457.7 435.9 420 402.7 380.4 359.8 341.8 322.3 305.2 284.3 292.7 293.4 313.3 335.8 356.4 357.8 348.7 332.9 324.2 311.2 299.8 285.5 274.4 283.5 306.2 324.2 345.6 371.9 398.1 411.6 423.8 435.8 446.4 455.7 463.2 468.8 475.2 480.3 480.5 470.3 466.1 460.9 447.2 435.7 428.2 426.9 432.4 444.2 455.9 471.9 490.1 513.5 532.3 544.5 542.6 525.8 510.4 503 498.3 509.7 506 499.8 497.5 478.9 467.5 456 449.4 442.6 451.1 454.9 466 480.8 502.5 523.6 536.4 552.4 567 589 608.1 623.8 640.6 668.4 694.8 709.5 713 702.9 692.7 680.6 665.8 640.7 598 567.2 547 535.2 531.8 537.2 543.4 559.7 575.6 584 586.4 556.7 520.2 479 455.1 435.8 377.2 352.7 328.5 315.1 301.6 289.5 273.1 263.9 260.3 257.5 253.1 247.6 244.9 242.7 243.6 245.9 248.2 251 254.1 258.8 258 269.7 276.3 277.7 281.5 288.1 291.6 300.1 307.7 315.6 328.8 335.7 338.8 349.4 365.8 382.7 401.7 424.1 448.2 473.7 501.6 511.4
455.3 450.2 445.2 438.9 429.3 417.6 403.8 409.5 415.7 421.4 426.2 432.2 440.4 446.9 452.4 458.9 465.3 472.4 478.2 485.2 491.3 498.6 507.1 520.5 530.3 541.6 551.8 561.9 570.2 577.6 584.5 590.2 594.7 598.7 601.4 604.5 608.2 611.4 616.3 620.9 624.9 625.3 623.7 621.2 615.8 607.1 598.9 588.4 569.5 540.4 509.8 485.3 466.5 446.6 423.7 409 387.6 367.9 345.4 327.5 308.1 293 293.5 297.3 314.2 340 366.1 371.4 364.2 350.3 336.1 326.4 313 301.8 286.5 279.9 300.6 321.9 341.3 368.6 395.6 412.5 425 437.6 449.4 461.2 469.8 476.9 486.4 490.2 489.6 479.7 476.7 468 457.7 445.9 439.2 426.3 439 449.5 460 476.1 491.9 517.7 537.3 553.5 561.2 559.3 542.6 527.9 526.8 531.1 512.3 509.3 498 488.1 474.3 462 453.5 453.8 454.9 458.9 467.9 485.3 503.8 521.3 536.1 550.7 574.1 606.7 618 627 645.6 672.7 705.2 731.5 753.9 762.2 726.3 716.4 716 668.9 628.9 637.6 593.3 565.9 558.2 568 559.2 570.6 586.9 606.2 609.7 591.1 553.2 523.3 497.6 440.3 403.5 372.9 349.9 333.7 317.5 302.8 289.5 277.2 273.1 270.3 265.1 255.8 250.1 248.2 248.2 244.4 247.1 248.8 249 249.9 252.9 257.4 270.8 272.7 273.5 275.8 280.7 287.4 292.7 298.3 303.5 310.1 320.4 327.4 346.1 361.6 379.8 401 423.7 451.2 477.4 501.3
445.6 442 437 430.4 422.6 411.7 395.5 404 409.5 414.4 420.2 424.6 431.3 437.5 443.1 449.9 456.7 461.9 467.6 473.2 477.6 491.8 504.3 515.1 526.9 539.2 550.3 559.6 568.9 577.1 583.2 588.1 594.4 599.1 602.9 606.6 610.7 615.4 620.1 624.7 628.5 630.4 627.9 625.7 623.6 614.1 604.3 594.5 580.3 560.7 524.3 497.3 472.8 457.3 436.7 417 398.5 373.3 351.8 331.5 311.3 297.1 297.4 302.7 317.7 341.3 366.3 383.1 381.8 371.2 356 342.8 330 315.9 300.5 285.2 295.4 319.2 341.4 368.1 394.6 411.1 425.5 441.9 455.9 468.8 479.4 487.9 496.7 499.9 497.4 492.8 485.2 473.3 464.7 456.7 449.8 439.1 442.4 449.3 464.3 477.5 494.6 515.6 541.6 557.7 570.1 577.3 576.1 564.9 555.1 544.7 522.2 522.3 503.3 493.2 479.6 466 456.2 455.2 456 459.2 468.1 483.4 505.6 521 534.2 550.7 573.5 596.5 614.5 626.6 643 676.7 710.9 737.5 763.4 775.8 775.7 761.6 739.1 693.5 678 725.9 626.6 590.7 586.3 588.5 590.1 596.5 600.5 606.4 626.7 622.9 587.2 556 525.1 462.4 418.1 393 373.1 348 339.3 322.9 309.2 296.8 289.1 281.1 274.7 267.8 260.4 255.7 252.4 249.9 246.9 248 251.3 253.7 254.7 257.5 263 268 268.8 270.6 272.8 275.5 278 282.7 288 295 309.4 321.4 328.5 339.7 357.5 377.9 399.4 425.1 455.4 483
437.1 433.7 428.3 422.1 414.9 404.6 388.4 397.9 403.1 407 411.8 416.7 423.1 428.2 433.8 440.8 447.1 452.6 456 463.1 475.5 487.2 498.9 510.4 522.1 535.9 547.4 558 567.3 574.4 580.9 586.2 591.2 597.1 601.9 606.2 611.1 616.4 622.4 627.6 631.3 633.2 631.6 630.5 625.6 619.1 610.3 600 586.1 568.1 536.5 504.4 483.3 465.4 447.9 429.3 409.1 382.9 359.1 336.4 313.5 300.3 295.8 307.7 322.3 342.4 368.5 390.3 396.3 395.1 377.9 360.8 347.4 332.3 317.3 301.5 292 314 338.4 364.5 393 411.7 425.8 442.6 460.5 474.8 488.6 497.9 506 508.3 509.4 505 494.7 482 471.3 464 461.3 446.5 443.4 448.9 465 476.2 492.7 516.8 540.7 559.7 575.4 590.2 602.4 602.5 586.2 553 531.1 522.1 506.1 496.7 484.7 469.9 457.9 455.8 457.9 459.6 466.8 481.7 503 517.7 535.3 556.7 573.7 589.2 605.3 623.2 642.8 676.2 710.2 741.4 764.1 787.7 803.3 790.2 767.4 713.9 727.1 752.5 727.6 644.2 615.2 623.2 634.2 623.6 608.4 626.5 639.6 640.9 602.4 568.5 521.9 468.7 439.5 416.1 390.7 382 361.7 346.1 332 317.4 302.8 292.2 290.9 285.5 278.7 271.5 261.4 252 251.6 252 255.2 258.9 255.8 259.2 261.2 264.1 264.1 270.7 271.6 273.7 276.2 276.7 281.2 286.3 297 309.7 312.2 321 335.7 354.2 373.3 398.6 424.8 447.6
427.1 422.9 418.7 413 405.6 397.1 383.3 388 396.1 400.7 405.1 409.5 414.7 419.5 426.2 431.7 436.5 441.3 450.4 459.3 471.2 483 493.8 506 517.7 531.2 542.9 553.5 562.7 569.8 576.5 582 586.2 592 598.4 604 608.5 614.4 621.7 626.2 630.6 633.1 633.8 633.3 627.4 620.2 612.8 604.4 593.2 575.6 539.7 506.3 488.7 473.1 458.1 440.5 419.3 390.8 363.5 341.7 317.6 303.6 298.2 310.4 322.5 346 370.5 394.5 409.9 412.3 400.7 383.4 369.2 352.9 334.2 317.4 299 307.7 332.6 361 387.3 410.3 427.8 446.2 464 483 496.7 506.4 515.1 517.8 520.4 515.1 507.4 489.1 480.5 471.8 470 460 452.7 452.7 463.8 477 490.1 516.3 540.2 561.8 581 595.9 616.8 627.6 600.4 562.5 539.6 524.2 511.3 500.4 490.3 471.7 462.7 458 458 461 465.6 478.1 497 515.5 534.9 553.1 569.6 583.9 599.8 617.4 642.9 672.2 707.4 739.7 766.1 796.2 817.2 812.7 800.8 773.1 766.1 766 757.4 724 663.4 650 646.8 628.9 630.2 653.9 663.3 649.3 614.9 575.2 542 493.3 462 438.3 419.8 407.8 387.6 370.1 355.7 339.2 324.3 311.2 307.4 301.2 299.4 293.3 279.4 267.1 258.9 254.8 256.3 263.2 256.6 257.8 259.4 260.3 261.4 262.8 265.2 270.3 273.4 274.7 276.9 280.3 286 294.1 300.4 306.3 317.3 333.2 352.8 373 395.9 416.9
417.2 413.4 410.4 405 397.8 389.5 373.5 384 389.5 393.5 397.5 401.7 406.7 410.6 416.4 421.3 424.6 436.8 445.1 456.2 467.1 478.4 489.2 500.6 511.5 525.8 536.7 546.7 555.6 563.9 570.4 576.2 580.9 587.4 592.3 599 605.2 610.6 617.7 624.8 629.7 633.6 634.2 633.9 630.6 621.9 614.6 607.5 598.3 585.2 559.4 513.5 488.2 476.9 463 446.8 426.6 396.1 370.5 345.8 324.2 308.7 301.2 315.9 328.7 349.6 373.2 399.3 422.2 424.9 419.3 408.3 393.3 372.7 353.7 333.6 316.4 306.8 330.4 357.8 379.7 406.3 426.8 446 464.1 487.3 503.8 515.7 527.8 530.4 534.9 530.5 517.3 500.6 488.3 479.3 478.1 472 459.7 455.2 461 476 489.2 511.6 537.4 561.2 582.1 601.2 627.2 638.5 607.2 578.3 550.3 531.1 517.9 508 494.8 480.2 471.1 463.8 467.9 466.6 467.1 476.5 492.6 511.2 530.4 547.8 565 579 595.6 614.7 637 664.5 697.8 730.5 761.5 791 819.7 838.7 834.6 826.8 792.4 811.9 787.2 743.1 681.1 665.6 676 659.6 671.3 684.7 700.1 661.7 637.2 615.5 572.5 540.2 491.4 475.5 464.9 441.8 419.5 401.4 378.9 364.3 346.4 332.6 329.7 326.2 317.1 305.5 294.7 283.7 277.7 272.3 264.3 260.2 257.9 258.6 259.5 259.7 260.3 262.9 264.9 264.7 267.7 269.5 274.1 281.3 282.1 289.4 296.3 296.2 302.4 319.8 330.9 348.6 368.4 391.6
409.3 405.5 402.1 396.7 389.9 382.4 370.7 376.1 381.5 385.3 388.5 391.8 396.6 400.9 405.7 409.9 422 430.5 442.7 453.3 463.6 474.6 484.6 496.5 505.7 517.4 530.9 539.9 547.7 555.3 563.8 569.1 574 579.6 585.5 590.2 598.2 605.3 612.3 618.6 627.2 632.8 634.2 635.6 631.7 625.5 620 611.6 601.9 591.3 571.3 525.6 495.6 477.3 464.1 452.5 431.2 402.1 375.6 351.9 332 319.3 307.3 322.9 334.3 354.4 378 404.8 432.9 437.2 435.8 429.6 415.1 392.9 371.2 353.1 334.4 313.8 323.8 350.6 373.9 399.2 425.2 448.7 471.6 494.6 512.2 524.1 538.7 542.7 542.1 542.1 526.2 510.4 497 489.1 487.5 481.1 471.1 460.1 462.8 473.1 487.8 506.9 536.6 558.8 581.6 609.9 645.5 645.7 626.2 595.4 567.8 546.3 531.1 521.8 511.8 499.2 509.2 488.7 482.2 473.1 473.7 480.2 490.5 509.8 529.6 544.8 560.6 576.2 591.5 613.4 632.9 661.9 693.1 725.7 755.6 785.8 812.6 839.5 860.3 850.6 835.2 840.7 817.9 777.3 722.4 687.3 698.7 712.9 710.3 722.8 727.8 662.5 627.4 615 584.5 589.5 549.2 507.7 513.5 479.2 456.2 432.3 409 389.8 373.9 356.9 353.8 350.9 337.6 330.1 319.1 302.6 294.9 285.2 278.4 272.4 261.9 258.9 259.7 261.4 262.3 263.4 264.7 266.2 266.6 268.6 270.8 271.7 274.2 277.5 291.6 289.5 294.5 304.2 314.2 330.7 345.2 363.3
399.7 397 394.4 389 383.2 375.4 363.4 368.1 372.4 376.4 380.4 384.9 388.8 388.2 400.5 410.2 418.1 427.7 439.8 449.5 459.1 471 479.9 490.4 500.2 511 520.4 530.7 539.6 547 554.3 561.5 566.6 571.5 577.9 583.6 590.3 597.6 605.5 614.2 622 628.3 633.3 634.5 633.2 629.2 623.5 616.3 608.6 599 576.3 536.2 505.6 483.3 468.2 455.7 436.4 409.4 380.9 358.2 338.8 326.3 316.6 328.6 340.3 358.1 382 410.7 440.8 447.5 449.3 445 435.9 414.2 390.1 371.9 352.4 333.3 316.3 342.1 368.8 394.4 422.1 448.5 475.3 498.6 517.3 531.9 546.7 554.4 550.5 550.5 535.9 519.4 510.4 496.2 494.8 490.1 481.3 471.6 464.5 470.8 486.9 505.9 533.7 557.8 583.8 614.2 640.8 653.2 655.9 635.6 604.4 566.9 547.4 536 529 543 529.3 510.1 491.6 484.7 483 484.4 494 509.8 527.6 544.5 558.5 572 589.1 607.8 628.3 656 683.7 715.9 749.7 781.9 813.1 842.4 868 882.8 885.1 871.5 828.6 783.2 734.2 717.9 724 753.8 766.8 772.6 722 676.8 637.8 618.2 607.1 592.1 579.1 554.6 546.1 515.3 506.5 465.9 439.4 422.4 401 391.9 382.2 376.3 372.9 356.3 338.8 329 322 303.9 297.7 290.8 279.7 268.5 260.3 261.4 262.2 263.2 264.6 266.1 267.8 269.4 270.8 272.1 273.1 274.4 278.2 285.2 288.1 295.3 303.9 312.5 327 342.7
388.2 388 385.7 381.9 376.2 368 349.7 362.1 366.4 369.7 373.8 376.5 382.6 390.7 399 406.9 415.7 424.3 434.7 444.3 455.1 465.7 474.9 483.9 494.6 504.1 513.7 524.2 529.8 537.6 545.8 552.7 559 565 569.9 576.4 583.7 590.7 598.9 607.6 616.9 624.9 630 633.7 635.4 632.3 627.2 621.2 614.7 607 593.2 558.2 519.8 493.8 472.8 458.7 442.1 414.5 386.6 365.4 339.4 324.7 322.4 331.3 346.9 364 390.7 421.1 453.7 458.9 457.8 453.8 447.2 434 410.5 383.8 367.4 349.1 334 334.8 363.3 388.3 416.6 444.5 473.1 498.9 522.2 539.1 559.9 566.9 565.8 561.9 546.9 535.5 516.7 507.1 503.4 496.7 488.5 479.6 470.9 470.7 486.6 508.6 536.4 561.8 586.3 618.3 645.3 657.1 674.1 652.7 618.4 589.8 561.2 545.6 539.2 550.8 533.8 514.9 501.8 500 492.4 491.4 499.9 513.8 530.9 547 555 568.7 584.7 601.1 625.6 650.1 675.5 707.9 743 777.3 813.4 844.6 871.8 887.7 892.7 883.3 814.6 777.1 750.2 749.8 760.6 789.2 807.7 767.8 731 698.7 659.7 639.6 627.7 614.8 614.3 605.6 587.8 558.6 547.9 517.1 483.8 452.4 426.5 419.9 414.7 405.4 403.8 383.8 368.8 355.7 346.6 327.5 321.5 317.3 300.4 283.8 269 263.6 262.6 263.8 264.5 264.6 267 268.8 269.8 271.6 274.5 282.8 277.5 278.4 283.2 289.1 292.3 302.1 310.4 321.9
376.9 376.7 374.9 373.3 366.9 359.3 343.3 355.4 359.7 361.4 366.9 374.7 381.6 388.4 396.4 403.8 412.6 421.4 431.4 440.6 450.3 458.8 468.7 477.7 486.4 496.3 505.5 515.1 521.7 527.3 535.6 542.4 549.1 556.2 563 568.6 575.5 584.3 591.2 600.7 611.7 621.5 628.5 634.1 636.1 635.4 631.8 627.2 621.2 613.7 603.4 581.1 536.1 507 482.9 465.5 451.4 422.2 391.6 368.3 343.6 329.4 327.7 339.6 352.3 370.4 398.1 430.7 461.7 471.1 468.5 463.2 453.2 443.3 427.3 403.4 381.5 364 351 336.2 356.9 385.7 410.9 438.7 468.3 495.7 522.6 543.6 562.7 576.4 581 571.6 570.6 553.8 528.8 515.6 506 501.3 495.5 485.3 478.2 473.3 488.9 511.3 538.5 562.8 587.6 620.3 643.7 661.2 687 672.7 638.5 606.4 578.9 558.4 546.8 551.8 539.9 529.6 519.5 519.8 505.9 505.5 509.7 518.7 536 551.4 563.4 573.1 586.1 601.4 625.7 649.9 671.9 704.5 740.2 777.7 811.9 846.3 875.1 888.3 891.2 887.9 851.4 811.7 784.8 788.1 828.7 832.4 833.1 783.9 751.6 708.6 687.7 674.9 680.7 674.5 665.8 632.2 614 595 564.7 572.2 549.7 479.4 455.7 445.1 448.6 441.1 434.5 424.5 408.5 391 374 357 349 341.5 322.5 304.7 292.1 280.1 273.1 272.1 272.3 268.3 267.9 269.2 270 272.8 275.1 279.2 281.3 281.2 280.5 282.9 288 291.3 296.1 302.6
358.1 363.1 364.6 361.8 355.8 347.8 330.5 347.6 345.3 349.1 364.4 372.5 379.3 386.7 393.6 400.6 408.9 416.4 429.4 437.6 444.4 452.2 460.8 470 477 485.4 496.3 504.5 512.4 519.6 525.8 532.1 539.3 547.1 554.1 561.3 568.3 577.8 588.6 598.9 609.4 618.7 626.9 633.5 637.2 638.1 636.8 631.7 626 618.5 608.8 591.8 549.7 516.8 492.6 473.5 457 429.6 396.1 371.5 348.1 333.3 333.4 345.6 358.2 378 405.2 436.1 473.2 483.1 480.2 472.8 463.9 454.9 438.8 418.4 396.6 380.9 370.2 353.6 353.4 380.1 405.7 434.3 464.6 493 521.3 544.3 569.3 583.6 594.7 584.9 586.1 580.8 549.9 526.8 510.6 506 500 494.9 485.3 480.9 491.9 511.4 537.8 562.6 588.7 621.1 641.7 671.5 694.9 692.5 667.5 627.7 599.6 572.7 559.4 559.1 552.3 548.9 558.1 545.5 523.6 525 527.7 536 550.3 565.7 576.6 586.6 592.9 607.5 629.8 651.3 671.8 709.6 747.1 783.2 819.9 854.4 877.1 886 887.7 881.6 869.3 844.5 837.4 841.8 850.4 843.7 835.1 807.2 782.9 758.4 729.6 740.6 732.3 740 711.7 677 641.9 625.8 598.2 598.4 562.6 505.2 497.6 476.6 473.2 475.8 478.8 483.3 457 428.8 411.4 392.2 382.8 366.6 351.5 333.9 319.1 306.1 296.1 297.2 291.3 283.7 270.1 273.2 276.5 280.6 281 285.3 288 290 285.2 285 284.6 289 292.5 297.4
365 356.7 351.9 353.3 346.6 337.5 323.7 329.9 349.5 358.8 365.4 371.5 377.2 383.7 390.9 397.1 404.2 411.6 425.1 431.5 439.3 445.6 452.8 461.3 469.5 476 484.9 493.9 503.1 510.7 517.5 521.7 530.5 537.4 545.4 553.4 563.2 573.8 586.3 597.8 608.1 616.6 624.3 632.6 637.9 641.3 640.3 635.8 628.5 620.3 611.9 597.5 561.3 527.1 502 479.2 461.5 437.3 401.3 378 354.5 336.9 339.7 351.2 365.3 383.6 411.6 442 480.3 496.2 493.2 483.6 474.3 464.2 451.5 433.3 412.5 396.2 382 372.9 361.6 373.7 401.2 429.3 459.4 489.3 517.9 543.3 571.3 589.9 602.9 599.2 597.2 596 572 539.4 523.1 512 512.3 503.7 496.2 492.9 497 512.7 536.9 564.4 587.2 621.1 640.6 673.3 695.9 722.8 698.7 658.5 622.6 599 579.4 571.5 574.4 587.8 574.5 552.4 551.6 552.2 553.8 562.2 575.6 580.6 594.2 603.6 611.4 618.6 636.9 657.4 680.3 717.2 758.1 801.1 830.5 854.6 870.2 873.9 874.8 869.7 854.1 838.1 833 834.7 836.4 834.9 828.3 818.6 804.6 789.4 772.2 759.9 762.3 762.3 742.3 730.3 701.5 663.2 642.1 611 561.7 531.8 528.9 504.9 493 500.4 516.1 526.8 493.3 472.9 464.1 431.4 408.8 398.8 383.2 367 348.8 337.1 322.9 321.6 321.5 302.5 290.2 285.9 285.6 289.3 290.9 292.9 294.3 297.1 290.9 289.5 290.3 286.3 292.6 296.7
