ncols 200
nrows 83
xllcorner 310000
yllcorner 520550
cellsize 50
124.5 125.7 125.1 126.1 126.4 127 128 128.1 127 126.8 128.5 130.3 130.6 132.8 137.6 138.9 143.6 147.2 150.6 161.6 166.6 172 177 182.9 184.7 188.6 189.1 190.5 190.5 190.9 190.8 192.6 192.1 190.3 182.5 171.8 184 191.6 196.8 203.8 208.6 213.3 218.1 222.7 226.6 235.7 241.1 245.6 249.7 252.6 255 255 253 249.3 248.5 256 266.4 274.5 283.1 297.2 307.7 316.5 325.9 335.1 347.9 361.6 370.9 378.6 381.8 376.9 366.1 355.1 341.8 329.3 319.6 304.9 293.6 286.1 275 259.9 251.8 240.3 240.4 245.1 250 250.3 247.5 245.4 245.8 240.2 221.5 195.2 170.6 147.5 128.1 111.7 101.2 93.4 87 81.7 77 73.7 73 73.9 74.6 74.6 73.6 74.3 74.4 74.3 76.4 79.8 83.4 87.3 87.7 88.4 91.9 94.4 96.8 97 96.8 97.8 101.6 104.8 105.6 105.6 107.1 109.9 112.2 114.8 118.4 124.6 131.3 139.9 149.3 160.2 170.9 183 193.9 203.1 217.7 244.9 274 303.8 333.2 360.4 375.3 384.9 391 391.8 390.4 387.4 386.3 383.3 379.8 373.7 360 342.2 321.7 302.3 297 301.5 302.1 302.4 293.5 281.1 271.8 265.6 260.4 255.1 248.7 247 250.6 255.1 257.1 258.7 257.9 264.4 271.9 280.1 287.7 295.4 305.1 320.5 330.3 336.8 341.2 345.8 351.8 359.8 365.5 371.8 380 391.8 409.5 425.2 439.6 450.6 453.4 451.1
126.5 127.9 126.2 127 127.7 128.6 131 130.9 130.3 129.6 130.9 133.2 133.9 136.6 142.4 150.3 157.1 160.4 164 169.4 171.4 174.8 177.6 180.4 183.1 186.8 188.9 191.9 194.4 196.2 197.5 197.5 196.3 194.9 193.6 188.5 178.2 192.8 198.7 203.9 209.1 214 218.5 223.9 231.1 238.8 249 255.3 259.5 261.7 264.4 268.2 269.2 266.3 262.4 271.4 277.7 286 296.6 312.3 324.5 335.1 344.1 353.9 353.4 356.1 358.6 363.6 369.6 368 362.1 352.2 343 332.5 318.6 309 305.3 299.8 290.6 270.9 264 248.8 247.3 255.2 262.6 271.2 268.3 257.1 251.9 234.8 208.6 182.4 157 137.8 121.5 109.9 102.1 95.3 88.5 83.8 79.1 74.6 73.1 73.6 74.2 74.7 74.3 73.8 73.5 74.1 77.3 80.5 83.5 86.3 87.5 90.3 93.6 97.3 99.1 98.4 98.1 99.3 101.6 106.1 109 108.7 108.7 111.3 113.9 116.3 119.7 127.2 134 141.1 150.2 161.3 172.6 183.9 192.2 204.4 223.9 251.3 280 308.7 337.6 363.9 380 391.6 400.3 405.9 403.1 398.6 397 393.3 387.3 378.3 362.7 345 325.9 308.2 300.2 308.4 310.1 310.7 303.5 292.9 283.5 274.2 266.3 262.2 257.4 248.1 254.4 258.6 262 264.2 264.5 264.3 263 268 271.3 276.1 284 291.5 298.9 306.1 309.1 313 318.7 324.6 329.5 335 343 355.5 367.1 378 394.3 412 419.8 416
124 125 126.4 129.6 131.6 132.8 131.8 132.3 132.4 132.9 134.5 142 145.7 150.5 155.6 157.8 160.8 166.8 170.4 173.5 175.1 176.8 176.9 180.6 185.3 187.5 190.3 193.4 196.2 199.2 201.1 202.5 203.8 201.1 198 196.4 190.3 187.5 197.2 203.2 209.7 215.5 219.9 226.5 234.5 242.2 250.1 257 263 268 272.3 276.8 281.3 281.5 281.1 285.6 290.7 297 312.4 326.7 340.9 350.2 358.8 367.5 373.4 372 365.9 363.9 365.9 367.2 362.3 352.7 345.5 336.5 321.8 316.3 311.8 309.4 300.5 285 269.7 258.2 255.7 269.8 277.6 283.8 280.4 264 241.2 215.8 189.7 164.8 146.3 131.4 118.3 109.3 101.6 95.4 89.7 84.8 80.8 76.2 73.5 74.4 75.3 74.9 74.2 74.6 74.4 75.8 77.9 80.7 83.8 86.5 89.1 92.8 96.5 100.3 102.8 103.4 101.1 101 102.1 106.2 110.3 110.1 109.8 112.2 115.1 117.7 121.9 127.1 133.5 141.4 149.9 160.4 171.6 183.9 196 208.5 227.8 256.2 286.5 316.7 346.9 374.8 391.6 402.9 415.4 420.5 420.7 413.3 407.4 401.4 393.9 382.1 365.4 346.2 329.1 312.5 311 309.5 315 315.9 311.6 302.7 293.3 283.6 275 270.4 266.2 260.5 258.5 263.8 266.7 270.6 272.5 272 272.6 271.9 270.6 269.1 274.6 277.8 281.8 283.7 286.3 289.2 289.9 294.3 297.6 303.5 310.8 321.8 333.7 345.3 359.5 370.8 378 380.3
126.4 126.7 127.6 130.1 133.2 136.3 138.4 139.3 141 144.6 150.4 154.5 158.8 162.9 168.9 171.3 173.1 174.5 175.6 176.7 179 180.2 180.3 183 186.4 189.1 191.8 194.4 197.4 200.4 203.1 204.7 205.6 205.6 202.1 200.8 199.5 191 191.9 202.9 210.4 216.6 222.1 228.6 236.7 241.7 250.8 263.2 269.1 275.3 281.4 289 295.6 297.2 297.2 297.4 305.1 307.2 326.7 339.2 351.4 359.6 367.9 376.3 381.6 383 376.5 366.1 362.9 362.9 360.3 353.9 346.9 340.3 329.6 324.4 320.8 310.6 304.8 297.1 276.7 262.1 261 272.5 281.5 278.3 265.7 246 218.6 194.1 171.8 150.1 138.2 126.4 116.7 109.7 103.7 97.9 92.2 86.3 80.3 76.3 73.6 74.5 75.5 74.5 74.3 74.4 74.7 75.9 77.2 80.8 84.3 87.1 90.1 94.1 99.1 103.3 107.3 108.1 104.6 103.1 102.9 105.2 108.7 109.6 111 112.5 115.8 118.6 123.4 127.6 131.7 139.5 148.8 159 170.6 184.2 200.4 214.7 230.4 258.9 288.4 317.8 349 380.6 404.8 418.1 427.8 436.7 438.6 428.4 419.5 409.8 399.4 386.2 369.9 348.4 332.7 315.4 316.8 313.1 318.9 320.9 319.8 312.9 305 294.2 283.2 276.1 272.2 270 260.7 268.4 272.2 276.3 280.6 281.7 281.7 280.6 279.1 278.7 277.3 278.7 277.8 278.3 277.9 278.1 278.4 279 278.9 281.9 285.1 295.7 303.9 313 326.1 336 342.4 346.8
128.2 128.9 128.9 130.6 136.7 141 144 147.2 148.8 152.1 157.7 164.6 169.5 172.5 175.5 178 179.8 181.3 181.6 181.6 182.8 184.1 186.6 188.2 189.2 192.1 194.9 197.3 199.5 201.8 205.1 206.5 207.7 208.1 207.3 205.8 203.4 201.1 196.1 197.1 209.5 217.1 223.9 232.5 240.6 245.2 253.8 265.1 274.5 282.4 290.3 298.6 307 312.8 315.1 317.7 325.4 330.8 334.9 350.5 363 369.6 377.8 383.3 388.9 386.8 380.5 371.6 364.1 357.2 352.5 347.1 340 335.5 333.6 332 328.6 318.3 308.6 298.5 281.9 266.2 260.4 257.6 261.5 249.9 235 217.8 195.8 174.7 153.3 141.1 132.5 125.1 118 112.8 106.6 100.5 94.9 90.1 83.6 79.7 74.4 74.6 73.6 74.4 74.4 74.4 74.7 75.4 77.4 78.3 82.4 86 89.8 95.1 100.5 106.7 112.2 111.2 105.9 104 104 105.8 107.8 109.7 111.7 113.8 116.1 119.8 124.5 129.2 133 139.4 149.3 157.9 169.1 183.7 202.2 219.1 234.5 261.5 290.2 318.9 349.2 380.1 407.7 430.4 442.3 446.2 450.9 442.8 431.6 418.8 406.2 392.3 376.1 354.1 337.1 322.2 321.6 319.8 323.3 326.9 327.4 323.6 316.5 305.8 293.5 284.7 279.7 275.3 267.2 271.7 277.5 282.8 287.3 289.6 292.3 291.9 289.6 290.1 290.6 290.6 288.1 284.2 283.1 282.1 282.4 282.7 282.4 283.6 281.6 287.5 293.4 297 300.4 304.8 310.3 310.9
128.6 130.9 133.6 134.3 143.5 148.1 150.3 152.7 155.2 159.4 165.2 173 178.1 180.6 181.2 183.9 187.6 188.1 187.1 187.1 187.4 188.7 192 193.8 194.6 195.8 198.3 200.3 202.5 204.7 206.4 208.5 210.7 211.8 211.6 210.1 209 206.7 205.2 197.7 209.7 217.8 224.5 233 241.8 249.5 257.7 266.8 279.7 288.6 296.9 306.8 316.2 323.4 332.1 338.1 345.2 348.8 354.5 360 373.7 381.9 387.5 390.7 395.2 390.4 384.2 375.4 365.2 354.4 343.5 339.3 334.3 331 329.3 329.8 327.6 318.3 304.5 291.4 281.6 272.6 262.1 247.9 239.3 221.3 206.9 190.7 171.9 156.3 145.7 138 132.1 124.3 116.7 111.8 106.6 100.9 93.9 87.6 82.7 79.6 76.1 75.5 75.8 74.9 74.6 74.6 74.7 74.9 77 80.6 82.7 83.8 88.4 95.6 102.7 109.4 114.6 114.6 109.6 105.5 105.8 107.1 109 110.9 112.8 115.2 117.6 120.2 125.7 130.4 136.3 142.1 150.3 159.8 170.6 182.5 197.8 220 237.7 264 292.8 321.3 351.4 382.4 412.8 436.6 446.5 463.4 464.7 458.6 446.5 430.1 414.6 402.3 381.6 360.6 342.9 331 324.8 323.1 329 332.9 334.8 332.8 328.3 318.9 307.7 296.4 289.3 283 273.7 273.2 284.6 290.1 296 298.6 303.2 304.3 304.2 306.1 306.8 307.2 304.2 300.8 298.4 295 291.7 289.5 288.3 289.3 289.2 289 291.1 296 297.7 296.3 299.2 298.5
128.9 133.6 139.4 143.4 148.1 152 155.5 158.5 161 165.7 170.8 177.8 185.7 187.2 188.3 187.9 190.1 192 190.1 191.1 192 195.1 197.5 198.5 199.1 199.3 202.8 205.4 206.4 208.3 209.2 210.3 212 214.2 214.6 214.1 213.8 216.5 216.3 211.7 195.8 213.1 222 230.4 239.7 248.8 259.1 267.9 284.5 296 307.5 317.9 325.3 330.3 342.2 350.7 356.8 363.9 367.2 371.7 380.2 389.2 395.8 400.5 401 395 388.5 377.9 363.8 350.4 338.6 327.3 324.4 325 321.7 321.3 315.7 308.6 297.2 283.5 279.3 271.2 260.2 247.7 234.1 209.7 186.5 168.1 157.2 149.6 141.5 130.5 127.5 119.8 109.4 101 98.1 92.2 86.5 83.2 81 78.7 76.5 75.6 76 75.2 74.8 74.9 74.8 75.1 77.1 81.7 85.5 88.8 87.2 96.1 104.3 111.6 117.3 118.3 115 108.3 107.4 109.1 110.6 112.6 114.6 116.8 119.1 121.1 127.5 132.4 138.2 145.3 152.6 161.6 171.9 183.6 196.5 215.1 237.2 265.9 295.2 325.6 356 385.8 413.8 436.6 457.2 466.6 472.4 469.7 461.3 442.6 423.3 409.4 390.1 366.8 349.8 339.8 332 330.2 333.2 339.8 344 343 341 333.5 323 312 301.8 295 288.8 276.7 288.1 296.5 302.5 306 311.2 316.4 319 321.6 323 323.5 321.3 319.8 318.5 316.5 311 305 298.4 298.1 297.9 299.7 300.4 302.3 304.7 304.1 304.1 303.8
130.4 135.4 141 147.1 151 155.8 159.3 161.6 163.7 167.3 175.5 182 191.7 193.2 193.3 192.7 192.4 194.4 194.8 195 195.4 198.7 200.2 201.8 204.2 204.6 205.5 208.6 210.7 212.3 213.6 212.8 213.5 215 217.1 218.4 220.5 225.1 222.9 218.5 215.1 203 220.2 228.2 237.3 247.4 257.4 266.7 282.5 297.4 311.1 325.8 336.9 342.2 348.8 358.1 365.8 370 375.4 381.9 386.5 393.3 402.2 407.4 407.5 401.6 393.1 379.7 364.1 350.7 336 319.8 308.1 308.3 311 310.9 301.5 293.8 286.9 283.2 279.6 270.5 248.3 236.5 214.8 193.6 175.9 164.5 155.7 148.7 144.1 138.5 131.8 124.3 116.8 110.2 102.1 95.7 90.2 85.8 82.1 75.5 74.6 75.3 76.2 75.4 75.1 75.1 75 75 78.9 82.7 87.5 91.6 91.6 96.9 105.7 113.1 119.7 121.6 119.3 114.2 109.4 110.7 112.4 114.3 116.6 118.9 121.2 123.3 128.2 134.3 139.7 145.6 153 161.8 172.1 182.1 193.5 211.9 237.2 268.2 299.3 330 362.7 392.5 418.1 441.9 461 474.6 480.2 480 474.4 454.5 432.3 417.6 396.9 376.2 357.2 348.3 340.2 332.7 338.5 345.7 351.5 354.1 352.8 347.6 336.3 324.5 312.4 303.7 294.5 282.6 292.1 299.8 306.2 311.6 317.7 323.5 329.3 336 339.4 343.1 342.9 341.8 340.9 337.7 330.9 324.3 319.2 316.4 315.5 315.9 316.1 317.7 318.7 317.4 317.1 317.3
133.9 137.9 145.9 151.7 154.7 156.6 160.4 163.5 166.2 168.5 172.9 181.4 194.7 198.9 198.5 196.8 195.3 195.8 196.9 197.9 198.6 200.6 201.8 204.3 207 208.1 207.8 209.4 211 212.8 213.9 215.1 216.5 218.4 220.7 223.3 223.9 225.6 227 222.2 222.2 205.6 220.7 227.7 235.8 244.8 254.5 261.4 279.6 296 312 329.1 346.3 356.7 359.9 365.4 371.5 375.1 379.3 383 390 396.3 406.1 411.8 413 408.9 399.8 387.5 371.1 354.6 338.1 322.2 305.4 291.3 291 292.2 291.7 285.6 280 275.6 264.3 250.1 229.7 214.4 197.8 182.7 175.2 162.3 159.2 156.1 149.9 144.4 135.9 127.1 119.7 111.8 103.8 97.7 91.8 86.9 80.5 76.4 75.4 75.8 76.3 75.5 75.3 75.3 75.2 75.1 79.4 83.4 88.1 93.4 95.1 97.2 107.3 115.3 122.1 124.7 121.9 117.1 111.6 112.2 114.3 116.4 118.9 121.2 123.5 125.5 128.9 135.9 142.8 149 155.1 161.9 171.7 180.8 194.3 214.8 239.5 270.2 301.4 332.3 365.4 395.5 423.2 449.8 470.1 484 489.7 490.5 483.2 467.3 445.9 424.7 403.5 383.6 366.6 356.3 348.2 339.1 347.3 351.9 356.9 362.1 364.7 360.9 349.4 336.5 325.5 313.5 301.9 289 298.1 304.6 310.7 316.5 322.7 329.4 337.3 349.3 356 361.4 363.5 364.2 364.6 363.4 356.5 348.7 347.2 342.7 338.4 337.1 336.7 337.9 338.1 340.3 341.7 345.8
133.5 139.6 147.7 154.3 159 158.4 160.5 163.9 166.6 169.6 172.5 177.4 189.9 203.3 204.7 200.9 197.1 197.7 198.7 200 200.6 202.7 204.7 206.9 208.9 210.7 212.2 213.5 212.9 213.2 214.7 216.7 219.1 221.4 223.3 226.2 228.5 229.2 230.3 228.8 224.9 214.3 224.5 229.4 235.5 244.6 254.6 260.1 277.1 294.2 309.9 327.7 347.8 364.2 372.2 371.4 373.8 377.2 383.1 390.3 396.8 399.9 404.4 413.3 415.8 413.6 405.3 392.6 376 358.4 339 322.7 307 292.2 274.7 272.6 277 276.7 267.5 255.5 244 229.5 213.6 200.5 193.5 184.9 179.9 174.7 168.7 162.1 156.7 150.8 141.3 131.8 124.1 114.7 105.3 97.4 91.8 86.7 80.2 75.8 75.7 76.1 74.7 75.9 75.7 75.5 75.4 75.3 78.3 83.9 88.5 92.4 92.1 99 108.5 117 124.1 126.8 122.7 117.6 113.4 114.1 116.2 118.3 120.9 123.4 125.8 127.9 130.4 137.4 144.7 150.5 155.3 161.6 169.2 179.5 194.9 215.8 241.3 271 300.9 330.6 363.9 396.2 423.8 449.6 472 484.1 492 491.4 485.7 472.6 453.9 434.7 410.2 389.4 374.9 360.9 353.8 348.4 350.9 356.5 361.2 368.1 373.6 373.5 364.3 351 337.6 323.8 310.6 298.1 300.6 309.7 316.7 321 326.9 334.2 343.9 358.2 371.3 377.8 384.1 387.6 390.1 389.6 384.7 380.7 378.8 372.8 367.9 363.6 362.5 364.1 368.5 372.2 375.3 381.7
134 139.3 147 153.2 158.4 159.6 161.1 163.5 166.2 168.8 171.4 173.9 180.8 196.7 202.5 200.6 198.8 199.5 200.5 201.6 202.4 204.4 206.8 208.8 210.8 212.7 214.4 215.8 216.9 215.9 216.3 218.7 221.4 224.2 226.4 229.4 231.8 233.8 235.7 236.4 230 223.2 221.6 231.2 236 245.8 254.1 257.8 274.5 294.4 309.8 324.8 343.7 360.4 371.8 378.4 379 379.4 384.9 394.9 400.8 404.3 403.8 409.8 414.2 413.9 406.5 394.2 377.4 359.2 339.5 319.9 304.9 293.1 281 264.2 258.9 255.8 249.8 240.7 226.4 216.1 208.7 201.7 198.1 194.5 186.6 179.2 171.9 165.8 160.6 154.7 146.7 138.6 129.2 119 109.7 100.7 92.3 84 78.5 75.7 75.8 76.4 76.8 76.3 76 75.9 75.8 75.7 76.3 83.1 87.9 92 92.3 100 108.7 116 121.2 122.9 119.7 116.7 114.7 115.6 117.8 120.2 122.8 125.4 128 130.6 132.9 138.8 145.5 150.6 155.6 161.8 171.2 181.3 195.8 215.3 240.7 268.7 297.7 326.7 358.2 390.8 419.4 442.9 465.4 480.5 488.8 492.4 489.1 480 461.4 443 420 396.3 381.2 365 358.9 353.3 352.6 358.9 365.3 372.9 380.8 382.9 377.1 365.5 349.9 335.5 321.5 309.1 298.1 315.6 322.3 326.9 331.7 338.9 350.9 365.2 379.3 392.3 401.9 410.4 416.4 417.3 414.6 413 411.1 403.7 396.2 391.2 391 396.1 404.1 409.3 413.1 419.9
143.4 139.3 146.6 151.6 156 158.3 160.2 162.8 165 167.6 170.1 172.5 175.3 185.6 199 200.5 201.2 201.7 202.3 203.3 204.3 206 208.9 211 212.6 215.1 216.7 218 219.6 220.3 221.7 223.1 225.3 227.4 229.9 232.9 235.4 237.7 238 237.8 233.9 226 220.7 233.9 238 244.9 251 256.3 273.3 292.6 309.3 324.7 339.4 354.7 365.9 374.7 378.1 380 384.2 393.1 399 404 406 402.9 408.6 407.1 401 389.3 373.9 355.8 335.2 316.2 303.1 291.9 280.3 267.8 258.5 250.8 242.2 235.3 226.2 213.8 214.5 212.4 204.8 198.2 193.1 185.6 175.7 169 163.9 158 149.7 141 133 121.2 111.4 102 92 84.1 76.9 76.1 76 76.4 76.4 74.7 76.4 76.3 76.2 76 76.6 80 85.7 91.4 93.1 99.4 106.1 112.9 116.5 118.1 116.8 115.6 115.7 116.8 119.2 121.8 124.4 126.9 130.2 133.4 135.7 139.9 145.3 150.2 155.3 163.3 172.5 183.6 197.5 214 237.2 263.5 290.9 319.4 349.6 380.7 411.2 437.1 460.5 479.8 491.3 497.9 493.4 485.2 469.1 448.9 429.4 404.7 386.6 373.2 363.5 358.2 355 362.3 368.9 377.8 387.1 391.3 387 377.6 360.8 344 330 316.1 302.2 321.7 328 332.6 337.8 348.8 359.5 371.9 385.6 401.1 418.2 437.7 446 450.7 454.7 451.2 445.6 437.4 424.6 419.7 422.6 430.2 443.2 452.1 455.1 455.8
151.2 142.9 145.6 150.2 154.3 155.6 159.9 161.6 163.4 166 168.7 170.6 172.9 178.8 191.5 199.8 200.2 202.2 203.4 205.9 207.2 208.3 211.5 213.6 216 219.2 219.7 220.4 223.3 226.2 228.1 229.4 230.3 232.6 235 237 240 242.5 243.9 242.9 238.5 236 222.7 235.1 240 244.5 249.9 255.2 273.5 293.2 308.7 323.1 336.7 349.7 360.4 368.5 373.4 377.8 383.1 390 396.6 400.3 401.7 395.9 394.7 395.7 391.4 379.9 365.2 348.8 328.4 312.6 299.8 288.9 278.1 268.8 259.9 253.1 244.4 229.2 233.2 231.2 227.1 214.9 207.2 200.4 196.9 190.6 180 171.3 166.6 159.7 152.3 142.7 133.3 122.7 111.8 99.7 89 81.9 77.3 76.4 76.1 76.4 76.6 76.8 76.8 76.6 76.5 76.3 77.1 78.7 82.3 88.8 93 97.7 104.8 109.7 112.9 114.6 115 114.9 115.3 116.9 119.8 122.8 125.8 129.1 132.4 135.7 138.9 142 146.2 151.1 156.6 164 173.5 184.7 199.9 213.8 233.3 258.1 283.9 310.7 339 368.9 398.6 425.1 449.8 472.6 490.1 499.2 501.5 494.3 478.5 457.3 437.8 414.8 396.4 381.3 371 363.9 360.3 365 372.7 382.9 393 398.9 396 387.7 372.6 354.6 338.7 322 307.8 321 330.7 337.3 345.2 355.7 367.2 378.9 391.3 407.7 431.4 460 476.4 485.5 490.8 487.2 480.4 471.1 459.3 453.2 454.7 462.9 479.1 495.3 496.1 482.5
159.5 152.7 148.6 148 151.2 155.4 158.8 161.1 162.5 164.9 167 168.9 171.9 176.4 186.7 195.5 199.5 203 206.4 209 210.4 212.9 216.4 218.1 219.2 222 222.7 223.8 226.4 229.7 233.1 235.8 237.7 239.1 241.5 244.5 247.3 247.7 248.4 249.8 246.3 240.9 231.4 235.9 240.4 244.5 249.1 254.1 270.5 292.2 307.9 321.1 333.9 346.1 356.2 363.9 369 373.9 378.4 384.2 390.3 392 391.9 388.1 381.8 382.5 375.1 368.5 353.6 337.1 318.5 305.4 297.3 285.4 274.9 267.7 259.3 248.6 244 243.2 237.9 231.2 224.3 215.2 204.9 199.4 195.1 187.9 179.1 172.6 166.2 160.1 153 145.3 135 122 112.2 102.2 88.9 80.4 77.2 76.6 76.3 76.5 76.7 76.8 75.6 76.7 76.9 77.6 78.3 79.4 82.5 86 91 96.2 102.9 107.7 110.9 113.2 114.3 113.7 113.9 116.5 119.1 122 124.9 128.4 132.5 137.3 141.1 144.7 148.7 153.2 158.3 166.4 175.5 185.6 199.4 213.5 230.9 253.7 277.5 302.5 329.3 357.3 386 413.8 440.2 466.8 487.6 503.5 507.8 503.3 488.7 469.5 446.8 426.7 407.9 393.4 379.9 370.1 365.2 369.6 377.1 388.3 398.6 404.9 405.6 398.5 383.9 366.1 347.4 327.4 310.4 320.8 331.1 339.1 347.8 360.8 371.8 382.9 395.8 412.1 437.9 468 492.9 508.7 518.7 520.6 514.7 504.3 493.6 488.2 490 495.5 514.1 519 499.8 482.2
169.3 163.8 158.8 152.1 151.5 155.1 158 160.6 161.8 163.2 165.3 167.5 171.3 175.2 181.5 190.3 198.5 204.8 209.1 212.2 214.5 216.6 219.5 222.9 223.7 224.5 226.4 228.3 230.5 233.2 236.6 239.8 242.1 244.7 248.4 252.4 255.4 258 260.9 261.1 253 246 238.3 236.9 241.6 244.8 248.1 252.7 265 287 304.9 317.1 329.8 341.4 352.1 357.4 358.5 363.3 369.4 375.4 378.8 380 378.6 373.4 369.9 369.3 365.6 359 345.4 327.2 312.9 302.8 296.3 286.6 277 268.2 257.8 258.4 256.1 250.3 244.5 237.6 230.8 222.2 205 196.5 190.4 184.7 179.9 171.8 164.9 159 154.6 146.3 135.5 122.5 114.7 102.2 90.6 80.3 77.1 76.7 76.5 76.6 76.8 76.9 77.6 77.4 77.2 77.3 78.3 80.3 82 84.4 89.7 94.7 100.7 105.7 109.4 112 113.5 111.1 112.5 114.6 118.1 120.5 123.8 126.8 130.6 132.9 139.9 146.5 151.3 156.1 160.6 168.9 177.3 186.8 200 213.7 229 249.7 271 293.8 319.2 346.2 373.7 401.5 429.8 455.5 479.4 496.2 506.9 507.3 498.1 480.6 460.6 438.2 421.3 404.5 390.4 378.5 370.1 371.2 383 395 405.2 413.2 416.1 410.1 394.6 375.1 353.9 333.2 315.3 322.7 332.4 341.4 351.4 362 374.5 386.8 399.8 416.2 442.7 470.9 499.2 521 541.6 552.6 546.9 536.4 527.7 522.8 525.6 529 523.2 511.6 492.3 474.2
177.3 173.3 166.6 155.7 151.2 153.9 157.2 159.6 160.8 161.9 163.5 166.5 170.7 174.9 180.5 191.4 201.4 210 214.1 216.7 219.3 222.4 224.3 225.6 228.7 232 233 234.1 235.1 236.9 239.8 242.9 246.2 250.2 254.6 258.7 260.3 259.4 258.8 257.7 252.4 246.1 241 235.9 241.7 244.8 248.4 252.9 260 277.9 294.7 308 320.9 332.1 340.8 344.1 345.5 350.8 356 362.4 368.2 367.9 364.6 360 361.3 365.3 366.2 361.5 346.1 330.7 317.6 305.7 300.2 289.7 280.6 273.8 274.2 271.5 267.8 262.8 258.3 248.6 237.3 221.3 205.4 196.3 190.7 185.2 178.6 171.5 165.9 159.2 151.9 143.7 132.9 123.2 113.2 101.4 91.3 83.4 79.1 77.2 76.9 76.8 76.9 77 77.2 76.2 77.5 78 79.6 81.3 83.6 86 88.8 93.2 99.5 103.5 107.4 110.4 111.2 109.8 113.1 116.2 118.8 122.1 125.7 129.1 133.2 137 139.9 141.1 150.8 158.1 163.9 170.1 179.5 190.1 201.9 214.2 228.3 246.4 265.3 285.4 309.9 335.6 362.5 389.7 418.4 446 469.5 486.4 503.1 508.4 501.4 489.4 472.2 453.6 435.8 417.6 402.7 389.6 379.2 377.5 392.5 404 415.3 424 427.4 421.9 406 383.2 362.3 342.1 320.4 322 333.2 342.6 351.5 362.2 375.2 389.5 405.2 425.9 452.8 478.6 508.4 533.5 555.6 573 575.3 568.7 557.7 554.6 549.5 536.5 514.9 497.4 477.3 459.5
182.4 179.3 170.1 160.2 152.4 152.7 155.8 156.8 157.8 158.9 160.6 165.6 171.2 178.6 184.6 193.8 204.9 214.4 220.7 224.6 224.9 228.3 231.9 236.7 238.2 240.1 240.5 238.6 237.6 237.5 238.7 242.3 246.3 251.5 256 259.4 260.2 259.5 257.8 254.4 250.9 247 245.2 241.4 236.9 244.4 247.7 252.6 258.5 268.8 283.3 295.6 306.5 315.8 324 328 326.5 331.4 337.5 343.6 351.3 352.2 348.4 352.6 359.2 367 369.1 365.7 352.6 340.2 328.7 316.1 302 287.7 289 296.1 295.4 291.5 284.7 277.2 269 257.3 242.9 221 207.4 196.1 189.2 183.8 178.3 170.9 166 157.8 148.9 140.1 129.3 120.3 109.1 101.4 93.3 85.5 81.5 78.4 77.7 77.3 77.5 77.3 77.4 76.2 77.7 78.4 80.1 82.2 84.4 86.8 89.3 92.2 97.6 102.5 105.8 108.1 106.2 109.3 112.3 115.5 118.6 121.9 125.3 128.9 133.4 138.1 142.6 147.5 152.4 156.1 158.4 166.8 178.4 191.5 201.9 214.7 227.4 245.6 262.3 279.9 302.4 327.6 353.3 379.9 407.2 435.6 460.1 482.1 497.5 506.7 505 499.8 486.7 470.4 454 435.4 415.8 403.8 390.2 387.5 402.7 414.2 425.6 436.5 438.7 431.3 415.7 392.6 368.8 350 330.3 321.5 334.4 343.1 351.2 361.4 375.8 391.8 409.5 432.7 457.8 484.4 517.3 544 566.1 585.3 599.3 598 585.4 569 554.3 531.2 509.7 484.5 462.6 444.6
188 184.9 174.5 163.1 156.7 152.6 152.3 154.6 155.4 156.1 157.2 165.4 170.1 178.3 189 193.4 197.9 212.7 230.8 237.4 235.9 234.5 237.3 237.7 238.3 238.5 238.7 235.8 235.1 234.1 234.9 239.1 245.8 252.2 255.8 259.2 261.1 261.2 258.2 254.6 251.2 249.1 247.2 244.8 240.6 243.3 246.7 249 252.3 259 269.8 281.8 293.3 302.4 307 308.2 307.5 311.1 317.8 322.7 327.1 334.2 346.9 356.3 362.8 368.3 370.9 369.6 360.4 349.2 335.1 320.8 305.6 300 300.3 308.1 311.4 312.6 305.9 293.4 280.7 266 248 221.6 206.1 197 189.2 183.2 177.2 170.7 165.5 157.8 148.1 139.4 128.4 117.2 107.9 100.2 94.6 87.2 83.2 79.7 78.8 77.8 77.4 77.4 77.4 77.3 78.3 79 81.1 83.2 85.3 87.6 90.2 92.7 95.9 100.4 102 101.3 105.5 108.6 111.7 114.3 117.2 120.7 124.4 128.4 133.5 138.5 143.4 149.9 154.4 160.2 166 172.9 179.8 185 194.8 213.2 228.4 248.3 261.7 276.9 296.8 320.7 346.4 371.5 395.8 423.3 447.1 469.4 489.7 504.1 506.1 505.4 498.1 485.5 470.5 452.2 437.3 421.1 402.3 399.1 411.7 424.9 437.3 445.6 448.1 439.6 425.2 402.4 378.3 355.9 337.6 320.7 333.2 342.7 351.4 361.1 376 394.2 415.4 439.7 463.7 490.6 519.1 549.9 573.8 594.9 610.5 611.2 592.2 570.1 547 521.7 497.1 471.5 447.9 424.1
191.3 187.1 174.1 164 160.4 157.6 155.3 155 154.2 154.4 155 156.4 160.7 165.2 172.3 176.8 181.4 191.9 203 211.9 213.7 213.7 215.5 216.8 218.7 221 221.6 223.7 225.6 226.5 229.8 232 237.1 245.1 251.3 255.8 259.9 261.3 259.3 255.6 252.2 250 247.9 245.5 244 242.5 243.9 246.5 248.1 251.2 257.6 267.5 277.1 283.2 288.9 292.4 296 300.3 307 316.8 330.2 342.8 355.2 365.4 374.4 382 384.5 379.9 367.9 358.4 341.5 327.9 309.7 307.2 312.6 324 331.7 333.3 326.4 307.2 291.9 273.1 247.6 220.7 205.4 197.8 190.4 183.4 176.7 170.9 163.1 155.1 148.6 138 128.9 118.9 110.4 101.3 94.5 89 83.5 81.8 80.7 79.9 78.1 77.4 77.7 78.5 78.4 79.6 81.4 83.6 85.8 86.8 88.3 90.3 93.3 96.5 99.1 101.8 104.9 107.4 110 113 116 119.8 123.4 128.5 134.2 139 144.6 153.5 160.3 163.5 171.6 180.5 190.2 199 201.7 206 227.9 247.2 261.1 274.7 292.7 315.7 340.5 363.6 387.8 411.1 435 459.2 483.5 500.5 507 511 509.8 500.6 486.8 470.2 454.8 438.4 425.8 414.6 424.4 436 446.8 453.9 456 448.7 434.8 413.1 388 365.2 344.8 324 331.9 341.5 350.5 361.6 374.3 395.5 418.8 443.7 471.1 498.9 524.1 552.6 577.8 598.3 610.1 606.7 584 561.7 538.2 511.9 485.6 461.4 431.2 397.3
181.3 178 171.2 166.4 165.3 161.8 157.8 156.6 156.4 158.1 158.3 157.1 156.4 156.4 157.6 163.9 167.7 171.4 173.8 179.4 183.1 184.7 187.7 189.5 193.5 197.4 201.8 206.2 210.1 214.6 216.8 222.6 226.6 232.6 238.4 244.8 249.1 250.5 251.2 252.4 252.4 250.5 248.6 245.7 244.4 244.1 245.1 247 249.4 251.8 255.1 262.6 269.6 276.9 280.7 284.3 288.4 298.2 310.6 322.2 333.9 346.8 360 371 380.3 388.3 391.2 384.6 369.6 359.1 347.2 332.6 314.5 312.3 324 339 349 351.1 343.9 319.7 296.3 269.7 242.9 220.2 206.1 198.7 190.3 183.2 177.1 171.3 165.9 158 147.1 138.2 130.5 121 112.1 104.4 98 90 87.3 86.6 84.7 86.2 84.4 80.6 77.9 78.6 78.4 80.2 81.9 83.8 84.7 87.4 89.3 91.1 94 96 98.6 101.4 103.9 106.8 109.9 112.6 115.4 119.2 123.9 128.6 134.5 140 147.3 157.2 164.5 174 180.8 189.6 198.6 209.4 218.4 206 219 239.2 255.5 270.8 288.9 310.2 333.3 356 378.1 399.1 422.5 448.4 472.7 494.7 506.5 513.9 515.8 512.1 499.9 488.7 475.3 462 449.1 440.6 439.7 451 457.9 464.4 465.3 458.4 444.4 422.2 397.8 373.9 350.2 328.7 330.3 340.5 351.2 362.1 376.9 397.9 420.4 445.3 474.6 502.7 528.9 557.6 583.2 606.8 614.8 605.9 583.4 558 532.7 506.2 478.8 452.7 422.8 406
178.3 175.7 173.3 171.3 169 166.4 160.6 158.5 161.3 163.9 164.9 162.9 160.7 158 154.3 154.4 157.4 156.3 156.4 158.6 161.4 163.8 165 168.7 173.8 178.7 184 190.1 194.5 199.6 204.3 208.5 213.1 219.1 225.6 231.3 236.4 239.9 242.9 246.3 248.6 249.4 249.9 247.6 245.2 246.4 246.9 248.3 250.4 253 256.1 262.2 266.3 271 276.5 281.1 286.9 297.6 309.9 324.4 336.2 345.7 358.9 370.1 379.4 387.7 391.1 384.4 372 362.7 352.4 338.1 321.5 320.3 335.5 352.5 363.2 363.9 353.1 324.9 291.6 261 239.6 221.9 208.1 197.1 188.5 182.6 176.7 171.3 165 156.7 146.1 138.1 132 122.9 112.5 105.8 97.5 92.3 92.3 93 93.3 96.2 94.2 88.1 84.1 78.9 76.7 79.3 80.6 83 83.8 86 89.1 91.1 93.2 95.8 98.1 100.6 102.7 105.6 110.1 114.1 116.4 120.1 124.4 129.4 135.1 144.9 154.7 162.7 171.3 182.5 191.5 201.3 210.6 218.9 229.9 228.2 226.3 224.7 241.3 259.2 279.8 302.9 327 343.2 365 387.7 411.4 435.3 460.8 484.9 502.6 514.3 520.1 521.6 514.5 504.2 492.1 480.1 470.5 464.4 463.8 469.3 472.1 474.4 475.7 469.1 452.2 430.1 407.6 382.9 358.5 336.7 330.5 339 350.8 363.6 382.3 400.5 422.3 446.4 475.8 503.3 532.3 561.8 587.4 608 618.7 606.3 582.8 557 529.5 501.6 474.8 446.1 416.9 424.4
180.1 178.6 176.7 174.1 171.6 168 165.3 163.9 163.6 166.2 167.3 164.7 161.3 156.6 151.3 147.6 146.6 147.3 148.8 149.5 151.5 153.3 154.7 156.9 161.3 165.3 171.2 177.8 184 188.7 192.3 196.3 201 205.9 211 221.3 227.9 233.2 237.2 241.4 244.2 246 247.6 248.3 248.2 250.2 249.4 250.2 252.3 254.1 258.8 263 266.2 270.8 274.8 279.8 284.7 291.7 302.4 317.2 331.8 344.5 354 362.9 372.3 379.2 380 377.8 374.5 365.9 357.7 345.1 334.2 334.1 347 360.5 374.6 373.7 351.8 316.7 283.9 255.1 237.9 222.4 209.7 196.4 188.1 180.6 176.1 170 162.3 152.9 144.3 137.4 132.2 121.4 112.7 106.2 101.3 95.9 98.1 100.8 104.3 107.9 105 95.8 90 81.6 78 79.4 81.2 82.9 84.7 86.5 88.5 90.4 92.3 94.3 96.8 99.2 101.5 108.3 112.2 115.6 117.9 121.2 126.2 131 139 151.3 161.3 170.9 180.8 191.4 202.3 214.3 222.6 229.6 237.2 246.8 248.2 243.3 239.3 247.1 268.8 292.6 313.7 334.1 354.6 375.9 400.1 422.9 447.5 473.6 495.8 513.4 523.4 528.5 527.5 520.6 509.3 498.1 488.8 485.6 485.1 488 487.2 486.1 488.3 481.8 462.2 439.6 417.1 390.6 366.6 344.8 329.8 337.6 349.5 364.1 382.6 401.8 424 446.5 474.1 503.2 535.1 565.2 593 617.8 629.9 613.2 589.3 562 533.9 504.3 474.1 443.3 419 437.9
187.7 186.5 181.9 178.9 175.2 174.4 173.6 169.5 167.6 165.6 163.4 160.2 156.4 151.6 147 141.8 142 143 143.8 144 145.3 146.7 148.1 150.6 154.7 158.8 164.1 171.1 175.9 180.1 183.9 187.8 190.9 195.4 200.9 208.7 219.4 226.1 231.4 236.9 241 241.3 243.5 247.4 249.9 252.3 252.7 254.3 255.5 256.7 258.7 262.6 266.4 269.9 274.7 280 285.2 290.3 296.6 305.5 322 334.9 347.2 356.4 360.6 365.2 370.8 373.9 373 368.5 364.6 354.6 348.4 349.2 361.9 374 380 373.8 349.3 313.4 281.7 254.3 237.9 221.6 207.3 194.5 186.1 178.9 173.7 167.7 160.2 150.5 146 143.5 135.8 125.5 115.5 108.2 102.5 99.4 103.7 106.2 110.1 113.3 113 105.8 98.4 85.9 79.2 79 79.9 81.7 83.8 85.6 87.2 89 90.9 92.9 94.9 96.9 100.6 106.1 111.4 116.3 119.7 124.3 129.1 133.6 144.3 155.2 169 180.3 190.9 202.4 214.5 232.1 240.6 248.6 253.8 259.8 264.4 262.8 262.1 246.1 259.3 282.4 309.4 331.8 351.6 368.7 388.1 411.2 436.2 461.5 485.7 508.3 526.4 534.2 535.4 531.8 521.6 512.8 505.9 502 501.3 505.1 506.3 503.7 499.8 490.8 472.7 449.3 424.5 398.3 370.7 349.1 337.3 337.9 349.2 364.2 381.9 401.3 425.3 447.1 473 503.3 536.7 568 598.4 621.1 631.5 613.6 590.8 562.4 534.3 504.5 474.8 444.5 436.5 454
189.1 187.3 184.8 182.2 180.1 180.1 178.6 174.4 169.8 165.3 160.8 157.6 155 149 143.4 139.6 139.7 140.9 140.5 139.9 141.1 142.5 144.5 147.6 151.2 155.2 161.1 166.3 171.1 175.4 179.1 181.6 185.9 190.4 195.4 201.5 209.6 217.3 223.2 228.7 232.8 236.2 241.3 246.6 249.8 253 256.1 258 259.9 261.7 262.3 264.6 268.2 271.4 275.4 280.6 286.1 292 298.8 306 319.5 332.8 345 353.2 360.4 366.1 367.2 368.6 369.9 371.4 372 368.8 369.9 365.1 371.3 378.6 386.9 381.7 349.9 315.1 284.3 256.1 236.6 221.1 205.5 191.4 184.1 178.4 172 165.7 160 157.1 153.3 147.1 138.2 126.2 116.5 108.5 103.6 105 107.2 110.5 116.5 120.1 120.8 114.6 103.3 89 79.3 79.3 78.3 80.6 82.7 84.6 85.8 87.7 89.5 92 94.9 97 99.1 104.6 108.8 114.6 121.7 127.5 132.6 139.4 149.3 161.6 174.9 189.5 202.2 216.4 231.8 251 262.2 266.7 276.2 277.7 278.9 277 274.7 275.7 261.2 272.8 301.3 322.4 339.6 358.4 379.3 400.7 425.3 449.5 473.9 498.1 519 534.1 537.5 535.5 529.6 523.1 521 518.4 517.4 519.9 522.1 519.1 512.2 502.6 486.3 459.1 432.8 405.9 380.4 356.1 342.6 338.1 349.7 365 381.7 400.8 425.7 448.6 473.6 504.2 536.5 570.5 599.6 622.2 632.5 615.9 589.3 562.7 535.4 508.3 478.5 447.2 449.4 468.4
191.6 191 189.4 187.1 185.1 186.3 186.6 184.5 182.4 173.9 168.3 162.7 157 151.2 143.4 139.1 139 139.5 138.8 138.5 138.8 140.2 143 145.9 149.4 153.5 158.4 162.9 167.4 170.6 174.2 178.7 182.9 187.2 191.9 197.8 204.2 210.4 217.6 224.2 229.2 233.1 238.9 246.3 249.8 253.4 257.5 260.6 263.8 266.2 268.9 270 271.5 275 277.5 281.7 285.7 291.6 298.8 309 322.4 334.5 348.3 357.3 365.3 372.8 375 373.4 373.2 375.2 378.8 374.4 375.4 375.6 384.6 390.2 391.6 384.1 351.2 317.5 286.1 257.3 236.4 221.1 204.1 189.5 183.5 178.7 173 168.3 162.8 160 156.2 150.2 139.9 129.3 118.2 110.8 105.5 106.5 110.3 113.9 120.4 127.7 130.3 124.9 106.4 88 79.1 79.8 79.7 80 81.4 83.5 84.9 86.2 89.5 92.7 95.3 98.2 100.4 102.6 106.8 114.1 122.1 130.2 136.7 145.1 154.8 169.4 185 200.4 216 233.1 252.7 275.4 286.8 292.4 297.9 296.8 292.8 290.7 287.8 289.6 288.7 281.8 286.8 312.9 335.6 354 370.7 391.5 413.6 436.9 461.3 485.7 510.3 531.1 538.1 537.5 534.1 531.9 533.5 533.6 531.1 532.5 534.5 531.5 524.6 513.6 493.8 468.5 440.5 412.5 387 365.2 348.5 339.5 351.1 364.9 382 400.7 425.9 450 475.8 506.5 538.6 570.3 598.1 621.3 631.6 614.9 591.8 565.9 539.2 510.8 480.9 451.2 460.8 481.5
196.4 195 195.1 193.3 190.8 192.4 194.1 196.2 198.8 194.9 179.6 167.3 159.9 153.8 146.9 140.4 138.4 138.5 138 137.7 137.9 138.9 140.2 144.4 148 152 155.7 160 163.7 167.6 171.3 176.4 180.4 184.3 188.5 195 201.1 208.5 215.6 220.8 225.9 231.7 238 243.9 248.4 252.3 257.4 261.6 266.2 270 272.2 274.2 276.5 278.7 281.5 285 289.2 292 296.7 305.5 321.2 334 345.4 357 367.1 376.2 385.9 390.2 390.5 391.6 390.5 388.7 383.7 385.2 390.4 397.9 401.1 393.3 354.5 320.5 289.2 260 237.5 221.7 203 188.6 183.2 178.2 173.5 169.1 165.4 162.5 159 155.5 145.2 129.5 120.8 114 108.1 108.3 114.4 117.9 125.9 137.4 143.1 137.8 104.5 80.8 80.3 80.4 79.9 79.9 80.7 81.9 85.7 85.9 91.7 95.7 96.8 99.9 102.7 105.1 107.4 112.5 122 133.5 141.2 149.8 161 177.6 196.1 215.2 235.2 258.2 279.4 301.7 319.3 321.5 319.7 317.4 313.7 310.6 307.3 302 297.4 294.5 279 305 322.8 344.8 366.6 382.7 402.4 424.8 448.7 474.1 499.8 525.4 539.6 541.6 541.1 541.4 544.4 545.4 542.9 541.5 541.4 538.6 532.1 523 502.3 476.2 448.5 421.2 394 369.8 354.7 344.6 347 364.8 382.7 401.7 425.9 449.7 475.7 506.6 539 568.7 596.6 620.9 625.6 611 590.2 566 540.6 512.7 484.1 456.9 470.7 494
200.9 199.4 199.3 198.3 198.1 195.5 196.8 196.9 196.8 196.8 186.7 172 162.5 155.2 148.6 141.8 139.1 138.8 138.5 137.9 137.6 138 138.8 141.8 145.9 149.7 153.2 157 161.3 164.1 168.2 172.9 177.4 181.9 186.2 192.2 200.7 209 214.6 217.9 223.1 230 235.7 240.4 247.5 252.5 257.3 261.3 266.2 270.3 274.8 277.2 279.9 283.3 287.5 291.3 292.6 295.2 299.2 304.9 322.1 335.1 347.2 357 368.1 381.7 396.3 404 408 409.1 408.4 404.2 395.6 387.8 392.5 398 404 393.3 356.9 324.4 293.8 263.6 237.1 215.2 197.8 188.5 183.5 179.1 175.1 171.8 168.3 164.8 162.7 162.3 148.3 129.1 120.9 114.1 111.7 113.1 116 121.8 129.5 145.6 160.5 149.9 107.8 81.3 80.2 80 79.9 79.8 80 81.5 85.2 85.7 90.4 93.9 97.8 103.4 106.2 108.1 110.6 115 125.5 134.7 145.9 154.2 166.6 184.2 205.9 230.2 255.4 284.5 306.9 329.5 347.9 358.3 346.5 338.2 335.5 330.8 321.6 309.2 302 298.3 292.4 297.9 317.3 334.7 356.2 377.3 395.1 416.1 438.3 462.9 489.2 516.2 539.2 549.2 547.1 546.8 551.7 554.2 552.9 551 549.6 546.3 540.3 531.8 510.1 484.6 458.4 430.5 403.1 375.8 362.5 349.8 349.6 364.3 382.6 401.3 423 447.2 473.6 505.6 537.9 568.9 598.1 621.5 623.5 609.1 589.4 571.2 549.6 522.3 495 469 481.3 507.6
204.1 203.7 203 202 200.9 198 196 195 193.2 190.5 184.8 173.7 165.8 160.1 155.3 146.2 140.8 140.1 139.3 138.7 137.9 137.5 137.7 140.3 144.2 147.2 150.8 154.4 156.7 160.2 165.5 170.8 175.3 178.6 182.4 189.6 197.1 204.8 209.1 213.6 220.3 226.2 232.9 241.2 248.4 254.3 259.2 264.2 268.8 270.9 275.4 279.9 284 288.7 298.3 307.3 308.1 308 305.4 310 322.3 336.3 347.4 356.9 369.9 382.8 392.7 402.8 407.7 409.2 407.7 408.4 406.4 398.2 393.1 399.3 405.6 396.5 360.9 329 298 265.6 237.7 211.3 197.4 190.6 187.1 181.7 177.7 173.3 169.8 166.4 164.3 162.9 149.4 129 119.9 114.3 113.2 114.9 119 125.1 133.2 147.8 159.2 147.7 101.9 80.9 80.6 80.4 80.2 78.9 79.9 81.3 84 84.9 88.5 92.6 97.4 103.5 108.6 112 115.4 119.7 128.4 136 148.1 158.5 172 191.6 215.3 244.5 277.8 308.7 334.4 359.1 381.2 388.7 374.9 358.3 353.8 346.4 332.2 315.5 305.6 301.1 297.9 291.9 314.3 332.4 351.8 370.7 389 408.9 430.4 454.4 478.6 502 524.2 540.2 542.8 549.6 554.8 557.2 559.8 561.1 560.4 558.6 552.9 540.3 518.7 493.9 467.9 441.4 413.4 386.7 370.8 356.7 353.5 363.7 381.5 400.2 419.8 445.5 471.9 503.3 535.5 565.5 594.6 616.5 619.5 611.9 598 583.8 563.7 536.4 509.5 489.5 491.4 519
205.3 205.4 205.3 204.2 203.3 200.8 198.6 196.6 195.2 192.6 186.2 176.3 167.8 163.3 160 153.9 145.5 141.4 140.3 139.6 138.1 136.9 137.3 139.1 142.3 144.2 147 151.4 153.6 157 162.9 168.5 170.7 173.9 180 186.4 192.4 198.8 207.6 212.8 217.5 222.3 232.1 240.8 248.6 255.8 261.2 266.7 272.3 275.5 278.1 282.5 287.5 293.9 305.3 315.6 323.8 326.1 324.9 321.7 326.2 336 345.5 354.8 368.8 379.3 387.3 392.9 395.2 400.2 401.7 404.5 405.9 404.4 400.3 398.1 400 393.9 372 333.3 298 264.7 239.2 216.1 199.2 194.2 190.8 186.9 179.3 174.8 171.4 168.1 165.4 161.1 147.8 129 119.1 116 115.4 117.2 121.6 128.8 135.6 144.8 146.9 125.6 92.7 80.8 81.2 80.9 80.8 79.1 80.3 82.5 84.8 86.5 90.5 94.5 97.2 104.2 111.8 115.5 119.5 124.3 131.1 140.7 151.1 160.7 177.1 201.1 226.1 256.3 291.6 322.1 353.4 383.1 407.4 423.6 396.1 375.3 365.8 356.4 342.5 327.4 312 304.9 301.9 299.3 308.3 327.2 345 364.8 384.1 403.9 421.6 445.2 467.7 489.2 506.2 520.1 530.3 542.6 550.6 558.9 566.3 568.6 570.6 569.8 563.8 553 531.3 505 477.8 450.9 423.2 397.6 378.6 363.3 352 363 380.9 398.7 416.5 442.2 468.9 500.7 531.6 561.3 589.2 611.8 622.6 621.8 613.6 599.6 581.3 553.2 529.5 513.2 507.1 532.8
206.1 207.2 208 208.4 208.3 206.6 202.6 200 199 197.4 194.7 185.4 174.7 166 163.6 158.9 151.4 143.7 141.6 140.4 138.4 136.8 136.7 137.9 139.3 140.3 144.6 147.7 150.1 153.9 160.9 164.1 165.5 170.4 177.9 183.3 189.8 196 202 208.9 213.7 220.1 227.4 236.5 246.6 253.9 259.1 265.4 272.7 278.7 282.8 287.1 292.8 296.3 306.8 318 327.3 333.7 336.4 338.5 337.5 338.6 343.3 349.8 361.5 368.9 375 380.4 381.7 383.4 386.8 390.3 395.4 400.7 402.5 396.1 396.8 395 371.7 332.6 296.4 265.3 242.2 218.1 200.5 196.6 193.9 191.3 182.4 177 172.6 169.1 167.8 158.4 143.6 128.2 119.6 120.3 118.9 119.4 123.4 132.5 139 140.5 137.1 117.4 90.6 79.5 81.6 81.4 80.9 79.9 80.8 83 85.6 88.1 91 94.3 97.7 103.9 111.3 116.6 123.2 129.6 134.4 143.8 153.7 163.9 180.8 207.3 236.7 266.8 297.4 330.6 364.2 396.6 424.3 439.2 416.4 389.2 375.3 363.1 349.4 344.2 328 312.1 305.4 303.5 302.8 318.2 336.8 356.3 375 394.5 414 434.4 454.7 473.8 486.9 499.3 515.4 530.2 546 558.4 570.4 577.3 580.9 580.2 574.8 563.7 543.7 518.7 489.9 462.3 434.9 407.4 384.8 368.9 357.6 362.7 378.1 396.5 415 437.6 465.1 495.2 525.8 556.2 584.7 610.2 632.2 635.3 625.8 613.7 598.8 578.1 558 538.2 526.3 552.1
209.5 210.9 211.2 211.8 211.6 210.2 206.8 204.1 202.8 200.6 198.6 192.2 181.5 169.8 165.5 160.2 153.6 146.7 146.4 143.8 139.7 137.3 136.5 136.4 136.5 138.8 142.9 144.9 146.4 149.3 154 156.5 159.8 167.3 174.6 182.1 188.6 193.7 198.9 206.6 213.8 219.3 226.4 233.5 242.3 250.7 258 265.7 275.8 284.3 290.3 293.7 297.6 305.8 308.8 316.8 327.4 334.2 339.1 343 345.4 346.6 345.7 348.3 353.2 358.1 360.8 364.7 367.4 369.5 371.8 376.1 383.1 390 397.4 393.8 386.8 379.4 357.7 325.6 297.4 268.2 242.5 215.6 199.9 196.5 193.8 191.2 183.8 179.4 174.1 171.5 168.2 154.8 139.3 124.2 120.4 123.1 121.8 120.9 124.5 134 140.4 136.8 129.5 110.4 93 80.4 81.8 81.6 81.4 80.2 80.4 84.1 86.8 88.9 92.3 95.6 99.2 103.6 109.9 116.9 125.2 133.1 140 146 155.7 168 185.2 211.5 239.9 270 302.2 335.7 372.3 407.3 435.3 442.2 427.6 403 385.2 367.1 361.9 355.5 336.6 321.7 309.5 305.9 303.2 309.4 328.2 346.1 364 382.5 402.3 422.6 442.9 457.8 466.1 478 498.4 520 539.6 558.4 575.6 585.8 591.6 591.4 587.1 577.5 557.4 532.4 503.8 475.3 447.8 418.7 393.8 376.7 362.5 359.8 376 393.6 412.1 434.6 460.5 489.6 519.3 547.6 575.8 603 624.2 635.9 636.3 629.5 620.2 606.2 584.9 565.9 558.5 575.4
214.1 214.7 215.2 215.2 216.3 217.2 215.3 211.5 206.9 204.5 201.6 196.2 186.6 175.1 168 163.8 155.4 149.5 150.1 146.5 141.5 138.7 138 138.8 136 135.9 139 141.2 142.7 144.8 147.8 154.4 159.1 164.3 171.7 179.2 186.1 191.2 197.8 204.6 211.7 219.1 225.2 231.7 239.4 248.3 257.8 265 277.3 291.5 295.9 300.4 304.1 308.3 316 319.9 323.3 336 342.8 347.5 351.6 351.3 348.8 348.9 351 352.7 352.5 352.6 352 354.5 359 364.9 371.6 379.5 389.7 387.4 377 368.8 343.4 313.5 286.3 261.2 237.1 210.9 195.8 193.2 190.3 187.8 183.1 178.8 174.3 171.8 167.1 151.1 135.9 122 121.3 124 124.7 123.5 124.1 131.7 137.5 137.8 130.1 109.9 91.8 80.8 82.2 82 81.7 81.5 81.3 86.7 88.2 90.1 93.4 97.3 101.3 105.2 110.4 118.4 126.7 135.5 143.6 151.2 161.4 172.8 189.2 214.4 242.8 272.8 304.3 337.3 373.2 407.2 435.5 443.5 434 415.9 392.6 367.7 367.7 366.2 348.7 331.3 315.8 310 310.1 308.1 319.1 335.8 353.3 370.5 388.9 408.4 426.6 435.1 441.5 461.2 485.9 512.2 533.5 554.2 577.7 593.9 603.2 605.2 600.9 591.2 570.6 545.1 517.1 487.3 460.9 431.4 402.9 384.5 370 363.8 378.5 391.6 408.8 432 456.4 485 511.6 538.6 567.2 592 614.2 632.5 643.6 641.3 638.3 630.3 613.6 596.2 591 602.2
218.8 218.4 219.2 219 219.2 220 219.8 216.3 211.4 208.2 202 196.1 187.5 179.9 170.4 165.7 158.9 154.8 152.5 148.4 144.6 141.8 147 150.5 145.5 136.3 135.4 138.1 140.3 142.4 147.2 151.8 156.7 162 168.3 174.7 181.9 187.9 193.3 202.7 210.5 217.5 224.9 232 239.8 248.4 256.6 265.2 276.4 287.6 297.7 304.7 308.9 313.2 317.7 326.2 331 330.1 340.6 346.6 349.6 350.3 350.4 349.6 348.5 346.6 343.4 341.6 343.4 346.4 354.1 361.1 364.5 372.2 377.7 377.4 378.6 372.6 342.2 308.9 277 248.8 226.4 207.3 195 190.4 185.8 182.6 179 175.2 168.7 161.9 156.3 144.3 129.8 121.6 121.1 123.7 127.9 124.1 125.9 130.3 135 135.8 127.1 108.5 92.9 81.4 82.6 82.4 82.2 82 81.8 88.6 90.1 91.6 94.6 98.5 103.1 107.4 111.8 117.9 125.7 135.2 145.2 155.3 166.5 180 193.3 216.8 245.6 275.4 304.5 334.4 366.6 396.7 421.1 446.8 444.7 424.8 395.6 386.1 387.5 380.3 364.1 346.7 327.9 315.6 313.9 312.3 316.1 325.8 341.7 357.3 374 389.9 403.6 407.1 425.8 447.8 471.6 494.9 517.9 541.8 569.5 598.2 615.3 618.5 616.1 604.3 583.5 558.6 531.2 502.7 473.3 443.8 415.5 394.5 379.4 366.8 379.6 391.4 406.9 428.3 452.8 480.4 507.2 532.5 560.4 583.4 605.3 626.6 643.3 651.3 655.2 652.6 644.1 629.6 623.6 632.1
223.5 222.5 222.7 222 221 219.9 217.9 214.5 212 208.4 200.2 193.6 188.2 182 173.9 167.1 162.7 158.5 153.9 150 148 147.3 149.6 148.9 145 139 134.8 136.5 138.5 140.4 144.7 148.2 152.9 159.5 165.6 172.1 178.3 184.9 192.4 199.3 206 214.2 223 232 241.7 251.2 260.2 269.5 277.2 286.7 295.9 307.5 314.8 320.9 320.4 325.1 332.2 338.1 336.8 338.7 341 343.5 344.8 345.8 344.5 340.8 336.3 336.3 338.8 341.8 347.6 358.7 365.9 369.3 373.3 380.1 387.9 370.9 336.5 302.9 270.7 241.1 218.3 201.7 192.8 187.3 182.7 178.8 172.7 168.4 159.6 152.7 146.1 136.3 124.5 120.5 120.4 124.7 133.4 124.5 123.6 132.5 134.6 131.4 122 106.2 93 81.3 83.1 82.9 82.6 82.4 82.3 89.9 91.8 94.5 96.6 100.1 103.9 108.4 113.3 118.2 125.5 134.7 144.6 157.6 170.4 181.6 194 215.4 243.3 272.3 301.2 327.7 351.8 376.4 399.8 423.6 442.7 429.5 407.4 407.2 408.9 398.6 383.1 365.5 348.5 330.7 319.6 319.8 315.2 322.3 329.8 339.9 352.9 365.7 377.6 389.9 411 430.7 453.5 477.8 504.4 532.7 563.3 594.9 620.9 629.9 631.3 619.9 596.9 573.6 547.3 518.7 487.8 457.7 427.4 401.3 385.2 369.1 380 391.6 405 425.8 449.9 476.6 503.1 528.1 552.1 574.8 598.6 623 647.4 664.7 674.7 676.1 668.4 658.7 655.4 659.2
228 226.7 225 224 222.7 221.1 219.7 216.9 210.5 206.3 200.1 194.4 189 183.5 178.4 171.7 166.3 159.2 153.7 150.8 148.4 145.9 145.1 144.1 140.3 135.7 133.5 134.7 136.5 137.9 141.9 146.5 150.9 156 162.2 169.2 175.3 182 188.8 196.7 204.3 211.6 220.8 231.7 242.1 252.9 262.5 271.8 282.2 289.7 296.5 304.8 321.3 330 340.6 330.9 332.2 340 342.3 343.6 343 347 348.1 345.5 341.8 336.4 332.8 332.5 335.5 340 346 354.6 364.6 374.8 385.2 389.3 382.8 362.6 329.5 295.3 263.3 234 211.1 197.3 189.4 183.6 179 173.1 167.4 161.2 153.9 147.5 140 131.4 121.6 120.4 119.9 124.5 125.7 120.2 121.3 125.6 125.7 123.7 116.5 102.4 94 81.3 83.2 83.1 82.9 82.7 82.4 87.1 91.3 94.4 98.7 102.1 105.8 110.6 117.1 121.9 125.4 137.9 148.7 160 175.6 191.5 210.2 230 234 255.4 281.3 307.1 331.6 354.2 380.6 406.3 425.6 413.2 422.1 430.2 429.9 420.6 404.9 388.1 369.2 351.2 333.9 328.5 324.8 321.2 324.3 330.2 337 349.3 360.8 379.6 393.4 414.3 440.9 469 499 529.7 559.8 591.3 621 639 643.3 635 612.2 590.1 564.2 534.1 502.2 471.3 440.8 413.7 393.2 372.4 382.6 393.7 403.2 424.5 446.9 473.5 499.4 522.5 546.2 571.7 596.9 622 649 675 694.9 694.4 689.1 682.6 678.4 679.4
230.3 228.8 226.9 224.8 223.1 221.5 219.1 216 212 207.1 202.3 197.7 191.9 186.6 181.2 176.1 170.3 162.8 157.7 154.7 153 150 146.9 143.7 139.9 138.1 132.9 133.6 134.7 136.2 140.8 144.8 149.8 154.3 159.3 166.8 172.7 178.3 184.5 193.6 202.6 209.4 218.3 227.7 240.7 252.5 261.2 269.5 279.8 291.9 300.4 306 315.4 329 336.7 346.3 335.4 343.8 350.2 351.6 347 345.8 349.2 345.1 342.1 336 330 328.7 333.1 339.1 348.6 362.6 374.4 386.6 397.2 399.6 379 348 316.2 285.3 255.7 227.7 207.8 197 188 180.3 173.9 168.4 162.3 155.7 148.5 142.7 134.6 125.6 121.6 119.7 117.6 118.7 119.4 116.2 119 118 116.1 113.3 108.4 97.1 87.5 82.8 83.5 83.3 83.2 82.8 82.8 86.5 90.7 93 99 105 109.3 114.7 121.4 127.2 132.1 139.2 151.2 167.1 185.6 202.5 221.2 242.8 262.5 274.9 276.7 283.9 308.2 336.9 366.8 393.6 412.8 428.7 442.9 449.3 450.5 444.2 427.9 410.5 392.1 373.2 353.3 339.3 339.6 341.4 344.5 345.9 343.9 342 351.5 367.3 387.9 411.3 437.5 466.9 496.9 526.4 556.8 587.1 616.4 641.5 653.4 649 631.6 607.1 578.4 548.3 516.9 484.3 451.9 424 405.2 386.7 380.6 393.9 404.9 422.7 446.9 472.7 495.4 518.6 542.4 567.9 595.1 622.2 651.6 681.9 704.8 710.7 705.3 700.2 696.7 693.9
230.9 229.4 227.2 225.4 223.8 222.1 219.9 217.8 214.6 209.2 206.2 202 196.5 191.2 185.5 180.2 173.8 168.4 163.1 165.5 161.9 159.4 155.1 150.8 144.7 138.1 132.7 132.4 132.9 135 138.3 142.7 147.5 151.1 156.7 164.2 168.5 173.9 179.9 188.5 198.4 206.9 216.1 226.6 243.9 255.1 261.1 268.5 277.6 289.3 302.5 311.3 316.2 329.5 335 341.1 344 342.1 348.9 351.4 353.1 348.5 347.4 344.7 341.6 337 327.3 324.9 328.5 342.1 354.1 368.4 387.7 397.2 409.6 407.8 379.5 344.3 309.7 280 250.8 225.1 208.9 197 187.4 178.5 170.6 163.5 156.2 150.7 144.5 138.5 132.4 126.6 122.5 118.3 115.3 116.4 117.5 112.1 110.9 112.4 108.4 104.9 99.9 90.5 83.2 83.6 83.7 84 84 84.4 84.5 90.7 95 96.4 101.3 106.5 112.8 119.9 127.1 132.4 136.3 142.7 159.5 178.8 196.3 213.8 232.6 253.4 277.4 298.2 308.4 316.2 312.5 324.3 354.3 380.9 406 434.3 457.7 470.9 471.9 467.7 451 432.6 413.5 393.2 371.8 349.7 354.2 359.3 362.9 365.9 366 363.4 359.7 360.2 381.8 405.3 432.2 462 492.2 520.5 551.4 582.7 614.7 646.5 667.9 667.1 649.1 623.3 592.4 562.4 530.8 497.8 463.8 434.6 415.7 396.4 386.3 393.4 403.8 422.9 446 469.3 492.9 516.8 541 567.4 594.9 623.1 651.6 679.4 703.8 715.4 717.7 714.4 712.1 699.8
231.6 229.8 227.9 226.7 224.8 222.9 221.7 219.2 216.8 213.4 209.5 206.3 203.1 198.6 193.7 186.5 179.6 176.8 174.8 173.1 169.3 164.5 159.8 154.9 148.7 141.8 134.1 131.9 132 133.7 137.5 141.3 145 149.7 155.3 159.6 164.1 170.1 175.7 183.4 192.5 203 212.3 226.3 250.6 263.7 265.9 271.2 278.2 287.4 301.5 314 327.5 329.7 337.5 341.6 347.1 347.9 348 348.1 350.7 351.8 349.4 349.3 344.5 333.7 324.4 321.6 324.5 337.7 353.9 369.9 392 407.2 410.9 412.7 384.3 346.4 307.4 277 248.2 221.5 206.9 196.4 186.2 175.7 167.3 160.9 153.8 145.9 141 135.8 132 126.1 121.4 117.2 114.2 113.8 112 107.9 107.1 105.1 100.6 97.6 93.7 87.8 82.2 84.3 84.6 84.9 85.4 86 84.6 92.4 98.6 101.7 103.5 108.4 114.9 125.5 132.7 137.8 141.6 150.5 165.4 183.4 202 223.4 245.3 266.4 294.7 319.6 336.8 344.7 345.4 329.7 344.4 373.1 398.3 427.2 458.3 484 492.4 487.7 471.5 452.6 432.6 411.4 389.8 360.6 374.5 380.3 385.7 387.6 387.9 389.8 386.1 377 374.9 399.3 424.5 453.7 483.6 513.6 544.6 577.2 611.3 644.4 673.4 685.1 666.9 639.6 608.8 577 543.1 509.6 477.3 445.3 423.5 406.4 391.9 402.8 415.3 418 441.2 462.8 488.5 514.3 539.8 566 592.3 619.9 648.2 675.3 700.8 719.2 727.2 728.1 724.2 698.1
232.7 230.5 229 228 226.9 225.6 224.3 222.8 220.4 218.5 216.2 212.9 208.8 204.1 198.9 190.7 185.5 185.8 185.2 186 175.9 170.6 164.6 159.2 153.7 147.8 136.8 131.8 131.5 131.3 133.1 137.7 142.9 148.2 152.3 156 160.5 165.7 171.5 176.7 184 194 207.6 222.2 248.4 273.3 278.2 275 280.2 286.7 300.5 314.5 324.9 334.1 340.1 345.7 350.4 355.1 356.7 353.3 352.8 353.8 354.3 351.6 344.3 332.8 321.9 319 323.1 333.5 353 376 395.4 406.3 407.8 407.9 379.2 340.1 304.2 273.6 244.1 220.7 206.9 195.5 183.3 173.4 164.2 157.4 151.7 145.6 139.7 133.8 128.4 124 120.3 116.1 113.2 111.9 111.6 107.4 104.8 99.5 96.5 92.5 88.2 82.3 84 84.8 86.1 86.5 87 87.3 87.2 94 101.6 106.4 107.6 111.2 116.5 129 136.7 142.7 148.3 157.2 171.5 189.6 212.6 241.1 261.8 286.5 315.6 343.7 363.4 369.2 369.7 358 340.9 369.6 396.2 426 457 487.9 504.3 502 487.2 468.9 450.7 430.7 406.3 378.1 391.5 402.7 409.4 410.5 413.2 414.1 413 405.5 389.7 390.2 416.8 446.2 475.3 507.5 540.5 574.8 608.7 642.9 674.3 700.3 682.6 652.6 620.1 586.5 552.4 517.7 483.9 452.6 431.7 415.5 399.8 409 421 434.1 446.9 460.9 483.4 510.3 537.5 563 589.9 617.7 647.5 675.1 700.5 722 737.2 743.6 732.4 697.2
232.7 230.7 229.6 229.1 228.1 228.1 228.6 227.4 226.3 225.5 222.4 218.5 213.8 208.5 202 197.1 201.4 198.9 196.3 199.9 185.4 178.3 173.1 166.1 159.5 153 143.7 135.6 131.2 130 130.5 134.4 139 143.8 148.9 153.3 157.2 162.1 167.1 171.3 176.7 183.4 195.1 209.8 228.5 257.4 268.7 276.2 278.7 282.7 298.5 318.6 332.7 346 350 347.8 355.3 358.8 362.4 368.6 365.1 361 360.5 356.1 344.4 330.5 318.5 316.6 324.3 333 353.7 375.4 398.2 408.4 410.3 402.3 368.9 333.9 300.2 268.5 241.8 222.9 208.2 194.3 180.1 169.3 160.4 153.3 148.2 142.7 137.8 131.6 127.4 121.9 119.4 115.2 112.2 110.2 107.6 106.7 104.7 102.2 94.5 87.6 82.8 85 84.4 86.2 87.2 88.1 88.5 88.6 88.9 95.2 102.8 107.9 110.1 111.7 119.3 129.9 138.9 146.2 153.2 163.3 178.3 199.5 224 257.9 283.3 311.6 340.2 369.6 391.9 399.5 399.4 387.9 370.4 361.4 390.9 420.3 452.8 485.4 510.3 515.6 506.1 489.2 470 448.8 424.9 397.1 408.3 425.9 433 436.7 440.1 441.4 440.4 434.5 418.1 399.1 414.9 442.9 471.9 505 539.7 575.1 607.4 640.6 673.3 700 684.3 655.7 624.1 589.9 555 520.8 487.4 457.6 436.1 421.7 404.9 419.3 426.5 438.8 453 472.3 494.3 515.1 530.8 563.4 590.4 616.9 644.2 670.3 696.8 722.5 742.7 750.3 742.6 711.3
231.3 230.4 230.3 230.2 230.4 231.1 232.1 232.5 231.2 228.9 225 220.3 215.3 209.8 204.4 205.6 212.4 213.6 209 211.3 196 184.3 179.3 174.4 165.8 159.1 149.4 141.7 137.1 133.4 129.3 130.3 134.2 137.5 142.3 149 151.8 156 160.8 165.6 171.1 178 186.9 197.4 210.9 224.1 241.1 259.9 271.4 276.4 291.3 314.5 342 360.4 363 360.2 357.6 363.2 368.8 374.9 377.8 373.6 371.1 357 339.3 324.2 314.8 315.3 325.3 335.2 353.9 374.4 400.6 413.4 416.8 400.4 362.3 327.6 294.6 265.7 244.5 228.2 212.5 194.7 179.7 167.5 156.9 148.3 144.4 140.4 134.9 130.3 125.4 120 118.2 114.6 111.4 109.7 106.8 106.9 105 98.8 90.1 85.4 85.4 85.5 85.9 87.2 88.2 89.3 89.7 89.7 89.4 95.7 101.7 106.5 109.3 110.8 119.2 130.9 144.1 150.8 159.1 169.8 185.6 205.6 231.2 262.1 298.1 335.2 366.8 396.2 421.8 427.8 422.4 412.7 399.2 382.7 385.5 414.2 446.4 480.5 510.3 527.4 526.3 508 489 467.8 445.5 422 417.7 444.9 455.7 461.4 465.8 468.6 468.9 461.8 445 424.8 414.6 443.8 473.9 504.4 537.3 570.7 603.5 635 659.5 681.7 682.9 656.7 627.1 594.1 557.8 521.7 488.5 460.5 444.3 431 412.7 426.2 433 443.4 457.6 478 500.7 526.1 551.6 573.3 597.4 625 650.3 677 703.9 730.2 752.9 765.1 754.3 717.7
229.4 230 231.2 232.5 232.7 233.2 234.1 233.4 229.8 225.8 222.5 219 215.8 212.6 211.6 213 219.9 225.9 218.2 211 204 189.6 183.2 177.1 170.7 163.5 155.1 147.1 140.6 136.3 132.1 128.2 129.4 131.8 137.3 144 146.5 149.8 155 160.8 165.5 172 180.5 190 200.7 212.5 226.9 239.6 253.8 263.9 279.3 301.7 331.4 361.6 371.4 369.3 370.4 367.8 372 378.9 385.9 383.3 372.6 350.5 334.9 319.5 309.4 316.1 323.1 339.4 352.5 374.7 399.4 412.4 421.1 402.8 365.4 328.5 293.7 266.6 247.2 233.6 215.5 194.7 177.4 165.8 153.6 145 140.7 137.4 132.6 129 124.6 120 116.3 113.4 113.5 112.3 108.9 107.6 105.3 98.3 89.9 83.8 86.3 86.1 86.3 88.3 89.4 90.5 91 91.7 91.8 94.4 99 103 105.8 110.7 118.7 131.9 144.4 156.1 166.6 179.7 195.4 215.3 241.9 273.9 306.6 342.4 383.6 422.5 448.4 453.1 450 438.2 427 411.5 394.5 412.7 441.5 476 507.5 531.4 542.3 529.1 509.7 489.5 468.2 445.5 436.1 463.8 479.3 486.4 490.7 495.6 495.8 489.1 470.9 449.8 426.5 445.8 475.2 504.4 533.8 563.4 592 616.1 639.2 660.7 679.1 659.1 631.2 597.6 559.7 523.1 490.2 464.1 450.3 437.1 426.9 433.1 441.7 450.7 465.2 483.5 508.8 534.8 560.4 585.9 609.2 636.2 662.7 688.9 717.1 742.3 764.4 776.4 764.3 730
226.4 227 229.7 232.7 232.9 233.9 236.7 233.3 227.3 222.2 220.4 218 216.4 216.2 217.3 222.2 226.7 238.2 231.5 218.3 211.7 197.3 187.9 181.7 173.9 165.8 158.7 151.3 143.8 136.9 132.4 128.8 127.6 129.6 135.3 139.3 142.2 145.2 149.4 155.3 160.9 167.3 173.8 181.4 191.9 201.6 213.8 225.4 237.5 252.2 264.9 284.7 313.3 342.7 368.5 382.9 378.4 375.8 377.4 379.8 381.4 378.9 363.7 344 329.2 315.3 304 318.9 328.3 341.3 357.4 376.1 398.6 412.5 418.5 403.4 366 332 298.9 267.8 249 236.9 218.7 194.8 173.3 160.6 149.1 141.6 136.8 133.1 130.1 127 122.5 119.2 116.4 115.7 115.7 113.8 109.1 106.5 104 99 92.2 83.8 86.9 86.6 87.3 89.4 90.6 91.7 92.4 93.2 93.7 96.2 99.1 103 103.3 111.9 119.7 132 145.7 158.5 173.4 188.5 206 227.6 253.4 283.7 316.8 350.9 388.7 428.5 467.1 478.7 476.3 466.2 453.3 438.2 421.9 413.7 441.2 475.1 507.2 534.6 552.7 550 531.5 512.6 492.3 470.3 455.5 483.7 501.6 509.6 515.1 519.8 520.8 514.3 497.8 476.6 455.5 439.8 473.5 500.9 526.4 551.1 574.9 598.8 624.1 648.9 668.3 662.9 635.9 603.2 567.9 526.8 491.6 466 453.6 442.7 433.2 441.9 449.8 460 473 492.4 517.5 544.6 570.2 595.5 622.6 648.7 676.4 705.1 732 754.5 779.1 783.1 767.7 736.6
221.1 222 224.9 229.5 230.4 230.5 230.6 225.5 219.9 217.9 216.8 215.3 216 219.1 222.4 226 237.1 238.1 231.4 224.8 216.7 207.3 199 186.2 178.6 170.4 163.9 156.6 149.8 139.2 130.9 127.8 126.3 126.9 131.2 134.6 137.6 140 144.3 149.7 155.6 160.9 166.9 173.2 181.5 190.4 200.8 212.6 224.1 237.9 253.7 268 292.2 320.7 349.4 376.8 387.8 383.8 387.4 384.8 382 373 356.4 340.8 322.1 310.6 301.6 321 335.2 345 361.9 380.1 398.9 415.9 418 396.7 362 331.7 299.1 267.1 248 235.3 219.4 194.6 171 156 145.5 137.5 133.8 130.2 127.5 124.6 120.9 118.4 117.2 118.4 116.6 113.5 109.8 104.7 101.1 98.1 92.3 85.2 86.2 87.3 89.1 90.6 92.2 93.3 94 94.7 96.2 99.8 103.2 105 106 112.7 123 136 153.6 169.9 184.9 198.7 218.1 238.5 265.1 296.5 332.1 364.7 398.4 433.2 468.4 495 499.7 491.3 481.4 469.2 455.1 440 446.4 480.6 513.1 542 565 570.1 554.6 534.8 515 495.7 479.1 503.5 524 536.4 540.8 544.1 544.9 538.6 524.5 504.1 485.4 471.7 477.1 492.9 518.9 542.1 564.8 588.8 614.4 641.1 670.8 671.6 645.6 610.7 571 532.7 495.9 470.1 455.9 448.7 444.1 450.9 460.7 469.3 482.2 501.8 529.1 557.3 582.5 609 637.1 663.9 690.2 717.9 746.1 770.5 784.3 767.5 737.9 711.1
213.5 214.7 218 221.6 220.1 218.3 216.5 215.1 214.6 214.5 214.4 215.5 217.2 218.2 220.9 225.8 239.7 241 237.5 233.5 227.9 220.8 207.7 194.4 181.7 174.5 168.4 160.8 153.5 144.1 132.8 127.6 125.7 125.5 128.2 130.1 132.3 133.3 134 140.9 147.5 153.3 158.7 165.5 172.1 179.4 188.4 200.1 215.1 225.7 241.7 256.3 275.1 303.8 332.3 355.3 371 383.9 388.2 387.6 375.3 362 346.3 329.2 315.7 301.7 300.4 321.1 338.2 351.8 365 380.3 392.3 403.9 407.8 384.8 352.8 324.8 294 265.2 244.7 229.7 213.7 189.1 168 152.1 142.1 134.6 130.1 127.6 125.3 122.1 120 117.5 116.9 118.4 116.1 111.9 107.5 102.5 98.7 95.4 90.3 85.8 88 89 90.4 91.8 93.5 94.8 95.6 96.6 98.5 102.8 106.4 108.5 111.1 116.9 129 142.9 164.1 182.6 200.5 214 234.5 254.7 276.8 303.7 336.8 373.6 402.5 434.3 467.6 498.8 516.4 518 510.7 499.5 486.8 472.3 458.2 490.2 522.4 552.5 577.8 588.1 574.4 556.7 538.2 520.5 506.8 522.3 542.4 559.7 566.5 567.7 567.7 563.8 551.2 533.3 516.5 505.1 505.9 509.2 516.5 542.6 564.6 589.4 614 642.3 667.9 674.9 651.2 619.1 581.8 537.7 503.6 477.8 461.9 455.5 453.3 459 472.3 480.3 491.6 513 541.1 568.9 596.2 625.1 653.2 677.4 701 727.6 755.6 767.5 765.3 742.4 713.3 681.9
205.6 206.3 208.4 210 210.4 210.5 210.7 211.8 212.2 212.5 213.9 214.6 216.5 219.8 223.1 226.1 233.3 241.4 242.5 240.1 235 226.2 212.6 202 188.9 179.5 172.2 163.7 155.7 144.9 133.4 129.3 126.2 124.5 124.6 125.5 126.8 127.3 128.1 132.7 139.4 144.9 151.1 157.5 163.1 169.1 177.2 186.7 201.5 220.1 231.2 245.6 265.3 292.7 317.6 341.1 357.2 369.2 378.8 376.4 365.8 349.9 334.3 317.6 302.7 292.1 297.9 315.1 334.8 358 375.9 387.4 392.1 396.1 401 380.8 346.9 316.5 291.7 269.6 245.3 221.6 203.6 184 165.1 148.4 136.5 129.5 126.6 124.7 123.2 121 119.3 116.8 114.8 115.9 115.3 110.8 104.8 99 95.9 91.6 87.7 84.1 84.9 89.1 90.6 92.5 94.4 96 97.1 98.3 101.6 106.1 110.2 113.3 115.4 123.1 135.4 150.7 180.3 196.4 206.8 220.5 242 266.1 290.3 315.8 341.2 363.8 390.8 426.1 459.8 492.2 524.4 541.6 539.7 530.1 517.2 502.3 486.8 505.5 535.3 565.2 592.2 607.2 598.2 582.5 565 547.4 536.4 541.3 560.1 577.5 591.3 593.9 592.1 588.1 577.9 562.4 547.1 537.6 536.2 537.1 539.8 545.5 571.8 596.2 618.4 641.4 664.1 681.6 661.3 631 590.3 548.4 511.9 484.3 467.1 466 465.5 467.7 480.9 492.5 502.2 526.9 553.8 581.9 607.7 638.2 664.5 690 714.7 742.2 750.3 744.2 730.3 710.5 687.7 661
200.5 201.8 201.8 202.8 203.9 204.8 206.9 208.6 210.3 211.3 212.5 215.8 218 222.1 225.7 228.8 233.4 240.5 243 242.1 238.2 231.1 219.4 209.1 196.8 184.3 173.9 167.5 158 146.6 138.1 134.7 127.5 124.5 123.5 123.5 123.4 123.3 123.9 126.9 131.1 136.4 141.7 148.1 152.6 158.4 165.7 172.1 185.2 207.5 223.7 238.4 261.4 277.9 303 322 335.1 346.7 354.5 362 353.4 338.7 321.8 306.6 291.1 285.9 291.9 314.9 338.6 359.6 385 394.3 397 398.7 394.9 374.4 343.5 318.4 302.2 276.5 250.7 220.1 199 178.8 156.9 139.3 128.9 124.4 123.2 121.9 120.7 119.7 118.1 115.1 112.1 112.3 112.4 108.9 101.6 85 86.7 84.2 90.8 87.8 89.1 90.4 91.6 92.8 95 96.4 97.9 99.1 103.8 109.7 115.6 119.3 123.8 128.4 139.6 160.7 181.1 199 214.6 230.2 250.4 272.8 294.6 327.8 362.3 389.7 400.2 413.8 442.3 475.8 508.4 539.4 561.8 559.2 545.6 529.6 519.3 525.4 552.6 580.6 607.7 626.5 621.6 608.5 591.5 575.5 565.9 568 579.1 595.4 612.1 619.8 618.3 613.8 603.6 590.3 576.7 568.1 565.2 565.2 569.2 573.7 584.4 594.6 621.7 644.2 666.7 690.1 675.8 645.4 610.7 561 519 491.3 473.9 473.5 475.9 476.4 489.3 503.9 519.1 540.2 564.6 591.8 617.3 646 674.8 703 729 738.4 731.1 719.8 700.6 677.9 655.4 627.6
196.2 196.4 198.5 199.3 201.2 203.1 204.9 207.3 209.9 211.3 216.3 221.3 225.4 227.7 229.8 233.8 236.6 245 243.5 241.8 241.8 234.5 222.8 210.5 196.9 186.6 175.3 167.9 159 150.5 147.5 144 136 125.1 123.1 122.6 122.6 121.9 121 121.6 124.5 128.3 134.1 138.1 144.9 150.6 155.8 161.7 173.1 190.1 209.4 229.2 246.3 268.4 287.5 303 316.1 326 331.3 337.1 337.2 326.4 310.4 295 284.1 281.5 290.1 309.8 338.7 354.1 381.1 404.9 401.7 391.7 387.3 377.4 349.3 321.2 309.2 281 252.3 219.9 196.9 174.3 151.9 134.2 126.3 122.3 120.2 119 117.8 116.5 114.5 112.7 109.9 110.8 109 103 97.4 86.7 94.4 97.1 95.9 89.4 90 91.5 92.7 93.9 95.5 97.4 99 100.5 104.8 111.3 117.7 124 129.1 132.7 143.3 162.1 183 203.6 225.6 246.8 263.5 281.5 308.4 344.8 379.8 412.9 433.2 444.6 455.3 467.5 493.2 526.5 561.2 585.1 574.5 560.2 548.9 549.6 572.3 598.1 624.2 646.7 646.1 633.2 618 603.9 596.8 595.8 600.9 612.8 627.7 642.5 646.7 639.4 629.5 617.8 606.9 597.9 595 594.3 596.8 601.5 607.8 619.1 634.3 652 675.2 698.4 696 665.8 636.9 587.8 526.7 502.7 484.6 480.7 485.3 489.3 500.9 515.8 532.8 552.9 578.7 601.3 626.5 654.4 682.1 710.7 724.2 719.6 711.7 698 678 654.6 628.3 602.7
193.9 199.1 202.1 202.4 201.8 202.4 205 207.5 210.5 213.1 220.8 228.3 236 237.9 238.8 240.6 243.1 245.9 247.6 244.5 240.8 239 230.3 215.7 200.8 191.3 183.3 173.4 161.7 156.4 152.3 149.7 143.2 132.2 123.7 121.3 121.6 121.4 120.9 120.9 120.9 120.9 121.4 128.1 135.3 140.9 146.6 153.1 161.2 175.8 195 218.3 238.6 255.4 274.2 290.9 300.4 305.1 311.3 315.7 321.2 321 306.4 290.3 280.8 277.8 290.4 313.8 334.9 357.5 387.9 412.2 411.2 395 381.8 376 349.6 321.9 307.2 281.1 248.8 219.9 196 168.5 142.6 126.9 122.3 120.8 118.6 116.1 115.6 113.5 111.6 109.7 107.9 111.1 109.9 103.5 94.3 93.2 96.7 99.1 97 91.1 91 92.4 93.9 95.4 97 100.9 101.8 101.9 102.6 109.2 117.8 125.2 129.1 133.3 146.5 163 186.9 206.9 227.1 251.6 274.5 294.2 322.5 356.4 399.6 434.8 459.9 476.9 488 496.3 503.3 522.2 555.1 591.5 601.9 592.2 581.1 579 594.1 615.5 639.5 662.5 669.2 656.5 644.3 634.3 627.5 626 627 633.2 645.3 664.5 674.4 665 651.6 640 632.4 626.6 623.5 623.4 625.7 629.2 634.4 645 658.1 672.9 689.7 708.2 723.2 678.8 622.9 575.1 535.6 512.1 493.4 487.8 492.3 498.5 512.9 531.4 549.7 571.7 593.2 613.5 635.4 662.9 684 701.1 708.6 702.2 693.5 682.7 672.7 659.2 621.3 594.4
198.5 202.4 206 207.3 206.9 205.7 206.4 209.7 213.2 217.4 224.6 236.7 246.2 250 247.7 244.7 247.2 249.7 252.9 249.8 243.6 237 231.7 223.4 209.5 196.8 189.6 178.5 166.6 160.7 156.2 154 148.2 139.2 128.4 120.9 120.9 120.9 120.9 120.9 120.9 120.9 120.9 120.9 124.6 129.6 136.3 145.7 155.5 166.8 182.7 201 221.7 247 262.7 276 282.2 286 288.9 298.9 309.9 309.1 299 283.2 274.1 271.3 292.6 317.1 338.2 362 384 400.3 405.8 399.6 386.1 365.3 338.1 310.8 293.8 274.5 245 217.9 191.8 162.5 138.7 122.3 119.7 119.9 117.8 115 112.2 110.9 109.4 109.1 108.3 106.8 107.1 102.5 86.4 95.5 99.6 102.6 102.3 94.8 91.4 92.8 94.3 95.8 97.7 102.1 104.3 103.4 104.2 107.6 117.2 123.5 127.3 132.9 146 161.1 187.7 212.2 234.1 259.5 283.5 306.9 337.2 375.5 411.8 453 484.7 506.2 520.5 529.9 535.2 542.1 557.9 591 626.1 622.2 611.8 608.1 617.1 633.2 650.2 671 685.6 677.2 671.1 664.9 659 657.1 654 658 664.8 680.4 697.4 688.6 671.9 660.5 655.6 654.2 651.9 652.7 656.9 661.2 665.6 674.7 687.4 701.1 716.3 730 726.8 668.3 628.9 577 544.6 518.1 499 491.4 496.5 509.7 529 549 569.6 591.1 611.2 631.7 654.7 679.4 691.8 699.4 702.2 691.9 675.2 654.1 638.6 624 590.8 563.2
199.9 204.7 208.3 210.7 211.2 210.8 210.5 212.8 216.1 221.3 228.6 239.4 252 252.9 252.3 248.3 249.6 251.8 255.9 253.7 246.8 240.9 236.6 226.7 215.8 202.3 193.7 182 171.2 162.7 156.3 153.2 149.5 142.4 132.7 122 120.9 120.9 120.9 120.9 120.9 120.9 120.9 120.9 120.9 122.9 128.9 138.1 146 156.3 171.3 188.8 206.5 225.9 244.5 258.9 265.6 271.1 279.6 286.8 294.6 294.3 282.8 273.9 262.1 267.3 289.2 313.2 334.9 357.5 378.4 392.5 398 398.1 383.8 363.7 329.5 298.5 281.8 262.5 237.8 212.6 184.9 155.9 131.2 120.3 117.5 118.2 116 113.4 111.1 109.6 109.3 111.1 110.8 105.6 102.8 93.4 95.7 98 99.7 104.3 104.6 96.8 92.4 93.2 94.5 96.2 98 99.6 101.6 103.2 105.2 106 113.3 120.4 125.7 131 142.4 158.6 185 210.8 238.1 267.4 293.9 320.4 349.8 388.5 428.3 464.3 501.1 532.1 550.6 562.8 569.6 575.6 584.7 602.8 635.1 648 639 635.4 641.2 650 661.8 676.2 693 696 695.8 694.1 690.4 684.9 679.6 680.1 684.3 694.2 700.5 698.8 698.8 691.4 680.6 677.2 681.1 682.4 690.5 697.1 702.7 711.6 728 738.9 749.5 760.9 718.3 687.4 652.7 595.4 557.7 532.2 514 508.9 515 529.8 549.8 570.3 592.3 614.2 634.5 655.7 681.4 700.3 704.5 699.9 683.7 666.8 643.3 621.6 602 587 564.6 533.5
200.6 205.5 210.5 212.8 214.6 215.7 216 215.4 220.8 226.3 236.4 242.9 250.2 251.6 253.8 252.9 252.7 255.9 259.7 256.3 252.4 246 241.3 236.9 223 212 199.4 186.2 173.2 163.8 155.9 151.1 148.6 143 134.2 124.4 120.9 120.9 120.9 120.9 120.9 120.9 120.9 120.9 120.9 120.9 121.8 130.7 139 147.4 158 180.8 197.1 212.6 224.8 241.4 255 265.2 280.4 275.1 276.2 276.9 269.8 258.3 253.2 265.3 281.4 295.9 317.3 343.2 358.6 374.6 377.6 375 368.4 349.3 318.6 286.7 277.8 251.8 227.5 201.1 173.7 146.9 125.6 119.5 116.9 115.4 113.9 111.9 111 110.1 111.2 113.6 112.3 105.9 100 86.7 100.6 104.4 103 104.6 106.4 100.1 93.3 93.8 94.8 96.3 98 99.4 101.3 103.1 105.6 107.7 109.7 115.3 122.4 127.6 138.8 154 177.4 207.5 237.9 272.9 304.9 328.2 361.8 403 441.3 481.1 513.4 556.4 576.9 592.2 602.7 611.8 621.4 633.3 645.9 661.2 661.7 659.9 661.8 665.6 674.1 684.6 700.8 710.9 713.3 712.2 712.2 707.5 701.7 700.9 698.5 685.1 679.5 672.7 671.6 664 670.5 668.3 677.4 687 703.2 727 734.4 733.8 737.9 744.7 751.3 758.7 745.7 728.3 687.7 641.5 582.6 553.4 540.3 534.7 543.5 557.5 575.9 596.9 621.2 643 661.2 686.5 704.1 710.7 696.6 683.1 665.7 639.4 614.7 594 573.6 553.7 535.8 510.4
204.1 208 213.1 216.3 218.8 219.7 220.7 221 223.2 230.2 237.6 244.6 247.5 250.1 252 253.3 254.4 257.5 259 257.5 252.8 249.2 245.5 239.8 229.6 217.8 204.5 190.2 181 168.2 155.9 150.9 147.6 142.1 133.6 126.4 120.9 120.9 120.9 120.9 120.9 120.9 120.9 120.9 120.9 120.9 120.9 120.9 129.4 136.6 148.6 162.5 185.5 204.4 220.5 235.3 251.4 262.3 266.8 264.7 266.2 267.2 260.3 256.2 247.9 251.8 263.1 273.9 288.1 314 333.1 347.3 348.5 346.6 338.8 324.6 307.4 275.8 258.6 236.7 214 187.4 161 137.4 123.6 120.8 120.3 116.9 112.8 110.5 110 109.6 111 113.4 109.9 104.9 98.5 89.6 102.8 105.3 103.4 105.8 105.9 101.1 96.4 93.8 94.9 96.3 97.9 99.2 101 102.9 105.9 111.7 109.2 113 119.2 124.9 134.9 150.5 171.7 201.8 234.1 267.8 295.7 327.5 361.8 399.1 442 485.5 518 552.7 589 613.8 628.7 640.4 649.8 657.5 662.6 669.4 676 676.5 678.4 681.7 689 695.6 692 693.3 694.9 697.2 695.3 688.2 694.5 700.5 687.5 664.8 645.7 641.4 645 632.9 638.2 635.4 646.5 656.9 683.4 706.7 711.2 712.9 717 723.4 733.5 747.9 748.4 738.9 724.6 686.2 637.6 598.4 576.9 570.7 575.4 590.6 612.7 637 657.9 679 697.7 716.9 724.4 700.5 679 657 635.4 610.9 589.5 568.7 547.3 525.2 503.9 483.3
208.2 210.9 214.4 219.7 222.3 223.9 224.8 226.3 228.9 232.7 235.5 241.3 247 249.6 251.7 253 254.2 255.3 255.9 256.3 255.9 251.5 248.3 241 233 221.5 209.7 205.2 188.9 178 166.3 155 148.1 143.6 135.8 131 123.4 120.9 120.9 120.9 120.9 120.9 120.9 120.9 120.9 120.9 120.9 120.9 120.9 128.5 136.5 145 158.8 181.1 206.5 227.5 242 248.7 255.6 256 255.3 253.6 250.8 246.1 241.1 247.1 255.7 269.8 281 288 300.8 311.2 322.4 318.8 311.7 302.6 288.5 257.7 240.3 224.3 203 175.2 150.9 131.4 123.9 121.4 121 117.4 113.1 110.7 110.2 109.2 108.8 109.3 106.9 101.7 90.4 96.4 101.6 102.3 104.3 106.3 107 102.2 96.7 94.5 95 96.3 97.8 99.3 101.2 106.3 113.8 116.1 112.2 112.8 117.6 123.2 129 142.8 166.5 194.7 223.6 256.4 292.7 326.8 365 401.7 434.7 467 500.3 536 572.2 612.1 642.5 652.6 661.1 668.8 674.6 680.5 687.2 690 690.8 690.5 689.3 679.2 665.2 659.6 659.7 658.9 661.5 648.3 660.4 670.9 663.1 642.1 616.1 603.3 610.4 602 594.6 598.8 607.5 640.7 665.8 681.3 685.4 687.8 692.4 699.8 715.9 735 738 738.3 733.8 723.3 695.5 667.9 635.1 632.7 633.8 652.4 670 686.4 706 716.1 729.7 732.4 713.6 684.9 658.8 633.4 609.4 587.7 566.7 545.6 523.2 501.3 478.7 456.7
213.3 216.2 218.2 221.4 225.2 228.1 229.5 231.8 234 237.1 240.4 243.7 246.6 249.8 251.6 253.1 255 256.3 256.7 256.8 256.3 254 250 244.1 234.2 224.3 216.9 211.7 203.2 193.6 178.9 171.8 158.4 145.8 140 135 127.7 120.9 120.9 120.9 120.9 120.9 120.9 120.9 120.9 120.9 120.9 120.9 120.9 120.9 125.3 131.5 141.8 158.1 178.1 199.8 217 229.6 232 234.5 234.4 234.8 238.5 233.9 235.2 243 253.4 265.1 270.1 276.4 279.4 281.3 286.7 284.6 280.8 276.9 262.6 237.9 229.2 211.7 191.7 164.6 142.6 128.3 123.8 120.3 119.5 116.8 114.1 114.2 114.9 113.6 108.4 104.9 103.2 97.8 96 98.8 99.6 101.6 105.6 108.3 107.9 104.2 99 95.7 95.8 98 100.2 102.8 105.3 111.3 123.4 123.7 114 114.9 116.6 123.5 129 139.2 158.4 188.5 216.3 245.3 279.4 315.4 349.2 386.6 427.9 469.5 507.4 541.9 582.7 613.7 642.1 653.4 664.1 678.4 683 687.3 694.3 698.8 697.5 684.3 661.7 649.2 634.2 625.5 630.6 621.5 627.2 611.7 629.2 633.6 630.3 619.6 592.4 573 568.9 561.7 561.3 564.3 596.9 623.9 647.7 659 659.8 660.4 665.1 678.7 702.8 726.7 739.5 745 742.1 733.6 720 707.3 692.2 680.5 673.1 673.2 680.8 693 707.1 718.3 722.8 720.6 695.5 666.9 638.6 610.2 585 562.6 544.5 523.1 501.8 476.6 451.2 421.1
220.4 224.7 225.3 227.2 229.1 232.9 235 237.1 238.2 241 244.1 247.2 250.1 251.6 253.8 255.6 257.4 258.1 258.8 258.8 258.4 256.4 255 250.8 241.8 231 224.3 218.6 211.4 207.7 199.3 183.6 173.1 160.7 145.3 139.7 128.7 122.1 120.1 120.9 120.9 120.9 120.9 120.9 120.9 120.9 120.9 120.9 120.9 120.9 120.9 120.9 127.8 139.4 152.9 169.6 184.4 197.5 203.5 210 216 219.2 222 220.4 230.7 236.9 245.9 252.5 255.3 255.7 252.8 255.6 259.7 255.2 253.5 254.5 243.2 223.6 215.7 197.3 174.7 153.6 134.5 126.4 122.6 118.9 116.9 115.5 116.8 120.9 119.1 115.5 109.9 102.2 99 90.8 99.1 99.3 100 103.3 106.4 109.6 111.1 108.6 102.3 98.6 100.1 101.7 104 107.2 112.9 130.1 141.1 133.7 118 116.9 117.3 123.9 130.4 138.5 155.2 181.7 212.9 245 275.8 307 340.9 379 423.1 465.8 503.1 542.5 576.2 601.1 623 637.5 652.8 670.1 681.4 693.5 703.8 679.8 673.1 648.5 637.2 618.3 603.8 593.6 596 583.8 593.6 576.6 596.4 594.2 603.3 603.1 578.9 547.6 532.4 528.1 527.6 553.6 584 612.5 635.4 636.7 634.5 633 645.6 672.4 695.7 718.4 738.1 749.9 749.2 741.1 727.3 715.8 704.1 689.1 676.2 671.2 674.5 684.2 694.1 706.8 710.2 704 679.2 646.5 619.9 588.3 562 536.2 518.1 498 467.6 439 414.2 390.5
226.7 230.2 234.2 236 239.5 238.7 241.5 242.8 243.4 245.3 248 251.5 254.6 256.6 258.7 260.3 261.5 262.2 262.8 263.2 262.5 261.4 260.8 258.7 256.4 243 234.8 230.2 226.1 223.8 215.8 202.7 186.4 167.7 149.7 142.3 132.4 124.1 123.2 122.5 120.9 120.9 120.9 120.9 120.9 120.9 120.9 120.9 120.9 120.9 120.9 120.9 120.9 126 139.7 150.1 161.9 175.5 187.7 198.3 203.4 206 212.9 209.6 219.6 226.5 231.9 233.1 237.8 239.5 239.3 246 249.5 245.7 244.5 243.7 227.4 214.4 201.2 181.6 162.4 143.2 130.5 124.8 121.4 119 116.2 116.7 123 123.8 120.4 115.8 109.6 102.8 97.3 94.5 98.8 101.8 103 105.1 107 111.2 117.2 116.2 108.7 103.5 105.4 107 108.1 111.8 120.6 137.4 159.7 147.8 123.5 118.8 119 124.1 129.7 137.4 155.6 176.5 203.1 237.5 271.1 302.4 338.2 376.6 421 468.7 512.8 549.5 573 590.2 605.6 617.9 633.4 650.4 668.1 684.8 674.9 655.6 635.4 623.3 612.8 583 576.2 558.4 569.1 550.8 552.5 544.2 554 560.8 571.9 565.5 551.7 527.9 496.8 496.6 509.5 544 576.4 605.5 615.6 613.4 606.4 622 647.1 668.1 690.1 712.2 732.9 752.1 753.2 738.4 724.5 715 704.3 693.4 679.9 666.2 668 675.5 685.1 695.4 695.5 685.8 656.9 625.7 595.3 567 541.1 502.2 478.1 451.8 420.5 399.9 380.3 364.5
229.1 234.2 238.1 240.7 244.6 245.4 248.6 248.8 249.3 251.1 253 256.6 260.4 263 265.4 266.8 267.7 267.5 268.3 269.1 269 267.6 266.6 265.9 262 258.1 250.9 247.5 243.1 239.7 233.5 218.2 199.3 178.3 156.3 153.1 137.5 127 126.7 127.5 126.4 123.4 122.2 120.9 120.9 120.9 120.9 120.9 120.9 120.9 120.9 120.9 120.9 120.9 125.8 135.8 148.2 158.3 167.9 175.3 183.3 194.1 200.9 196.2 207.7 214.4 218.9 224.1 225.7 227 231.9 233.7 231.9 234.5 229.2 221.9 206.2 198.4 188.1 170.8 153.8 137.6 130.9 125.2 122.8 122.2 121.2 124.1 126 124.4 120.1 115.2 108.7 102.7 99.6 95.7 100.5 104.9 107.7 109.5 109.9 113.4 122.4 123.6 116.9 108.7 108.9 110.9 112.4 121.7 131.8 140.3 155.6 148.7 123.6 120.7 120.8 123.5 131.9 139.7 154.6 169.8 192.8 224.5 257.8 292.2 332.1 370.4 415.4 458.7 492.5 524.6 560.5 575.6 583.3 595.1 610.7 630.6 652 669 642.3 625.9 604 602.1 574.2 563.1 542.1 527.2 531.5 521 513.5 505.3 515 518.1 522.6 524.4 519 502.6 478.6 471.4 507.8 543 575.5 591 591.6 590.9 597.4 622.7 643.7 664.1 684.4 705.5 724.7 739.8 737.3 726.7 717.9 710.5 700 690.8 678.8 663.5 658.6 665.7 675.2 684.7 675.1 654.3 625.5 599.4 572.2 546.5 517.9 474.6 438.7 414.4 394.4 374.2 355.9 339.1
233.3 237.6 242 248.3 252.8 256.6 255.4 256.4 256 257.9 259.3 262.6 266.9 270.1 273 275.1 276 274.1 274.4 276.4 276.8 276.4 274.9 276.8 276.8 269.6 262.3 257.2 255.1 255.1 246.1 233.9 216.9 190.9 166.1 158.8 140.7 134 132.2 131.8 131.3 129.1 126.9 124.4 121.2 120.9 120.9 120.9 120.9 120.9 120.9 120.9 120.9 120.9 120.9 121.7 134.4 143.5 150.8 155.1 166.8 181.3 187.2 187.3 197.3 202.2 207.9 211.4 214 216.6 217.5 212.9 214.8 216.9 210 197.1 192.2 188.5 177.5 161.4 145.7 136.9 131.2 127.2 126.3 127.1 128.5 127.6 125.8 122.6 119 114.2 111 103.1 100 93.2 101.8 107.7 111.4 113.2 113.2 114.4 126.5 131.1 123.9 117.3 113.3 114 117.4 130.4 140.3 153.4 158.5 144.6 124.3 123.2 123.5 126.4 133.8 141.9 154.8 168.3 187.6 214.8 244.7 276.7 313.2 350 390.5 433.7 472.4 511.5 545.9 548.8 557.1 571.9 592.8 615.9 640.3 635.1 615.1 590.5 579.1 561.9 549.3 538.7 514 493.1 486.9 480.6 475.8 469.9 480.3 485.5 491.4 491.7 488.1 474.1 455.4 469.3 504.1 537.3 555.9 564.4 571 567.6 594.7 618.2 639 658.9 679.7 700.5 714.2 720.8 720.4 715.7 710 703.1 693.7 682.9 669.3 654.8 649.8 654.7 659.2 664.6 648 623.1 600.1 575.4 550.1 524.9 484.5 440.6 406.8 377.8 369.2 349.6 331.9 316.3
237.5 242.9 248.5 254.3 256.4 264.9 264.3 265.9 265.3 267.3 269.8 272.9 276.7 278.2 280.8 283.2 284.8 286.7 286.2 285.8 286.9 286 285.2 287.6 290 283.8 277.2 271.7 268 268.3 260.8 249.8 233.7 206.9 182.2 170.7 143.8 138.3 136.7 135.8 134.1 131.1 128.9 127.1 123.9 120.9 120.9 120.9 120.9 120.9 120.9 120.9 120.9 120.9 120.9 120.9 121.2 129.7 137.9 141.6 153.3 164.4 173.3 175.4 185.5 191.1 196.4 200.6 205.2 207.4 203.3 202.1 202.1 203 198.5 187.9 187.9 184 172.2 155.5 142.1 135.8 132.3 130.5 132.2 132.7 131.7 128.6 124.2 120.1 116.6 112.1 109.1 103.8 99.3 93.2 101.4 108.5 113.3 116 116.1 118.4 126.5 134.3 128.9 124.1 119.7 118.8 124.3 141 149.5 165.7 164.5 145 127.3 125 126.3 128.6 135.1 143.9 156.1 167.2 186.3 209.4 239.1 270.7 303.4 339.4 374.9 412.9 459.3 495.4 513.2 516.8 529.6 553.4 579.1 606 629.3 614.7 593.2 559 554.4 527 508.3 492.9 477.9 459.7 449.9 449 442.9 443.7 450.1 455.3 461.8 462.7 459 448.9 431.5 466.8 494.8 516.1 532.8 538.2 543.3 570.6 594.4 614.5 633.7 651.5 665.7 681.7 696.2 707.9 710.2 708.1 703.6 697.4 686.5 674.3 659.4 642.4 639.2 642.4 641.3 635.1 620.2 597.5 575.3 553.4 529 494.2 451.6 416.8 389.5 366.5 350.3 331.7 312.4 297.8
243.1 249.1 258.5 265.3 268.2 271.7 273.7 276.6 280.8 283 285.8 289.3 286.8 285.8 287.9 292.5 298.2 301.6 302 301.3 298.3 296.7 297.4 297.5 296.4 291.1 290.6 293.2 289.3 282.4 273 257.5 236.8 220.7 200.3 182 148 143.1 141.2 140.7 137.9 134.3 131 129.3 126.7 123.7 120.9 120.9 120.9 120.9 120.9 120.9 120.9 120.9 120.9 120.9 120.9 121.9 128.4 136.6 143.8 149.6 153.8 168 177 183 189.1 193.9 197.6 197.8 192.6 193.5 195.5 192.5 183.8 181.8 182.8 179 164.4 151.6 140.6 135.6 132.2 131.9 134.5 134.6 131.6 127.3 122.5 117.4 113.6 109.6 105.7 103.3 99.8 93.2 100.7 107.4 113.2 117.8 119.9 122.1 129.7 141.6 141.6 134 125.2 124.4 130.5 144.6 152.9 166.4 164.2 148.9 134 125.1 127.9 128.7 136.3 144.6 153.8 168.3 185.8 208.2 235.8 267 298.3 332.8 369.8 406.9 450.2 483.9 476.2 483.7 513.7 544.2 571.5 596.7 609.9 586.5 556.3 536.8 503.9 495.4 472.5 461.4 442.8 430.3 418.1 414.6 411.2 413.4 417.5 423.7 430.5 431.4 427.3 422.7 431.8 454.4 476.7 497.3 511.8 531.7 542.3 565.6 586.1 604 618 629 641.7 658 674 688.1 696.5 698 696.6 687.7 676.7 664.8 650.5 628.9 629.2 630.6 622.8 609.8 593 572.4 551.9 530.2 505.2 469.5 424.1 387.1 367.6 347.6 334.1 313.2 293.1 283.2
253.3 259.5 265.7 271.1 277.6 279.4 283.7 288.3 296.1 303.3 306.5 303 300.2 301.4 302 304.9 310.5 315.9 316.3 312.2 310.6 310.6 311.2 311.2 309.4 303.6 307.4 309.7 308.9 300 285.4 264.1 248 226.2 214.4 194.8 161.8 150.6 147.5 145.1 141.8 137.9 134.6 132 128.5 125.8 121.2 120.9 120.9 120.9 120.9 120.9 120.9 120.9 120.9 120.9 120.9 120.9 123.7 133.8 139.6 141.3 149.8 156.5 163.3 171.9 179.2 184.2 185.2 183.8 183.5 184.3 184.8 183.2 175.4 174.3 173.3 168 155.9 149.8 140.7 133.5 132.4 132.3 133.1 132.2 128.4 124.8 121 115.6 112.7 111 105.5 104 102.4 96.6 99.1 103.9 112 119.1 125.9 128.7 132.6 147.6 151.6 140.4 132.7 129.9 134.9 144.8 156.1 165.7 164.7 153.2 137.2 129.2 128.8 131 137.4 144.7 155 170.7 187.3 210.5 234.8 265.3 298.6 338.3 379.7 418 444.4 445.3 440.9 469.8 504.3 531.2 553.2 572 577.7 553.9 520.2 497.2 478.1 456.5 440.8 425.3 416.7 400.5 390 384.4 380.4 385.2 385.9 391.1 397 399.7 400.1 396.2 417.3 433.7 451.2 465.8 484.9 503.2 527.2 543 558.3 576.3 590 602.5 619 638.5 656.6 668.7 676.2 681.3 681.3 673.4 664.1 655.6 644 626.5 617.6 618.4 606.2 588.8 566.5 546.8 527.4 505.2 480.2 452.4 428.3 384.2 345.2 322.4 311 295.6 279.3 269.2
266.1 270.2 275.1 279.1 283 283.8 291.1 295.6 305 311.8 315.5 316.9 319.4 321.6 322.8 323.4 325.4 332 334.6 331.1 330.8 333.5 334.9 334.5 330.8 323.8 321.6 324.9 325.8 318.2 304.8 278.5 259 248 229.7 206.6 178.3 160.5 153.8 148.9 145.1 141.4 137.3 133.6 130 127.2 124 120.9 120.9 120.9 120.9 120.9 120.9 120.9 120.9 120.9 120.9 120.9 120.9 127.3 130.7 134.8 145.9 150.4 153.1 157.7 163 168.3 173.4 176.6 176.7 176.7 176.1 172.6 168.5 164.3 162.4 159.6 155.1 144.4 137.3 134.1 135.7 134.2 132.2 128 125.1 122.1 118.3 113.7 110.6 108.8 105.6 105.2 104.3 97.4 97.1 101.1 107.9 120.9 132.4 134.7 136.6 147.3 153.5 145.6 139.6 136.6 140.9 149.2 157.1 164 166.9 155.3 140.4 130.9 132.2 133.5 140 148 159.1 170.7 187.9 214.1 235.9 268.1 298.9 334.6 356.8 385.4 412.3 408.4 421.6 454.1 480.6 504.1 522.6 537.4 544.9 520.3 493.5 465.9 445.5 424.2 409.2 394.3 382.1 370.7 363.9 360.4 361.6 361.4 364 370.1 374.8 375.4 379.4 383.8 394.3 407.2 420.8 427.4 448.1 467 495.9 511.3 528 544.7 562 576.8 603.5 623.3 640.9 651.2 657.8 663.2 663.6 659.6 654.1 645.5 637.3 624.7 605.6 602.1 587.9 565.4 539.6 519 507 486.6 472.4 465.5 457.8 386.4 338.9 314.9 286.5 273.4 269.1 263.9
278.8 283.1 285.1 288.3 292.1 292 295 299.8 310.9 320.4 329.4 334.4 337.8 340.2 341.6 341.4 344.9 349.8 355.8 355.8 356.4 361.4 364.9 360.1 359.2 356.3 351.8 347.3 345.9 337.6 320.2 299.3 282 268.1 251.5 227.5 203.3 175.5 161.6 155.5 150.3 147.6 141.1 134.5 130.7 127.1 124.2 120.9 120.9 120.9 120.9 120.9 120.9 120.9 120.9 120.9 120.9 120.9 120.9 123 127.1 133.4 141.8 144.1 146.2 149.1 152.3 157.1 161.6 164.9 166.4 167.4 166.7 163.7 160.6 157.5 155.9 152.9 148.5 139.8 134.5 136.9 137.1 136.1 131.8 126.3 121.8 119.1 115.4 111.5 109.2 107.5 107.1 105.9 105.5 98.4 94.9 98.5 108.3 123.8 136.4 140.8 141.6 146.5 154.7 149.3 150.4 150.7 154.9 158 163.6 169.4 171.7 156.9 140 133.4 134.6 135.5 139.6 150.3 160.3 171.8 188.8 210.2 232.3 257.1 280.5 306.5 334.8 369.8 376.4 380.2 410.3 436.7 458.7 478.9 496.9 512 519.9 493.3 464.9 435.4 415.4 400.8 381.7 365.3 355 349.5 347.8 353.7 366.8 376.4 378.3 384.8 386.5 390.2 396.3 407 400.1 404.5 406.5 408.8 425.4 442.6 462.2 483.7 502.1 516.2 540.8 565.1 587.5 609 626.4 637 643.5 646.7 647.7 646.2 642.9 637 629 619.7 601.5 578.5 560.7 535.5 512.3 496.1 482 467 457.3 449.5 444.5 380.6 322.9 296.6 275.9 270 265.2 261.7
291.8 298 298.6 300 300 297.8 298 304 316.6 330.7 345.6 354.3 357.2 359.9 361.9 362.3 364.2 366.5 373.8 377.6 379.7 384.2 388.4 390.3 382.4 382.1 385.5 382.6 375.1 362.8 342.1 317.7 301.6 290 271 253.1 229.7 201.3 173.7 165.9 161.6 156 147.3 138.6 129.9 126.8 123.4 120.9 120.9 120.9 120.9 120.9 120.9 120.9 120.9 120.9 120.9 120.9 120.9 120.9 120.9 127.8 134.6 136 139.9 141.9 145.5 147 150.7 154.4 157.9 158.7 158.6 155.1 152.2 152.1 150.9 148.8 144.9 139.6 136.9 137.4 135.7 132.5 129.1 124.6 119.6 114.6 111.5 110 109.9 110.3 108.4 106.8 104.2 98.9 96.7 96.7 104.9 121.5 137.5 148.9 151.5 152.6 158.3 157.6 161.8 168.9 173.7 171.3 170 175.2 172.4 155.5 139.2 135.3 137.1 137.7 139.9 148.8 155.8 165.8 183.8 206.9 232.6 255.9 278.1 298.5 317 335.1 350.5 377.4 405.9 427.5 443.7 462.1 478 496.1 496.7 468.2 437.2 410.6 387.8 368.1 352.6 340.2 341.2 352 369.2 383.6 392.2 399.1 403.4 408.4 415.6 419 422.2 422.6 420.1 433 438.9 434.2 433.8 430.1 435.1 458.3 473.1 496.6 522.7 544.6 566.9 588.6 608.5 624.3 631.5 634.4 634.5 633.7 630.6 626.2 619.1 608.7 594 567.9 527.9 508.2 489.6 473.4 462.5 454.7 449.4 440.8 438.9 393.8 325.2 303.5 288.7 273.7 266.4 271.4
310.7 315.9 313.5 312.4 306.2 302.4 303.2 309.5 324.7 342.4 356.8 367.2 372.5 375.7 377.8 381.1 382 383 386.8 393.7 397.3 400.8 404.3 408.7 410 403.7 403.3 407.7 404.5 392.5 371.7 340.6 322.6 319.6 301.5 277.3 255.7 226.3 195.6 179.3 171 163 152.5 144.1 136.4 128 123.5 120.9 120.9 120.9 120.9 120.9 120.9 120.9 120.9 120.9 120.9 120.9 120.9 120.9 120.9 120.9 125.4 127.6 131.5 133.6 139.8 140.7 141.5 144.2 146.4 148.8 148.8 148.2 147.7 146.7 145.7 143.7 140.6 137.5 136 134.6 132.7 129.1 125.4 121.7 115.6 112.8 112.1 110.2 110.1 109.9 109.2 108.4 104.6 99.7 97.3 95.4 98.9 114.7 134.6 157.8 167 171.1 172.6 176 183.3 190.3 189 182 177.3 174.7 162.2 148 138.5 137.6 139.2 140.2 141.8 148.3 155.5 165 177.7 197.5 219.7 245.8 271.5 300.7 329.2 344.9 361.1 380.7 398.2 416.4 433.2 451.9 468.6 482.3 464.2 446.1 415.5 385.7 363.5 343 332.6 343.8 365.6 378.1 393.3 402.7 414 424.6 430.8 433.1 439.3 442.2 445.3 445.8 443 454.3 461.4 465.3 464 466.1 462.7 461.6 465.5 476.6 500.7 520.5 542.1 563.4 586.8 606.9 617.6 621.8 622.4 620.4 616.7 612.2 606.2 595.2 581.2 536.6 496.7 486.3 477.8 468.3 458.7 451.8 451.8 453.5 451.6 407.2 344.4 315 295.9 280.9 278 283.9
328.4 332.6 327.5 320.5 313.5 309.5 310.3 315.7 333.1 349.6 359.7 369.2 378.9 387.8 394.8 396.5 398 398.8 400.8 406.5 412.1 415.2 416.5 419.6 424.3 427.9 423.8 425.8 426.6 417.1 394.5 375.6 353.5 346.6 330.3 301.5 279.5 246.2 215.8 204.4 187.6 174.7 163.6 154.8 142.8 137 129.9 120.9 120.9 120.9 120.9 120.9 120.9 120.9 120.9 120.9 120.9 120.9 120.9 120.9 120.9 120.9 120.9 122.2 124.9 128.9 133.2 134.3 134.9 138.4 141.6 143 144.8 143.7 142.7 143.1 141.2 139.7 137.8 135.5 132.8 131.9 128.6 125.1 121.2 117.8 114.4 115.5 114.8 111.3 111.7 110.8 109.8 107 105.1 98.9 96.9 96.2 95.1 105.6 125.1 145.8 159.9 167.7 173.6 176.8 190.2 203.8 191.4 189 179.7 170.6 156.1 143.5 138.6 140 142.1 143.5 145.3 149.1 155.5 164.7 177.4 193.6 213 237.3 263.1 291.6 321.7 351.9 376.3 393 406.2 421.1 435.6 442.9 447.3 445.8 430.8 420.6 397.8 367.3 345.3 330.2 347.4 365.3 381.8 395 415.3 425.7 437.7 446.9 454.2 451.1 458.5 462.8 465 468.7 469.8 469.3 478.7 482.5 484.6 488.5 492.2 492.8 496.7 497.6 486.9 496.1 515.9 539.7 565 589.2 604.7 609.6 609.6 607 603.6 599.3 591.9 583.1 570.4 531.5 501.9 479.2 470.1 463.4 459.6 458.8 463.2 463.3 463.7 444.8 356.8 324.3 302.6 293.9 293.1 298.7
342.3 348.4 345.1 336.3 327.7 322 318.5 325.5 340 352.6 363.4 373.6 387.3 398 404.8 410.4 411.6 411.6 413.2 412.7 416.2 423.8 428.1 429.1 433.7 441.3 440.2 435.2 437.4 429.2 414.9 400.1 376.5 356.2 328.5 303.4 277.6 246.8 237.6 228.2 218.4 196.3 182 171.5 160.1 151.6 143 133.3 121.6 120.9 120.9 120.9 120.9 120.9 120.9 120.9 120.9 120.9 120.9 120.9 120.9 120.9 120.9 121.5 122.7 124.7 126.2 128.7 130.7 134.8 138.8 140.9 143 143.4 141.5 139 136.5 135.4 134.2 134.1 131.3 128.1 125.1 121 120 119.7 117.9 119.2 116.4 115 116.1 113.5 108.7 103.9 101 97.8 97.4 96.5 95.6 99.2 112.2 129.1 149 163.9 172.2 184.9 202.7 197.9 190.9 185.5 180.2 166.3 154.6 143.1 140.9 142.2 144.7 146.8 148.7 151.1 156.1 163.9 177.1 191.7 212.3 232.9 257 286.6 319.6 349.4 375.1 395.3 411.6 422.1 413.9 413.3 410.2 409.1 402.4 397 382.2 351.5 323.9 337.2 361.4 377.4 398.4 419.5 434 449.2 460.2 468.9 474.9 471.1 475.7 480.5 480.7 483 487.2 488.4 491.6 495.8 498.8 500.9 505 506.4 511.5 517 516.6 513.4 505.6 516.1 540.2 567 589.9 602 604.3 602.1 598 591.2 581.8 570.1 556.8 539.1 515.8 475.1 467.9 464.2 460.6 460.4 469.6 473 467.7 432 378 338.6 321.2 317.4 316.3 323.3
353.3 361.8 360.6 353.6 344 335 330 334.2 346 359.4 371.5 383 394.7 404.7 412 418.9 421.5 422 423.2 427 426.4 429.8 434.4 437.6 438.3 442.4 445.3 445.3 440.8 430.3 412.9 395.9 374.2 347.1 319.6 294.3 266.7 248.3 251.8 250.9 246.5 223.6 206 194.1 182.6 171.1 158.1 148.6 138.6 126.6 120.9 120.9 120.9 120.9 120.9 120.9 120.9 120.9 120.9 120.9 120.9 120.9 120.9 121.4 119.8 122.1 123.1 124.8 126.5 130.6 134.4 137.6 140.2 142.2 144.8 142.8 137.7 134.5 134 132.6 130.3 125.8 123.3 121.5 121.8 121.4 120 116.8 114.4 114.4 113.1 108 104.3 100.8 98.8 98 97.4 96.5 95.4 96.3 104.7 116.7 137 160 174.5 186.5 196.4 197.3 190.5 181.7 173.7 163.7 153 144.4 143.7 144.6 146.5 148.9 152 153.2 157.9 165.4 175.4 189.9 210.2 230.6 252.9 283.1 317.1 354.9 389.3 409.5 409.3 397.9 383.6 380.2 379.3 384.9 377.7 373.3 364.2 332.3 325.2 355.7 374.4 394.6 414.2 437.4 457.1 466 479.5 491.3 493.6 491.4 498.4 497.6 498.7 501.4 504.3 504.3 506.1 506.2 509.2 512.6 513.5 516.2 520.6 525.8 530.1 534.9 536.2 527.3 518 541.9 567.3 588.5 597.7 599.6 596.8 588.2 572.8 552.1 541.4 524.5 517.6 502.6 478.4 468.2 459.6 465.8 464.2 458.6 448.8 415 385.6 357.5 351.4 344.1 344.2 348.3
357.9 369.6 374.1 369.3 361.7 351.9 346.3 344.9 355 365.2 378 389 399.1 410.7 420.1 424.4 427.6 429.9 432.4 433.4 435.1 437.5 440.4 442.7 443.5 443.6 443.1 443.2 437.9 423.1 405.8 384.8 363.2 336.7 311.7 284.1 259.4 270.7 272.8 270.4 263.7 253.2 233.1 219.2 207 193.7 180.7 168.5 156.5 145.8 130 120.9 120.9 120.9 120.9 122.1 122.5 122 122.5 122 122 122.4 122.4 122.6 122.2 122.1 122 122.5 124.2 126.8 129.8 132.5 135.3 139.1 143.2 145.1 141.8 137 135.6 131.6 129.6 126.6 125.5 123.9 125.1 123.8 118.5 114.4 113.6 113.3 110.5 105.3 101.3 99.3 98.8 98.2 97.7 97.3 94.6 97.7 101.9 109.1 123.1 144.8 167.1 180.2 186.9 187.7 181.1 168.9 160.1 151.5 147.6 145.2 145.7 147.2 148.7 151.4 154.7 155.1 160.2 166.6 175.6 190.8 208.2 228.9 252.8 280 312.4 349.4 391.3 396.8 376.7 359.9 351.3 350.4 352.1 355.6 350.5 347.8 342.1 318 337.4 366.4 389.6 416.3 438.1 452.7 475.3 492.3 500.7 515.1 513.7 508.2 514.9 521.2 523.7 524.9 526.9 522.9 527.7 527.5 527.5 526.5 527.7 527.7 531.7 534.1 540 541.6 548.6 556.4 555.8 549.3 549 574.7 594.4 600.1 600.1 589.7 573.1 548.5 528.5 514.7 499.2 492.4 476.9 459.6 457.5 453.9 449.3 442.9 428.6 412 402.3 396.6 386.9 375 374.3 375.2
363.1 375.3 384.4 383.3 376.9 368.9 361.3 360.8 363.8 371.2 381.6 392.9 403.7 416 424.9 431 434.5 437.5 440.4 442.4 442.8 443.2 444.3 445.3 446.6 442.9 441.3 435.6 425.9 409.4 392 372 349.7 326.5 301.1 271.9 278.3 287.8 291.4 290.2 282.3 271.4 260.1 245.9 229.4 215.4 203.8 191.7 178.9 164.5 147.1 132.2 123.1 122.4 123 123.8 124 123.5 123.8 123.4 123.4 123.5 123.8 123.4 123.1 122.9 122.8 121.4 123.6 125.8 129 131.9 133.3 135.8 139.6 143.2 144.1 141.7 135.8 134.1 132.1 128.5 127.1 127.2 125 120.1 115.6 113.7 113.1 111.9 107.4 100.5 99.4 99.7 99.1 98.6 98.2 97.8 96.5 96.2 99.6 103.9 112.6 128.1 145.6 162.7 175 172.2 164.4 156.5 153.5 150.4 148.1 146 147.2 149.8 152.5 153.6 156.6 160.4 160.6 167.2 176.1 188.9 208.6 227.9 251.1 277.4 309.1 344.3 374 355.9 338.6 326.3 318.4 317.4 323.1 326.4 321.8 319.8 315.4 336.4 356.6 382 407.5 436.7 463.1 479.4 493.7 515.9 521.9 533.5 534.2 530.3 528.3 544.1 548.3 548.1 549.8 543.7 546.5 551.3 549.9 545.7 546.7 548.4 549.4 551 551.7 559.5 563.4 566.5 572.6 578.1 580.2 587.3 592.8 604.2 605.7 601 580.6 544.5 516 502.2 491.6 480.5 470.6 449.5 447.5 444.3 441.1 435.1 432.4 424.8 420.5 422.7 419.1 415.5 406.1 407.3
370.5 380 391.7 393 388.7 382.4 375 370.7 372 376.6 386.7 396.7 407.4 419.3 429.6 437.8 442.4 446.5 449.1 451.4 451.7 451.3 449.3 448.2 447.2 443.5 434.9 425.8 413.7 396.7 377.2 357.4 334.3 315 290.4 279.8 296.2 301.7 306.1 308.8 300.1 288.8 278.9 265.8 251.8 238.2 226.1 215.4 200.9 184.3 168.1 150.2 136.9 125.9 124.1 124.8 125.1 125.1 125 124.8 124.8 124.8 124.7 124.3 124 123.8 123.2 122.6 123.1 125.8 128.9 132.5 133.4 134.1 136.2 141.3 143.8 140.8 136.5 135.1 136.1 133.4 126.8 124.7 117.6 113.4 112 110.6 108.9 108.2 103.1 100 99.9 99.9 99.7 99 98.6 98.3 97.6 96.8 97.2 99.8 105 118.2 131.7 147.6 162.9 161.9 156.7 152.1 150.4 150.1 148.9 147.3 148.8 151.1 153.9 156.7 159.9 163.8 163.7 169 179.5 192.6 211.2 228.6 249.2 275.2 302.3 332.4 329.6 315.1 296.8 286.9 282.4 287.2 295.6 296.9 295.3 314 338 357.7 376.2 400.3 424.4 453.1 481.5 507 519 535.5 539.8 541.2 544 541.8 546.2 559.6 569.1 571.3 568.4 566.5 569.3 572.1 572 570.1 569.8 572.4 568.8 566.4 566.4 569.7 570.8 578.6 587.9 592.9 601.1 606.2 609.5 617.1 617.5 607.4 581.1 545.3 524.5 510.6 500.1 474 455.1 446.8 444.5 442.5 443.1 441.9 439.1 437.6 435.7 442.2 447.4 451 442.8 437.4
383.4 390.3 397.7 401.5 398.7 392.8 385.7 379.9 378.9 381.4 389.1 399.2 408.9 420.7 431.6 439.2 447.7 454.2 457.8 459.6 460.8 459.5 455.1 450.3 446.2 437.4 426.5 416.8 402.3 386.1 364.2 340 318.8 298.5 299.7 305.8 311.5 315.9 318.7 321.9 318.8 305.6 294.6 284.1 272.7 260.5 247.7 236.3 218 201.8 188.7 166.2 152 141.2 129 125.9 126.1 126.2 126.2 126.2 126.2 126.2 125.8 125.4 125 124.4 123.8 122.8 121.3 125.4 128.3 130.6 133.3 135.6 138.7 142.1 142.2 140.4 137 135.8 134 130.6 126.7 125.5 120.2 113.9 110.2 106.7 105.1 103.9 102.7 100.8 100.7 100.5 100.3 99.4 99 98.7 98.2 97 97 95.4 98.7 111.7 124.1 142.9 155.6 159.1 155.1 149.4 147 147.4 147.4 148 149.9 152.1 155.4 158.6 162.1 166.3 169.6 172.2 175.8 192.5 212.5 230.7 248.7 271.5 295.5 303 289.5 272.1 258.8 265.1 272.8 278.4 284.4 299.8 321.5 337.9 357.3 377.1 394 414.5 439.3 464.6 488.9 521.3 546.2 553.8 542.8 543.4 544.6 547.1 555.9 567.3 579.3 586.3 584.3 580.5 587.9 590.1 591.2 597.4 598.9 601.4 598.5 594.8 593 594 597.8 597.6 606.7 616 631.1 627.2 624.9 627.7 630.4 620.3 590.5 563.2 546 533 519.9 485 460.5 452.4 444.9 446 447.2 447.8 447 449.6 457.2 467.3 473.2 477.5 477.9 480.5
394.8 397 399.7 401.2 400 396.2 391.1 386.5 384.6 385.9 390.9 399.8 408.3 418.4 429.8 441.3 451.6 458.9 464 467 467 465.1 458.4 449.8 443 433.5 420.3 407.7 392.5 375.3 351.7 325.3 306.1 309.6 317.8 322.5 327.1 332.1 331.6 333.5 332.7 323.6 309.8 299.2 293.1 280.4 266.2 253.1 234.4 215.6 199.8 184 167.6 157 142.7 128 127.3 127.7 127.8 127.7 127.7 127.6 127.2 126.7 125.9 125.2 124.6 123.3 122.2 124.3 127.2 130.8 134.3 138.2 141.1 141.5 140.7 139.6 138.7 136.3 133.4 127.5 125.2 118.2 115.8 113.1 108.9 109 108.5 105.4 102.8 101.2 101.1 101.1 100.7 99.8 99.4 99 98.5 97.6 97.6 97 98 106.6 119.1 133.6 148.9 154.4 151.1 147.2 145.5 145.6 146.6 147.9 149.9 152.4 155.8 159.1 162.8 166.8 172.5 177.6 181.6 181.6 202.8 226 246.4 266.2 279.1 270.4 254.9 254.3 277.3 291.5 302 316.7 319.1 323.2 342.9 366.6 380.6 396.1 416.8 431.7 452.6 477.2 503.1 532.1 562.4 572.9 552 541.1 543.6 551.1 563.7 574.4 586.9 595.5 597.1 592.9 600.1 607.8 616.7 625.1 632.2 633.7 631.8 628.1 626.2 627.1 627.8 628 638.5 650.6 643.1 634.3 631.9 633.9 645.8 648.1 620.3 591.8 580.8 565.6 553.4 522.5 485.8 465.6 454.2 454.2 456.8 458.8 460.7 470.1 481.4 491.7 498.7 499.5 501.4 501.2
402.3 406.3 401.3 397.6 395.2 393.6 391.4 386.2 385.8 387.3 390.6 398.1 405.5 414.6 424.4 437.7 451.2 460.4 468.1 472.4 471.5 467.3 458.3 448.6 439.1 428 414.9 399.7 382.3 360.5 340.5 320.8 327.8 330.4 335.3 342.2 345 347.8 349.4 351.9 350.2 340.1 327.1 320.6 310.1 298.1 281.6 269 250.8 232.3 216.1 200.1 183 170.9 157.1 140.3 129 129.2 129.2 129.2 129.2 128.9 128.3 127.8 126.7 126 125.1 123.9 122.7 123.9 126.8 128.9 132.5 136.6 138.6 139.5 139.4 139.6 139.4 137.2 136.1 125.9 119.7 117.4 115.5 110.9 111 109.9 108.5 105.3 102.6 101.4 101.6 101.5 101 100.4 99.9 99.3 98.7 98.4 98.3 95.4 98.7 103 114.3 125.3 141.8 152.5 150.7 146.8 145.2 145.3 145.8 147 149.1 151.2 154.2 158.1 162.1 165.8 172.3 178.7 186 195.9 194.4 199.9 219.1 238.9 248.5 236.7 255 277.4 298.1 319.7 334.7 347.9 356.5 358 373.6 389.2 408.9 421.7 437.9 456.2 471.3 493 519.5 547.3 577.3 594.3 561.2 537.3 542.6 552.9 570.7 582 591.7 603.6 608.5 604 612.6 622.4 636 652.8 668.1 669.3 676.1 672.7 673.1 674.1 669.7 667.3 668.4 651.4 640 636.3 635.4 643.3 666 689.2 682.5 624.6 610.7 593.5 580.6 558.2 516.5 493.3 474.5 466.4 468.7 472.8 482 493.4 505 513.5 516.5 516.1 515.1 515.9
405.4 406.1 398.7 392.7 388.7 387 385.7 379 382.7 384.1 386.5 392.7 401.6 409.1 419.8 434.3 448.3 458.8 466 471.6 472.8 468.1 459.3 449.2 439.1 424.6 407.4 391.4 370.3 346 336.8 345.6 346.8 345.8 351.4 360.4 368.5 368 368.6 371.5 371.3 368.2 349.1 340.9 332.5 317.7 302.5 284 266.5 247.3 231.7 215.8 202.9 186.5 168.4 151.3 137.1 130.7 130.8 130.6 130.4 130.3 129.7 128.6 127 126 125.1 124.5 122.9 122.1 120.4 120 122.9 128.5 129.1 130.8 135.1 137.3 135.5 134.5 130.7 121.2 118 115.7 112.2 112.1 111.2 110 107.4 106.7 102.5 102 102.1 102 101.5 100.9 100.4 99.8 99.3 99.1 98.5 96 98.4 100.8 109.8 120.6 133.9 147.1 152.7 149.6 148.5 147.7 145 146.1 147.6 149.5 151.9 155.7 160.2 164.6 170 176.8 183.4 199.7 216.1 218.8 207.2 217.8 227.7 259.8 283.8 305.2 325.6 341.8 361.6 378.5 390.5 395.2 407 419.2 430.3 449.7 464.1 480.2 495.7 513.6 537 563.7 592.9 621.2 589.9 552.5 541.5 555.4 571.7 586 596.4 607.8 617.1 615.8 623.4 635.9 654.4 676.4 692.8 703.7 711.6 709.9 717.3 716.8 709.7 700.3 676.8 655.5 643.9 639.4 645.7 664.3 696.6 724 708.8 670.2 651.1 626.7 609 588.4 571.6 524.3 504.7 493.4 484 490.6 502.6 512.4 521.9 528.8 530.2 528.8 530 531.3
402.5 398.8 392.3 383.5 378 375.4 372.5 368.7 372.6 376.1 378.8 382.6 392.2 402.3 412.2 426.2 441.7 453.6 461.2 468.2 470 466.8 458.6 449 438.7 420.7 402.3 381.8 366.6 347.2 358.5 357.4 357.6 359.8 366.3 380.6 389.1 395.7 404.5 402.4 401.4 393.7 376.4 365.9 351.6 338.4 325.6 302.7 279.9 261.5 245.4 233.4 223 200.6 176.5 158.4 146.1 133 132.2 131.9 131.7 131.6 130.9 129.5 128.1 126.5 125.1 124.4 123.6 122.2 121.4 122.1 119.1 113.3 114 114.3 113 118.8 119.9 123.3 115 111.7 111.1 112.2 117.9 120.5 117.8 110 106.2 104.6 103.3 102.8 102.5 102.4 101.9 101.3 100.8 100.3 99.8 99.4 98.7 98.2 97.7 99.4 102.9 114.4 130.5 142.1 157.3 157.7 154.2 149.2 144.1 143.6 145 146.9 149.7 153.7 158.2 162.1 167.1 177.4 184.9 200.9 218.8 236.7 237.1 243.8 259.1 277.7 306.4 331.3 353.8 373.8 387.9 406.9 424.2 433.2 441 450.2 458.1 475.2 494.5 508.2 522.4 539.5 560.7 585.4 611.2 641.1 628.4 575.7 557.8 559 574.5 584.9 598.7 609.5 619.8 625 632.6 649.9 672.9 698.1 718.8 731.1 738.1 734.4 731.4 727.2 720.1 705.3 684.7 665.6 650.3 649.9 666.6 694.5 721.2 743.3 723.5 695.3 670.8 650.6 632.5 615.3 604.1 562.9 546.4 526.5 510 507.8 518.9 527.6 535 541.2 542.4 542.5 545.7 547
386.5 382.3 377.2 368.9 362.5 356.7 352 351 352.2 356.7 363.4 369.8 379.8 393.2 405.7 418.5 432.4 445.3 457.1 465.3 468.8 466.4 458.8 450.4 440.1 425.5 410.1 393.6 374.9 369.4 376.7 379 377.3 378.3 377 398 409.1 418.9 428.8 439.9 435.6 423.2 410.9 396.1 379.5 364.8 345.3 326.2 301.6 278.5 261.7 249.6 230.6 202.3 180 163.2 150.7 138.3 133.4 133.3 133.1 132.9 131.7 129.4 127.6 127.5 126.1 124.5 124.7 127.3 127.4 127.2 124.2 119 120.9 126.8 124.8 121.3 116 114.2 114.2 112.2 110.7 112.3 118.8 124.8 123.3 115 106.1 104.7 103.8 103.4 103 102.8 102.3 101.7 101.2 100.5 100.1 99.7 99.2 98.7 97.8 97.7 97.7 107 121.6 136.3 152.2 161.9 156.4 145.8 143 142.8 143.1 144.4 148.3 151.6 155.1 159.3 166 175 185.9 200.6 222.7 239.7 259.5 273 286.7 308.5 329.2 353.9 382 405.1 420.4 432.2 456.4 473 478.8 483.9 492.7 505.4 525 540.3 555.3 565.9 587 610.2 635.2 663.7 675.6 623.4 585.8 573 576.7 585.5 597.3 615.2 620.7 632.8 642.7 663.5 689.2 717.9 741 749.4 749.6 738.7 731.6 727.3 716.8 702.7 687.7 669 654.3 667.5 692.5 718.6 742 761.6 747.4 715.7 684.2 657.5 636.7 628.5 614.3 599.4 583.1 550.9 528.7 522.4 530.7 537.8 545 551.6 553 559.8 564.9 573.3
366.8 361.7 356.8 348.9 342 335.7 328.2 328.5 333.2 338.2 344.8 354.7 367.2 381.2 402.3 415 426.5 439.4 448.7 458.7 464 460.5 456.9 450.3 442.8 431.3 420 404.1 386.1 387.2 393.9 398.4 397.5 394.3 394.2 410.2 425 439 452.6 462 469 461.2 444.9 430.2 409.9 390.9 365.6 344.3 319.8 297.7 268.5 245.8 224 198.8 179.7 165.5 152.9 141.3 136.3 135.1 134.3 133.6 132 130.7 128.5 126.2 125.6 126 127.5 128.2 128.6 128.7 124.2 118.9 124.2 136.9 138.2 132.5 129 126.6 121.8 115.6 110.6 108.8 116.6 123.3 123.1 117.7 112.7 106.8 104.7 104.1 103.6 103.2 102.6 102.1 101.4 100.7 100.4 99.9 99.5 98.9 97.8 97.7 97.7 97.7 105.5 124.2 139.8 151 153 144.9 142.8 143.7 140.8 141.4 145 148.5 152.4 157.8 164 172 183.7 200.9 224.4 246.4 267.1 289.6 313.9 336.3 358.9 382 404.3 435 454.4 464.9 479.3 511.3 517.9 521.9 528.4 537.4 560.9 574.6 592.7 603.3 623.7 643.2 664.5 692.1 716.1 664 613.5 599.8 589.3 587.3 596.5 610.2 625.8 637.9 650.7 676.2 706.4 736.4 756.5 758.4 751.5 740.1 730 722.4 711.6 700.7 684.3 669.5 669 688.6 712.7 736.7 758.1 780 776.2 734.9 709 675 655.6 645.5 633.8 625.4 590.9 556.9 542.3 533.5 539 545.9 553 560 566.4 576.9 588.5 602.6
343.4 338.9 333.9 326.8 319.3 313.5 310.7 316.7 323.2 327.5 335.2 346.7 356.7 372.1 392.2 410.9 421.6 431.3 440.3 449.4 455.9 456.3 454.6 449.4 445.5 437.4 425.8 408.7 389 403.1 409.5 414.9 418 414.8 416.9 418.1 441.1 455.6 467 478.5 486.9 496.3 485 463.1 436.6 417 385.7 358.9 329.4 297.4 264.5 236.5 213.9 196.8 180.1 166.2 154.7 144.4 139.5 136.7 135.3 135.7 134.3 131.5 129.2 129.8 127.8 127.5 128.4 129 129.6 129.6 123.6 119.9 127.9 137.6 140.5 137.4 131.7 125.5 122.4 118 113.9 109.8 110.3 115.7 118.7 116.9 113.3 105.7 104.7 104.2 103.6 103.2 102.8 102.1 101.4 101 100.6 100.2 99.6 99 98.4 97.7 97.7 97.7 97.7 108.5 124.2 140.8 150.2 147.2 143.4 144.9 139.5 138.7 139 141.5 148.5 154 160.5 170.6 184.9 197.5 221.3 249.5 272.5 302.7 334.4 363.6 391.3 411.5 431.3 453.7 488.8 501.5 511.7 531.7 558.3 565.9 569.4 575.3 592 613.9 632.9 650.6 652.9 679.4 702.8 722.2 741.5 705.8 672 629.6 617.7 606.5 609.3 611.9 629.8 645.9 664.6 692.6 721.8 755.5 768.3 762.6 751.8 741.5 731.4 720.5 708.5 696.9 684.1 670.5 684 703.7 726.3 748.7 769.7 789.8 794.5 759.9 749.7 708.7 697.5 675.6 653.7 627.1 594.3 561.4 550.6 543.2 545.4 551.8 562.7 570 583 598.3 614.3 631.2
320.4 317.1 313.6 306.4 300.8 297.8 302 308.8 315 324 332.5 340.5 349.2 360.9 380.9 400.7 417.7 426.9 434.4 440.6 447.1 451.9 453.1 451.2 449.5 443.1 429.8 406.7 406.4 419 427.9 434.9 437.8 435.5 434.5 433.2 455.3 470 479.5 490.6 499.6 505.5 504.5 488.6 460.5 428.3 398.5 358.9 326.9 291.9 256.2 228.8 209.1 193.9 180.5 167.7 157.2 150.8 142 137.9 136.1 140 135.4 131.6 132.2 135.7 134 130.9 129.7 130.2 130.5 130.7 123.3 122.3 127.7 140.2 139.2 138.2 132.8 126.9 123.7 119.1 114.8 112.8 109.5 108.1 107.7 107.9 106.1 105.5 104.6 103.9 103.4 102.9 102.6 102.2 101.8 101.3 100.7 100.1 99.6 99 98.3 97.7 97.7 97.7 97.7 97.7 110.3 128.7 145.1 150.7 146.3 140 136.6 137.7 140 142.7 146.4 150.3 156.6 167.5 183 200.2 222.3 254.1 283.2 313.6 347 382.7 419.1 448.2 467.6 482.1 510 540.1 550.4 564.9 587.7 606.1 615.5 614.1 623.6 651.3 679.6 693.4 692.9 709.7 733.5 752.4 765.7 765.1 739.1 673 647.4 637.6 637 629 635.6 660.5 683.5 710.6 743.3 771.2 771.2 764.2 756.2 747.5 738.7 725.8 710.8 697.7 684.5 678.6 696.7 714.9 735.8 757.5 777.9 795.3 807.5 789.7 768.4 747.7 705.7 672.5 648.9 622.3 599.8 575.8 551.8 554.8 555.1 562.6 573 586.3 604.2 622.3 639.8 659.1
297.5 297.1 294.9 290.9 290.8 292.3 297.1 301.2 309.8 318 329.3 335.1 343.2 354.2 371 389.6 409.2 425.2 433.7 441.7 450.3 453.9 455.2 454.6 453.1 447 431.5 418.1 427.6 435.9 446.4 452.3 457.4 460.9 456.5 455.7 464.5 481.7 491.8 501.7 508.2 514.8 513.7 487.3 456.4 423.3 385.3 349 314.4 273.9 243.7 221.1 204.5 191.2 179.7 169.1 159.6 151.7 143.4 135.3 139.5 144.1 141.2 133.7 135.2 139.6 138 134.2 132.7 132 132.1 132.7 125 123.5 127.1 139.5 141.4 139.3 135 132.6 128.3 120.5 115.6 116.4 115.3 108.8 106.5 106.5 106 105.6 104.8 104.1 103.4 102.7 102.3 102.3 101.9 101.3 100.5 100.1 99.7 99.3 98.9 97.7 97.7 97.7 97.7 97.7 97.7 113.2 133.6 146.8 142.3 134.8 135.1 139.6 142.9 145.9 150.3 155.6 162.2 167.5 181.6 203.1 228.4 256.7 297.3 327.6 362 407.4 452.5 486.8 510.5 526.6 547.8 571.7 595.4 604.7 624 645.7 659.8 658.4 666.4 693.8 719.4 731.7 737.8 738 753.3 772.1 786.9 797.4 774.9 731.7 704.1 680 664.1 657.9 664 685.6 711.5 736.2 759.8 785.4 782.3 776.2 769.7 759.4 747.5 733.3 719.2 702.8 687.2 687.2 705 722.9 741.3 762.5 782.4 798.2 807.2 801.7 779.9 737.4 699.9 669.4 642.5 624 611.1 587.6 558.8 560 571.7 574 586.9 606.1 629.3 650.2 667 684.3
277.1 281.5 281.6 281.4 282.9 284.5 288.5 292.3 302.6 309.7 321 333.1 342.6 354.1 368.8 385.9 404.1 422.3 435.1 443.2 452.7 461.4 463 461.1 459.1 452.1 437.9 439.2 444 451 462.9 471.1 477.2 481.4 481.3 480.5 482.7 487.9 498.5 507 515.1 518.3 514.5 471.9 437.4 408.1 375.5 334.3 295.2 259 234.6 214.7 200 189 179 169.8 159.1 149.4 143.5 141.2 141.6 148.7 148.7 146.2 144.3 146.3 144.1 142.2 138.1 136.9 139.8 141.1 130 126 128.9 142.6 143.9 141.6 137.2 135.5 132.2 124.5 118.5 117.9 115.2 108.9 107 106.8 106.3 105.1 104.8 104.1 103 102.3 102.3 102.3 101.9 101 100.3 100.2 99.8 99.4 98.7 97.7 97.7 97.7 97.7 97.7 97.7 97.7 117.5 130.1 130.8 134.1 134.9 137.9 142.1 146.6 151.2 157.1 163.3 170.6 185.7 210.7 238.6 267.6 300.6 334.5 370.6 414.9 462.9 506.9 551.9 571.4 585.5 612 635.1 648.3 661.4 682.4 696.4 711.2 706.8 740 755.5 763.7 769.7 773.2 776.4 789.1 802.4 817.1 806.8 778.6 745.4 716 699.5 688.5 696.5 725.3 746.6 762.9 785.5 800.1 796.3 793.8 786.4 777.3 760.8 743.2 725 706 689.1 694.2 710.6 728.2 745.2 765.4 783.4 798.1 807.2 807.1 796.1 745.4 707.4 679.1 657.2 643.8 633.6 597.6 572.6 571.2 581.4 589.8 606.6 628.8 652.3 675.9 696.4 708.5
