ncols 200
nrows 83
xllcorner 320000
yllcorner 512550
cellsize 50
689.6 701.8 710.4 715.3 717.4 714.6 709.3 700.3 689.4 675.2 659.8 643.5 627.8 608.6 576.4 542.7 512.9 493.7 486.8 478.6 469.1 478.9 491.7 506.6 522.9 543.6 570.2 599.3 627.1 655.2 682.7 705.3 714.8 705.7 695.2 687.3 682.2 659.8 615.7 584.9 555.2 522.7 490.5 459.1 430.5 405.2 382.7 354.2 320.7 290.1 262.1 238 215.9 204.5 205.4 222 244.5 263.7 284.3 307.2 333.3 369.6 400 432.9 479.6 525.2 559.9 602 628.4 624.1 618.5 607.2 595.1 584.4 571.9 563.7 549 533.1 513.8 489.6 468.6 455.4 445.5 435.4 424.3 400 373 335.9 304.9 275.1 245.6 215.6 192.4 166.3 149.7 134.4 118.7 104 95.4 87.3 82.8 78.1 83.3 95.1 102.9 109.3 115.3 119.2 141.7 181.2 213.4 251.9 290.2 322.5 349.7 380.3 376.7 363.8 324.5 324 354.3 342.3 311.6 308.9 349.2 350.4 362.8 382.6 388.2 396.1 388.4 385 388.3 393.3 388.3 385.1 374.5 362.7 351.1 352.6 338.4 325.3 300.2 273.9 249.7 240.3 239.2 238.1 239.6 247.2 256.9 273.2 293.4 317.3 342.4 367.7 387.6 400 404.1 409.1 407.7 423 430.1 435.2 440.5 443.9 451.1 459.3 467.1 473.4 480.8 488.2 496.8 502 502.8 503.3 504.5 505 500.7 497 492.7 488.5 482.1 478.9 476.3 471.4 467.2 463.3 455.7 448.8 437.3 428.6 423.5 416.9 411.7 402.6 390.9 381.2 370.5 354.1
690.9 703 710.6 713.5 714.1 709.3 702.4 692 680.1 662.6 644.6 628 612.3 593.5 571.4 541.3 517.2 499.3 488.5 481.2 471.6 489 505 522.5 541.8 565.5 591.3 618.4 645.3 674.6 697.1 712 713.9 709.6 704.1 696.7 685.9 647.4 603.7 574.8 549.2 522.5 494.2 461.6 432.2 405.4 379.4 356.6 325.3 295.7 268.6 244.5 218.6 206.8 201.6 217.9 237.3 256.7 278.7 303.5 334.3 366 397.6 432.5 477.7 523.8 572.1 611.6 632.9 629.2 625 616.5 606.8 592.2 574.5 562.2 554.5 540.2 527.7 515.7 481.1 461.7 440.9 432.8 417.4 413.6 396.3 362.1 326.3 291 259.9 230.7 202.8 179.5 154 138.4 122.1 106 95.9 89.7 81.1 78.5 83 91.9 105.1 108.8 107.1 145.2 151.1 184.8 225.3 267.1 307.2 331.3 349.1 377.7 382.3 352.7 326.2 341.8 345.3 348.9 333 316.6 329.5 342.3 366.3 381.3 380.5 402.2 404.6 386.2 389.1 387.6 385.9 380.5 376.1 361.7 350.7 347.2 343.9 334.8 313.9 289 259.5 250.1 241 238.9 239.7 242.4 251.2 263.9 283.3 309.2 335.5 358.2 376.2 392.3 379.5 387.8 412.9 420.7 426.2 433.7 437.8 442.9 449.1 458 466.7 474.4 482.2 489.1 496.5 504.6 506.1 505.9 507.4 507.5 503.9 500.1 494 487.7 481.1 476.1 474.6 471 466.3 461.8 453.2 445.3 436.3 428.7 415.3 407 404.5 397.8 389.2 372.9 369.7 371.7
688.5 700 708 713.1 710.9 705.6 696.8 687.1 673.2 647.8 628.1 610.9 597.9 582.2 559.1 530.2 510.5 497.6 490.3 481.3 482.8 501.6 519.2 536.6 556 579.3 604.7 632.5 661.2 688.1 710.6 719.4 719.5 714.8 708.7 696 676.3 640 600.3 567.2 540.4 515.6 490.4 458 428.4 402.7 378 349.9 323.4 297.9 272.9 244.5 220.2 209.5 205 215.4 229.5 250.7 273.8 300.9 333.3 359.5 391.3 426.1 479.1 526.1 560.3 604.7 640.3 635.7 632.5 631.9 626 606.3 583.9 565.7 554.4 542.2 531.5 522.2 507.4 478.4 453.8 437.8 433.3 440.1 437.5 412.2 353.6 304.3 268.5 236.1 204.7 186.9 164.2 146.9 131.7 115.6 103.7 95 83.4 78.8 77.8 84.2 91 103.3 107.4 136.2 149.8 180 222.6 266.8 304 333.2 347.8 363.8 365.3 346.9 325.8 334.9 341.6 344.5 337.5 320.4 325.8 337.5 354.7 366.3 375 381.1 392.7 390.2 396.3 386.8 385.2 376.5 375.5 360.6 351.9 343.8 339.1 336 326.4 305.3 278.8 252.4 244.5 240.1 239.8 240.5 248.1 259.9 278.9 304.5 328.7 351 370 369 373.2 392 408.3 417.4 424.3 430.5 435.7 440.1 449.5 458.1 467.2 475 483.2 490 496.9 500.9 502.3 506.3 511.7 511.6 508.9 503.6 494.1 485.6 480.3 474.5 471.7 468.4 463.8 456.5 450.6 446 438.1 430.3 423.7 410.3 400.9 393.2 382.3 385.5 382.6 381.6
686 698.1 706.5 709.5 707.2 700.7 693.8 683.3 669.7 653.9 637.1 615 594.8 577.4 561 543.3 520.5 504.7 498 485.5 492.8 512.4 529.3 546.7 567.5 591.7 614.1 642.6 668.7 695.1 717.7 726.6 721.5 716.5 704.4 673.8 654.3 627.6 595.2 559.8 532.5 507.9 479.1 446.9 420.3 398.1 373.4 350.1 325.7 296.5 266.6 239.8 222.1 215 207.3 212.9 222.8 242.5 268.5 296.2 321.7 353 386.6 421.6 467.7 518 563.5 618.4 639.1 641 634.9 634.4 631.6 616.2 592.6 572.1 558.6 551 547.3 532.9 504.5 476.1 463 446.1 444.7 455.7 462.3 446.8 421.2 354.6 286.3 244.9 209 183.4 162.4 145.4 132.9 123.9 110.1 100.6 91.5 87.4 85.4 80.8 78.8 85.3 98.6 120.3 142.4 174 212 247.1 293.7 314.4 338.5 356.1 354.9 340.7 322.5 332.9 346.4 348 352.4 327.2 334.2 345.9 358.1 371.1 383.6 387.3 395.5 395 389.5 388.6 383.2 377.8 371.9 358.6 350.6 342.1 333.7 328.5 320.4 303.8 278.7 253.9 250.3 247.6 241.8 241.2 249.6 258.4 275 298.1 325.2 345.9 341 348.1 381.2 396.6 408.6 416.8 423.1 429.9 434.9 441.4 450 458.3 467.1 476.2 482.8 490.8 496.8 500.1 502.1 507.7 512.8 513.9 512.3 502 491.8 485 478.8 473.3 469.5 464.5 459.4 454 450.6 445 438.5 429.7 421.5 411 400 389.8 393.9 393.5 389.8 387.5
685.3 694.7 702.1 704.7 701.6 696.8 689.6 678.8 665.7 650.2 632.9 615.9 598.9 584.3 568.6 552.4 533.7 518 503.2 488.5 503 519.1 534.6 555.2 575.2 597.9 619.9 645.8 671.4 697.4 717.7 722.3 721 712.9 692.3 657.2 624 600.9 571.5 544.7 516.5 491.4 467.1 438.7 412.5 389.3 366.8 343.3 320.2 282.7 255.2 243.2 227.6 217.7 209 213.7 222.9 240.5 262.9 288.1 317.9 349 382.5 416.4 465.5 512.9 553.2 588.8 634.2 642.4 634.9 630 625.9 618.2 605.2 577.8 562.9 557 547 535.5 505.9 480.7 471.3 452.6 453.2 467.3 465.2 463 450 409.2 327.5 272.6 219.2 189.6 175.3 162 129.9 112.8 114.3 103.2 96.9 96.6 98.2 87.1 81.2 81.5 96.1 107.7 132.8 158.8 186.3 227.5 273.1 305 330.1 344.3 346 333.1 319.5 329.9 334.8 339.8 353.7 334.8 341.7 347.8 359 363.6 376.5 388 393.6 395.9 389.4 387.4 383.7 380.7 371.1 357.9 346.6 337.6 328.9 321.7 313.6 302.5 288.9 275.4 262 257.3 252 242.4 251.3 259.9 271.6 296 316.6 314.3 337.3 365.3 382.3 394.4 405 413.1 421.4 428.2 435 442.5 449.2 458.9 467.8 476.5 482.7 487.6 492.5 496.6 502.6 507.7 510.2 510.8 508.8 502.1 492.1 484.1 478.8 473.1 466.6 462.1 457.7 451.5 449.6 443.4 437.8 429.7 421.9 415 404.5 402 399.7 399.2 393.1 392.1
673.1 685.8 693.8 698.3 695.9 691.4 683.7 672.1 658.6 642.8 626.2 610.3 595.4 581.5 567.4 552.3 536.4 520.5 505.3 505.3 510.5 526.1 541.2 559.1 579.4 601.3 625.1 649.4 673 695.4 710.4 718.1 717.4 701.5 663.3 631.5 600.3 576.9 548.6 520.8 498 475.6 451.6 426.2 402.4 378.1 353.1 329.6 299 289.9 271.9 252.1 234.7 223.7 217 215.5 223.5 239.2 259.1 283.7 312.7 344.2 378.2 411.8 456.2 503.6 548.5 602.3 645.7 638.3 631.6 625.4 618.9 609 598.3 581.6 567.6 560.2 549.3 529.9 504.1 491.4 479.2 466.7 454.7 473.4 471.3 470 464.5 435.5 391 359.8 268.5 210.8 194.6 179.1 144.8 118.4 104.2 97.6 105.4 112.2 116.7 100.2 83.4 80 87.5 104.1 118.1 141.1 166.2 203.7 245.7 280.5 310.9 326.1 332.2 317.2 320.6 322.9 327 333.9 340.3 335.7 343.4 353.6 357.6 361.5 371.6 378 386.7 392.2 390.4 391.1 383.1 377.4 366.8 356.1 342.6 335.4 325.3 315.9 312.4 305.3 296.1 286 270.9 261.1 263.4 253.2 254 263.2 272 286.5 289.8 321.4 336.6 356.8 373.3 392.2 403.2 412.6 419.9 427.4 432.7 441.8 451.2 458.4 467.5 474.1 479.1 484.3 489.5 494.4 500.9 506.7 508.5 507.7 504.5 499.1 490.7 482.7 476.6 471.1 465.8 461.6 457 450.7 444.6 442 436.8 430.9 423.6 411.4 417.1 413.1 407.4 401.4 398.2 397.2
664.9 671.5 681.3 687.3 686.1 685.1 678.5 665.7 650.5 634.3 619.1 604.8 591.9 578.4 565.5 551.2 535.4 516.4 517.7 525 516.2 533 548.4 566.6 586.4 606.5 628.5 651.6 674 695.6 709 714.5 708.6 682.9 650.2 615.2 580.3 552.5 528.5 503.3 481.1 457.8 434.1 410.1 387.1 360.6 332 330.9 324.2 300.5 279.5 259.1 244.1 230.3 221.8 218.9 224.1 241.7 257.6 280.8 310.5 339.7 371.2 407 481.2 515.5 558.7 586.3 636 637.4 631.9 624 614.9 605.1 595.3 583.9 569.1 562.3 553 538.2 513.3 492.6 486.6 479.7 464.3 479.6 486 483.3 475.4 449.5 404 353.5 305.5 257.6 217.7 176.4 156.2 127.3 106.3 101.7 115.4 119 103.9 90.4 81.3 82.1 80.7 100.3 109.2 127 152.1 184.6 219.5 255.2 287.6 308.8 316.9 309.6 310.4 315.6 331.5 329.6 336.4 347.1 354.6 354.9 370.2 380.9 386.7 388.8 388.2 394.8 392.9 387.2 384.3 376.6 363.9 354.8 339.7 333.5 325.4 319.1 315.1 315.9 308.8 306.8 279 278.5 271.6 268 259 261.1 268.4 273.7 291.5 314.4 332.3 355.3 376 389.6 401.6 412.5 418.6 424 432.2 443.1 451.3 457.9 465.5 471.2 474.2 478.9 487.3 493.5 497.5 498.9 501.6 503.3 500.7 494.3 487.5 480.8 475.5 470 465.1 460.3 455.5 451.3 446.6 441.5 435.4 430.1 428.1 425.4 427.1 422.2 420.5 415.9 409.3 409.9
641.3 652.3 660.2 666.4 669.8 675.5 670.1 656.8 642.7 627.1 613 599.6 587.9 575.6 564.3 551.1 536.3 537 536 538 531.1 542 554.6 573.3 593.2 613.4 635.7 657.8 678.8 698.7 711.2 711.5 689 656.8 624.7 594.7 563 537 512.8 487.9 464.7 440.6 416.7 394.9 371.2 365.2 357.9 355.6 332.9 307.6 284.8 266.7 249.6 232.9 224.9 226.5 225 235.7 254.1 278.4 305.4 336.8 372.1 407.7 456.8 507.7 560.5 595.2 640.2 639.8 633.5 625.3 615 603.9 593 581.6 569.4 563.5 556.9 544.2 520.7 504.1 489.5 483.3 477.8 489.8 485.9 477.9 470.5 434.1 377.4 327 289.3 246.6 213.8 179.6 153.6 128.4 108.5 112.8 118.5 113.2 97.9 87.1 87.1 81.7 80.8 87.2 103.4 119.9 140.4 169.8 212.9 243.3 267.9 288.3 297.9 299.5 296.7 311.3 320.8 322.5 336.2 351.6 353.5 358.3 373.6 396.6 400.9 401.9 392.3 393.1 386 387.6 390 376.5 362.2 347.6 335.8 332.9 329.5 325.3 327.1 322.4 321.7 312.5 291.8 291.1 271.8 271.9 258.5 260.5 262.3 267.7 282.3 304.5 322.5 348.9 371.2 388.7 402.6 410.9 418.6 426.7 433.9 443.2 452.5 458.2 464.6 466.5 471.4 475.9 483.3 490.7 494 494.4 496.3 497.4 494 491.8 488.5 479.4 474.4 469.4 464.6 460 455.5 451.3 448.4 443.9 436 438.3 437.5 437.2 437.7 435.6 439.3 437.1 427 422.6
618.1 630.1 639.2 644.5 643.1 648.7 652.7 644.4 632 618.8 606.2 594.6 584.6 575.4 566.2 556.1 549.2 548.6 548.6 550.5 551.1 553.9 565.7 582.9 602.1 622.7 642.7 664.2 681 697.9 704.9 695.1 662.8 634.2 603.7 573.7 548.8 524.2 502.7 477.6 453.3 425.7 396.8 387.7 387.1 386.5 379.7 364.6 341.3 316.7 294.2 273.9 254 237.7 231.6 241.9 239.4 234.8 256.4 279.8 308.5 340.3 373.8 409.3 461.5 506.9 559 630.7 648.6 644.3 634.2 623.9 614.9 604.5 593.9 583.6 573.3 565.3 557.3 542.1 522.9 505.6 491.4 487.6 481.4 480.9 480.2 472.6 460.8 436.1 398.4 346.6 290.8 260.6 207 175.5 149.3 128.3 113.8 125.2 123.9 113.1 98.9 96.6 93.9 85.5 83.4 82.5 93 116.2 146.1 169.6 201.4 228.6 251.2 265 279.9 287.4 286.4 300.2 319.1 334.9 336.5 344.2 362.1 364 387.4 398.8 409 413.2 391.3 386.8 381.8 381.3 375.9 365.9 356 343.5 337 335.1 334.7 335.7 332.8 328 331.4 323.9 295.9 283 270.5 259.9 259.1 260.9 262.8 267.4 276.5 293 315.3 340.7 371.1 390 402.2 411.6 420.6 429 436.1 443.1 448.3 455 460.3 464.1 470.1 476.1 481.5 484.7 489 490.4 492.3 492.2 490.4 489.3 485.6 477.7 472.8 468.3 463.1 459.1 455.8 451.2 448.4 444.3 445.1 443.9 446.8 444 442.7 443.7 449.4 443.1 440 431.9
588.7 600.8 611.4 615.8 614.9 617.1 631.8 628.8 622.7 611.5 599.4 590.5 582 574.1 568.7 562.1 559 558.7 559.5 562.2 564.9 568.8 578.4 593.4 612.8 631.5 650.5 668.3 684.6 696.3 698.9 690.7 650.2 612.3 584.7 558.3 535.6 513.7 495.2 472.5 450.8 426 425.4 419.1 415.8 405.8 390.4 373.9 351 324.5 300.7 279.1 261.1 247.6 245.1 252.5 259.6 246.7 261.4 284.9 309.5 338.8 375.3 412.3 491.1 533 587.2 633.9 652 648.1 637.4 627 618.4 609.4 600.5 591.1 579.5 569.4 560.4 547.1 535 527.2 515.4 507.9 494.9 482.3 475.4 467.8 456.3 431.4 391 337.3 282.6 247.7 209 175.4 148 127.9 132.8 136.6 132.1 113.9 106.7 99.4 94.7 92.6 89 80 83 111.2 146.7 180.2 182.1 203.1 224.6 243.9 259.2 271.8 274.9 297.2 310.7 320.2 328.5 337.9 363.3 373.3 386.9 406.1 408.4 403 389.3 382.7 377.4 371.2 365.5 355.3 349.3 342.2 337.3 336.1 336.7 339.3 330.6 336.1 332.5 320.6 299.5 283.3 265 259.1 259.1 259.7 261.8 264.5 272.7 287.9 309.3 336.5 362.6 384.2 400.2 413.3 424 430.1 435.8 440.4 445.8 451.3 457.3 463.4 469.4 472.8 476.6 481.5 485.4 486.7 487.1 489.9 487.9 486 481.9 477.4 473.4 467.9 462.4 458.8 455.6 451.8 447.8 444.8 448.9 449.2 447.3 445.6 444.7 447.8 451.1 451.9 444.1 433.9
561.3 574 585.3 590.4 594.7 601.4 590.9 595.2 598.8 592.5 587.2 584.3 580.5 575.8 571.7 568.4 567.7 568.6 571.6 575.3 577.5 582.6 592 603 622.7 641.3 658.2 675.1 689.8 699.6 696 682.4 644.3 599.5 572.4 549.8 526.9 503.4 485 465.3 449.8 451.7 448.9 443 434.2 423.3 411.1 380.8 355.1 329.3 304.6 285.2 270 259.6 259.1 263.7 267.9 250.6 265.7 288.1 316.2 349 379.7 414.7 490.8 543.2 611.7 646.4 650.4 647 639 627.2 618.8 613 607.1 598.4 587 573.1 561.3 552.7 546.6 535.7 529.6 519.7 511.6 510.7 489.2 459.7 420.4 400.7 363.2 327.9 282.4 236.2 206.2 177.2 149.1 134 155.7 154.6 132.5 121.8 113.3 105.2 101 100.6 91.7 81.6 83.1 109 138.3 156.3 159.7 179.5 195.5 217.9 245.8 258.8 269.4 304 298.9 309.4 326.3 350.6 369.8 375.2 390.7 395.6 399.9 397.9 387.2 378.1 373.9 362.7 351.9 344.4 342.5 339.2 336.9 335.3 342.3 346.8 333.1 337.5 330 319.3 300.7 279.7 261.1 259.1 259.1 259.1 260.1 262.1 270.7 286.5 307.6 336.6 358.5 380.4 399.9 412.3 420.3 426.8 433.7 441.1 447.5 451.7 454.3 459.7 465.8 468 472.9 479.1 483 483.6 484.6 485 484.9 483.4 481 477.6 473.6 468.8 463.4 459.2 455.6 451.8 448.9 445.1 450.8 456.9 452.1 448.1 448.5 449.5 450.2 450.9 445.2 436.7
534.3 545.8 555.8 564.5 562.4 574 568.5 562.5 572.2 580.7 574.5 575.7 578.7 578 575.4 574.5 577 580.6 585.1 591.3 592.4 596.4 603.8 615.5 633 649.9 665.8 681.7 694.9 700.7 688.9 669.7 630.6 593.7 567 541.3 520.1 498.1 479.6 475.8 474.7 475.9 475.2 466.1 459.2 443.1 416.9 385.5 358.8 335.2 311.2 292.6 280 271.1 271.1 272 272.2 261.9 275.1 302.3 327.4 354.4 387.3 423.1 481.2 551.6 615.4 635.9 641 639.2 636.4 631 624.5 619 614.3 608.9 598.1 582.9 562.9 553.4 546.8 539.1 530.1 520.9 515.1 499 487 467 419.4 376.8 334.9 300.7 262.5 228.4 196.8 177.3 147.4 157 169 169.5 153.9 128.8 120.7 111.9 110.7 105.9 95.4 82.7 82.5 98.2 120 130.4 145.3 159.9 177.3 217.8 243.5 253.2 271.3 290.3 295.1 316.7 345.1 359.6 371.4 381.4 389.3 397.7 391.4 388.3 381.7 372.4 367.8 356.8 344.9 343.4 339 336 334.3 333.7 336.7 338.3 333.9 332.7 326.5 315.9 295.2 272.5 259.1 259.1 259.1 259.1 260.3 264.7 270.6 283.4 303.8 332 356.3 379.9 397.9 412.4 421.8 426.7 433 438.8 443.8 448.7 452.4 457.4 460.4 465.3 471 476.2 482.1 482.1 482.7 485.1 483.9 482.1 479.8 477.4 473.3 468.9 464.1 458.9 454.8 452.1 449.4 446.1 448.8 454.8 460.7 457.9 452.4 451 451.6 450.6 446.2 437.3
518.1 521.6 532.1 540.3 539.5 544.1 541 535.6 536.8 550 552 556.2 563.2 564.8 566.4 574.8 582.8 588.1 597.6 609.5 605.9 607.3 613.2 626.3 642.1 659.6 674.3 689.8 698.6 693.7 679.8 658.7 617.3 588.1 564 540.3 520.4 508.7 501.5 499.7 496.9 497.1 496.3 491.2 476.7 445.8 416.1 389.6 364.6 340.5 317.4 302.5 294.3 285.9 282.1 280.9 282.8 280.7 279.1 305.1 333.4 356 388.1 470.1 500.7 528.5 571 617.5 632.1 632.3 635.4 634.8 631.3 627.3 619.6 609.3 597.8 583.3 566.1 556.8 552.2 537 523.5 510.2 496 477.3 460.6 444.8 415 361.3 328.4 296.6 248.9 219.3 190.5 164.3 146.7 182.5 193.4 191.6 170.3 142.8 123.8 107.6 107.2 108 97.4 84.3 82.7 93.9 107.5 117.2 128.8 143.6 170.1 205.6 228.4 242.9 263.3 276.6 301.3 327.2 345.2 355.5 379.9 381.1 377.3 388 384.5 379.5 370 364.8 354.9 345.1 344.8 339.9 336 333.7 333.4 331.2 332.9 334.8 331.7 328.2 319.6 305.3 284 264.2 259.8 259.1 259.1 259.1 259.3 264.5 266.6 281.3 300.1 325.9 356.7 383.5 395.6 408.1 417.5 425.5 429.1 436.2 439.7 445.1 451.2 458.3 462.8 466.5 471.3 475.7 481.5 479.4 480.1 481.2 482.9 481.2 478.8 475.8 472.5 468.2 463.7 459 453.4 451 449.1 446.8 449.9 453.6 461.3 465.9 460.7 455.5 454.3 455.4 456 459.4
494.3 504.7 511.8 515.4 518.2 515.3 513.1 518.5 515.8 513.2 524.4 537.3 553.8 564.3 563.9 565.7 574.1 577.9 578.8 596.8 597.7 605.3 615.2 632.7 651.5 668.7 682.9 695.6 697.6 684.3 670.2 648.6 611.3 582.4 559.9 541.1 530.4 532 525.1 521.6 515 507.6 503.4 494.8 479.7 450.9 426.5 396.7 371.4 349.8 330.9 322.5 309.2 302 295.7 295.2 299.9 304.9 314.5 320.2 343.2 368.8 403.9 446.9 504.3 542.9 591.3 617.6 624.8 631 635.5 636.7 632 628.2 617.6 609.2 600.8 587.4 574.6 562.4 540.1 523.8 511.1 498.8 487.8 475.1 454.9 421.6 398.6 349.5 314.3 283 237.8 207.2 182.1 159.2 157.3 203.6 220.4 202.3 183.1 153.6 129.9 105.2 102.3 94.6 95.6 95.6 81.8 90.7 96.5 116 119.5 140.6 164.7 196.6 211.4 232.6 252.9 269.2 296.7 317.9 332.8 354.1 378.1 378.3 370 370.4 367.1 360.7 355.4 347.6 340.5 340.4 343.9 340.2 336.6 333.9 331.8 328.4 326.8 328.1 325.2 320.3 309.3 290.5 285 266.2 259.3 258 259.1 259.1 259.1 262 265.7 276.9 297.8 323.2 357.1 386.8 398.7 409.5 418.8 422.5 428.1 436.4 441.8 447.4 451.3 456.9 460.8 466.4 470.4 474.7 475.7 477.2 478.6 480.2 480.3 479.9 477.3 474.2 471 467.6 463.1 457.9 452.8 450.6 448.6 447.5 450.6 455.4 461.1 465.9 468.5 464.3 459.1 464.8 464.3 463.5
472.8 484 495.1 500.7 503.1 497.6 501.6 508.1 509.7 511.8 516.5 528.2 536.8 544.4 547.1 546.1 548.6 553.6 552.2 559.6 560.6 569 595 624.8 652.5 671.9 689.7 694.7 690 677.5 661 641.2 609.4 581.9 560.2 549.2 547.3 545 539.2 525 512.9 498.7 489.3 475.5 452.4 434.4 412.6 391.9 372.2 361.5 349.1 343.7 330 323 320.4 322.4 330.7 341.3 340.4 339.5 356.9 380.1 410.8 452.7 487.4 539.2 588.3 607.5 620.1 625.6 628.9 629.1 625.2 620.6 610.4 599.5 587.6 575.7 563.2 547.9 530.6 519.4 518.8 504 493.4 480.1 460.4 414.4 375.3 350.6 317.7 268.9 237 203.6 178.8 164.3 167.2 229.3 272 241.8 193.2 165.7 138.2 118.1 102.8 92.9 88.8 83 81.4 84.2 98.1 110.7 106.1 132.2 157.2 185.6 196.7 221.5 235.9 257.3 279.8 307.3 333.7 347.9 359.5 368.1 356.5 350 348.6 345 338.4 335.5 335.2 338.8 340.2 337.1 332.9 331.7 326.3 321.3 316.6 312.6 309.8 309.2 306.5 294.5 287 265.2 259 258.5 258.9 259.1 259.1 259.9 262 276.3 294.9 317.9 347.7 385.5 401.8 407.2 414 422.6 430 435.5 441.3 445.8 453.1 458.6 459.8 466.4 470.7 472.4 474.8 476.9 478.2 479.7 480.5 478.2 475.2 472.1 469.2 466.3 461.9 455.4 451.4 449 448.6 449.4 451.9 457.8 462.1 476.2 473.1 473.3 464.3 471.1 467.5 462.3
450.7 462.7 476.2 482.4 491.1 491.8 491.1 496.5 499.9 505.5 511.5 520.4 523.4 524.3 527 538.3 538.3 537 537.6 536.4 537.9 545.9 564.5 591.9 617.8 648.4 677.1 690.1 684.9 672 653 631.8 605 581.7 565.3 553.5 546.7 546 538.7 527.9 517 506.8 497.9 482.7 465.9 449 426 412.3 393.9 379.5 371.8 368.2 359.9 354.3 350.3 352 357 356.8 354.8 353.1 365.3 384.2 413.5 453.4 508.8 550.9 582.3 597.5 608.7 614 616.9 617.9 614 607.5 599.6 589.5 577.2 566.4 558.5 546.3 529.6 518.5 509.9 497.5 487.2 475.6 458.1 418.5 375.6 334.2 311.1 265 232.4 207 191.3 174.5 175.8 224 282.4 281.4 239 178.9 151.8 131 118 104.4 88.4 83.1 82.8 81.5 93.9 97.3 100 118.5 142.9 173.1 190.5 209.5 227.1 251.2 272.2 294.2 315.7 331.2 333.3 343.3 337.9 334.2 325.4 324.8 330.8 326.1 334 335.7 338.6 326.2 323.6 322.8 322.4 317.1 322 313.9 316.2 313 302.6 293.7 283 267.2 260.2 260 259 258.7 259 259.9 262.4 271.7 290.8 314.5 340.8 367.7 390.4 404.9 413 421.7 428.4 435.2 442 447.2 450.6 457.9 460.9 465 471.4 472.7 474.5 476.4 479 480.2 478 476.1 472.8 469.5 466 463 459.3 452.7 450.4 448.6 449.6 451.7 453.6 458.7 465.9 471.1 475.4 474.2 471.6 472.2 468.7 467
433.9 446.3 457 460.5 465.6 471.8 472.1 480.1 482.9 489.6 495.5 497.9 497.8 501.1 506.6 512.7 510.8 515.8 516.4 517.7 526.2 536.7 548 569.3 592.3 631.5 669.2 687.4 681.4 668 652.4 634.3 611.2 591.1 575 566.8 558.2 549.8 541.2 528 514.5 503.5 495.4 493.7 491.2 479.8 454.1 430.5 410.1 402 391.1 396.5 389.4 380.4 376.8 376.4 372.2 367.2 362 365.1 372.2 390.7 420.5 457.9 514.1 564.4 576.3 587 594.3 599.7 601.5 602.3 598.3 593.2 586 583 573.8 562.9 552.7 541 527.6 516.7 499 485.6 480.4 471.5 462.2 418.5 372.3 328.7 294.9 270.5 241.7 219.8 197.4 174.5 177.6 218.7 267.6 270.3 248.6 202.7 162.6 147 132.8 116.6 100.4 83.6 82.8 81.3 82.1 81.7 90.2 105.8 138.6 172.7 185 199.1 217.6 241.1 260.7 279.9 294.9 301.5 310.1 315.2 312.1 312.2 308.7 313.4 315.6 324.7 330.7 329.2 323 318.7 323.2 323.7 320.4 320.9 324.5 315.2 317.2 315.8 308.1 293.9 281.9 268.9 262.5 260.3 258.9 259.7 260 260.7 264.3 270.3 285 308.2 334.7 367.4 394.2 406.7 415.7 424.3 430.1 435.5 443.7 446.3 449.3 455.4 459.9 463.7 468.4 471.3 476.5 480.9 476.8 476.3 473.7 473.4 469.8 463.3 461.5 458.4 455.1 450.9 448.9 448.9 449.7 454 456.8 460.5 468.8 470 472.9 477.1 475.2 472.1 469.7 463.4
406.7 420.7 433.8 441.9 451.3 451.2 456.3 461.6 466.2 470.4 474.6 473.6 475.1 478.3 484.7 487.9 491.9 494.2 496.7 503.9 511.1 518.6 531.6 553.6 576.4 614.7 649.2 675.4 675.9 663.7 652.3 641.4 630.6 617.3 601.1 585.8 575 561.8 545.6 524.9 507.9 498.5 499.3 502.9 500.1 482.1 459.9 436.6 422.1 413.4 410.5 423.7 417.9 407.1 397.2 389.4 381.8 374.6 368.6 368 377.9 402.9 432.9 475 518.6 549.2 568.3 577.4 582.9 585.3 587.4 587.3 585.3 582.1 577.1 571.3 561.9 550.8 540.8 531.5 519.3 504.6 489.5 481.8 466.1 458.6 450.5 428 368 329.1 296.1 267.7 243 221.5 193 174.2 187.7 215.7 241.3 241.8 222.2 208.4 196.6 160.6 143.7 125.1 106.1 87.2 82.5 82.1 82.3 82.3 85.6 98.8 130 156.6 169.1 184.7 203.2 216.7 231.1 252.3 269.4 276.8 289 296 299.5 301.4 300.9 297.5 307 319.7 318.3 318.9 313.2 324 336.8 327.8 322.5 320.2 317.7 315.9 313.9 308.1 303.2 290.8 281 268.6 267.9 259.8 259.6 260.1 260.8 261.2 263.4 272.1 284.2 306.6 332.6 369 393.5 407.8 417.1 423.6 429.4 434.9 442.5 447.9 448.3 451.9 458.1 463.3 464.7 468.6 473.9 481.2 475.9 473.4 470.3 468.2 466.2 460.2 456.1 451.6 449.9 449.8 450.6 449.3 449.1 455 461.9 461.9 464.1 467.6 473.5 473 472.8 472.7 468.4 461.8
405.7 410.3 416.3 422.9 427.4 430.7 435.2 440.8 441.8 447 452.3 462.4 460.6 461.8 466.4 470.5 474.3 478.8 482.3 486.3 494.3 508.8 521 539.5 564.8 601.6 632.7 652.8 664.5 660.2 653.7 647.4 641.8 637.9 630.7 614.6 599.8 586.2 569.2 538 512 502.4 511.3 514.9 507.7 487.8 466.1 445.5 436.4 431.1 439.8 453.1 452.2 435.7 414.6 405.1 390.1 383.8 378.6 371.8 387.6 415 467.2 505 532.9 551.7 563.2 566.8 572 573.2 575.1 575.6 576.1 572.8 567.3 559.1 550.7 543.1 531.1 520.7 507.8 496.5 486.9 472.9 457.1 438.4 428 417.6 371.3 332.6 293.9 264.9 241.1 215.4 194.8 183.4 196.4 219.6 226.8 219.5 201.6 180.4 172.7 160.2 141.4 122.5 103.5 84.6 83.2 82.6 82.5 82.6 85.5 99.4 121.9 139.1 152.8 170.2 187 198.1 209.4 230.7 250.9 269 284.1 293.1 289.7 287.2 284.7 286.3 292.4 297.4 306 309.2 307.3 334.6 342.2 332.5 322.8 318.4 317 315.2 312.8 307.7 297.9 288.7 280 272.1 273.2 260.9 259.8 261.6 262.2 263 263.4 271 286 304.8 328.1 363.9 389.3 403.8 413.6 421.4 426.5 431.9 442 446 447.1 450.4 455.4 459.6 464.2 468.6 472.2 475.9 473.9 473.4 469.7 465.9 462.9 459.3 455.4 451.3 449.1 449.3 450.1 450.5 450.6 455.5 463.3 466.9 465.4 468.2 473.9 472.8 472.1 473 469.2 465.2
395.9 412.7 415.4 417.8 416.6 418.8 411.5 414.7 419.9 424.9 441.1 445.9 446.8 442.9 447.6 456 460 466.3 471.5 473.7 485.5 501.2 509.4 526.5 554 588.1 616.7 630.7 649.4 658 656.7 653.8 652.2 652.5 651.5 643.7 624.3 610.1 589.3 556.3 528.1 520.3 527.6 523.4 516.3 502.2 478 461.4 455.9 455.9 471.6 491.2 488.8 462.9 448.8 429.5 408.5 394.5 391.2 377.8 398.2 425.9 499.6 541.9 540.2 552 557 559.4 561.8 562.9 563.8 566.6 567.8 561 554.1 545.2 541.8 533 523.9 514.6 502.9 490.7 481.9 468.7 449.4 427.8 403.4 380.5 372.4 337 298.4 264 244.8 212.8 193.8 209 223.4 217.5 221.8 208.6 189.1 165.4 154.1 142.7 130.7 118.9 100.9 83.5 82.1 82.7 82.9 82.3 82.3 90.3 108.4 122.5 137 153.9 173.4 188.1 203.6 225.9 250.2 266.2 274.8 283.7 272.2 268.4 270.4 267.7 276.4 284.5 294.4 300.2 322.5 343.1 340.3 330.7 321.1 318.3 316.2 313.6 308.6 303.3 297.4 286.4 277.3 272.3 275.7 264.2 261 261.2 265.9 266.8 264.7 266.3 287 296.6 323.4 354.5 383.5 401.5 411.7 418.7 424.1 431.6 440.1 443 445.2 449.9 453 455.7 460.9 468.2 472.5 474.4 472.5 471.8 469.6 465.9 461.2 458.8 455.7 452.5 448 447.5 448.1 448.9 449 455.7 463.9 471.1 467.6 468.8 472.2 471.5 471.6 470.8 466.3 464.6
383.4 390.1 400.7 403.5 396.6 396.5 390 393 399 409.7 416.8 420.3 416.5 421.6 428.6 441.4 451.2 456.1 458.9 460 465.7 476.9 492.5 506.2 535.3 563.7 586.2 607.3 617.4 630.6 652.2 658.2 659.8 662.2 665.1 662.6 638.2 627.7 614.2 582.8 552.6 542.7 538.3 534.1 536.5 525.5 500.5 484.1 482.8 491.8 511.1 528.6 527.6 523.8 481.7 459.8 439.9 440.3 430.9 399.7 413.2 437.4 473.6 552.6 545.4 543.4 549 552.4 552.8 552.6 556.3 556.9 553.4 546.2 538 529.9 524 515.9 513.7 510.7 495.9 480.9 465.6 445.7 427.8 410.8 394 373.4 340.7 323 292 267.1 245.4 219.3 213 239 221.2 216.3 224.3 200 184.5 152.7 136.5 124.5 112.6 100.8 89.4 82.9 82.9 82.4 82.5 82.8 82.2 83.5 94.9 108.3 127 148.2 170.5 185 201.1 226.6 242.2 252.7 256 253.7 250.4 254.6 261.4 263.9 274.3 279.5 288.7 296.8 331.2 338.4 335 330.4 324.5 318.9 317.8 314.3 311 306.2 300.5 289.2 281.2 275.8 277.8 269.4 262.6 261.7 266.7 276.3 266.8 268.2 279.9 294 320.6 350.6 375.9 394.3 408.5 416.6 422.3 429.6 437.2 440.7 443.9 450.2 453 454.8 461.1 466.4 470.9 472 471.4 471.2 469.3 466.1 462.8 457.5 454 452 450 446.2 446 446.9 448.4 455.6 465.9 471.1 468.2 467.5 469.9 469.7 469.7 467.9 464.9 460.2
365.3 375.6 385.5 387 384.5 381.3 374.8 384.8 379.5 385 393.5 393.7 385.4 402.1 411.2 423.4 434.7 440.5 442.5 444.8 449.2 463.3 475 486.5 507.9 529.4 552.7 582.2 589.1 603.8 627.4 651.2 662.6 666.4 673 677.5 660.5 650.3 634.9 615 586.5 562.1 553.6 560.2 564.4 562.8 534.4 516.6 515.6 528.3 570.2 593.9 599.9 542 516.3 493.4 505.5 493.5 469.4 430.2 428.8 446.8 474.1 516.7 535.2 536.5 545 542.2 541.1 544.8 543.4 542.5 537.5 529 517 508.4 505.7 502 496.7 485.7 477.4 459.9 444.3 428.3 407.8 390.6 374.9 347.3 326.2 290.3 266.2 245.7 228.5 215.6 219.6 242 217 224.2 211 187.3 163.2 137.3 121.1 108.9 100.9 92.8 84.6 83 82.8 82.8 82.5 82.3 82.3 83.3 84.1 98.5 117.7 139.3 160.9 175.2 188.8 205.2 218.7 228.3 231.8 232.4 233.8 246 248 260.3 268 283.9 291.5 308.5 331.9 336.1 334.5 334.3 325 319 317.4 318.8 315.5 304.8 298.3 286.6 282.7 276.7 275.9 275.4 267.8 264.7 270.5 282.9 272.1 269.2 273 286 306.7 334.8 366.3 389.4 404.4 415.9 419.5 426.9 433.7 439.2 443.2 447.7 453.3 454.5 459.9 468 468.4 469.5 470.1 470.3 468.7 466.8 464.7 459.1 451.7 448.3 446.5 445.9 444.5 445.4 448.6 454.5 463.7 465.9 465.7 467.4 466.9 466.5 468.5 467.2 464.7 458.3
340.7 350.6 360.7 366.9 360.4 354.2 354.6 357.5 354.8 362.9 367 364.4 363.5 376.2 391.2 401.2 408.6 416 422.1 425.6 429.4 444.5 453.4 460.1 479.1 498 521.1 537.9 558.8 576.3 602.6 623.4 651.3 664.7 675.1 688.6 693.9 684.8 668.4 632.7 602 585.7 580.2 588.3 589.6 594.9 589 580.7 567.5 563.5 594.9 631.8 613.6 607.8 567.5 528.7 532.5 525.3 482.5 450.8 434.1 457.1 477.4 511.6 534.6 534.7 529.9 529.4 532.5 533.3 532.3 524.9 518.1 504.2 490.8 488.9 491.2 488.9 480.4 467.6 447.1 431.2 419.4 404 387.4 367.1 351.5 332.5 306.3 283.5 251.2 234 222.2 212.9 222.4 223.7 216.6 214.5 191.3 167.9 142 123.6 111.7 94.4 91.5 86.5 82.5 83.2 82.7 82.5 82.4 82.8 82.8 83 83.2 88.2 108.7 125.7 142.5 158.3 174.8 188.9 201.8 207.3 213 219.2 219.6 227 239.5 252.4 269 289.3 310.3 327 342.5 337.3 340.8 340.4 330.2 323.2 321.8 325.2 316.8 310 295.6 288.1 285.6 277.3 275.8 277.5 272 270.2 276.7 281.6 278.9 277.3 274.2 282.5 300.7 327.6 356.5 380.7 402.9 410 418.1 423.8 430.1 435.6 441.6 447.1 450.9 454 458.8 465.6 468.6 468.2 471.1 469.7 468.7 467.7 464 457.5 452 448.1 446 444.7 444.6 446.2 449 454.1 458.6 462 464.3 468.4 463.1 463.2 465.8 462.9 460.5 455.4
317 335.2 342.1 340.3 338.5 337.4 324.4 328.8 332.3 337.1 342.3 339.6 345.9 350.8 364.1 374.4 380.5 389.4 397.3 404.5 406.4 420.1 426.8 434.5 448.8 466.2 483.6 511.5 535 543.3 571.3 606.9 625.8 641.6 657.9 675.8 690.2 708.8 699.8 662.6 632.2 617.7 615 615.6 617.3 618.8 616.6 617 614.7 626.8 642.5 656.2 643.6 621.5 594.2 571.8 558.8 537.9 499.9 471 448.4 454.4 477.9 502.8 521.2 523.5 516.9 518.9 522.2 521.3 516.5 502.9 487 476.8 467.4 458.3 457.8 456.1 446.3 433.5 419.4 403.3 387.2 374.9 366.7 348.5 329.8 311.1 284.7 258.6 235.7 217.9 211 206.2 217.8 211.1 212.6 202.4 174.8 149.9 130.1 110.1 94.8 84.2 83.4 83.7 84 83.4 82.9 82.7 82.6 82.7 83 83 83.1 84.1 95.1 115.1 134.3 155.2 176.8 187.1 190.8 188 196.6 205.2 210.6 215.8 230.2 250.4 285.1 307.5 323.8 331.3 338.4 336.9 346.1 345.6 332.4 330.2 322.8 322.9 319.4 311.5 298.5 296.2 286.9 278.3 277.3 275.5 275.9 278.9 281.6 281.9 279.3 282.9 284.9 282.2 296.1 320.7 351.4 378.1 394.9 408.2 415.6 422.1 425.5 431.6 441.1 447.7 448 450.3 453.9 462.7 465.6 467.7 470.2 469.5 468.1 466.5 462 457.9 453.2 448.7 446 444.8 443.6 444.4 444.6 447.5 452.9 459.2 463.1 463.2 461.1 460 462.6 456.8 453.7 452.3
296.1 309 320.4 323.6 316 313.1 307.5 310.4 309.5 315.5 321.7 319.3 327 329.1 339.9 349.2 355 366.7 372.7 378.8 382.9 393.5 400.7 408.2 421.1 435.6 462.5 491 505 515.9 550.6 581 594.7 608 633.6 651.4 668.9 696.5 716.9 685.2 667.9 657.5 654.1 651.8 649.5 646.2 644.6 645.7 648.4 658.9 673.6 664.1 641.7 618.7 594.2 574.4 558.1 532.9 504.3 485 463.3 461.9 478 502.7 516.2 514.1 512.1 510.6 510.4 506.4 492.3 472.1 457.2 445.3 433 422.9 419.8 416.4 407.6 395.1 381.5 368.6 350.4 344.2 337.6 327.6 314.9 304.2 274 246.8 234 215.2 201.4 202.6 208.9 201.3 197.7 180.8 159.7 142.8 119.8 103.4 95.5 84.4 83.9 84.2 84.2 83.4 83.2 83.1 83 83.1 83.2 83.3 83.4 83.9 88.8 108.2 128.5 149.3 167.2 175.1 172.1 172.7 181.8 190.8 204 217.8 240.8 269.5 298.3 317.7 331.6 333.5 338.1 335.3 339.9 342.6 335.6 330.2 324.4 324 318.8 317.9 310.3 302.6 291.8 282.1 277.8 276.6 281.2 285.5 288.9 289.2 289.7 286 291.1 294.6 292.6 314.3 337.2 364.1 389.3 405.7 413.5 419.4 423 429.9 439.2 443 444.7 448.5 453.4 459.7 465.8 466.7 470 470.2 468.7 466.4 463.8 462.9 457.4 455.3 450.1 448.5 447.8 442.5 441.5 444.6 447.9 453.8 456 456.3 455.9 453.9 456.6 452.1 447.7 443.4
280.4 292 306.5 303.7 296.1 291.6 291.6 297.2 296.2 298.5 302.2 305.2 309.2 313.2 321 327.8 334.2 342.9 349.4 359.8 365 372.1 379.8 386 397.8 413 435.3 461 477.8 493.3 528.1 551.2 568.9 582.6 606.3 626.1 648.9 681 714.2 714.2 705.8 690 696.6 687 680.5 677 674.6 675.7 679.8 687.5 685 667.9 642.3 614.9 587.4 567 546.1 529.4 506.4 487.2 466.1 466 481.6 499.5 506.1 509.7 508 505.8 499.6 480.5 464.1 442.7 428.3 415 402.9 394 387.7 378.2 369.3 358.5 346.2 335.1 325 318 311.4 305 294.6 285 266.1 247.1 224.9 210.7 196.8 199.3 192.5 186.8 181 168.4 151.2 132.1 111.9 98.3 88 85.8 84.7 84.5 84.4 83.7 83.6 83.6 83.5 83.5 83.6 83.7 83.9 84.3 85.2 100.6 120.9 136.3 148.3 154.8 155.6 159 171.7 186.7 203.9 227.5 259.1 282.8 305.1 320 331.8 332.6 330.9 333.9 339.3 338 335.9 333.7 326.4 326.9 324.6 319.2 312.2 306.4 301.6 290.1 283 281.2 287.3 293.2 298.5 298.2 295.4 289.8 294.4 302.5 300.4 304.1 325.8 354.3 383 402.4 409.2 418.9 422.7 428 435.1 439.1 442.5 447.6 453.2 458.6 462.1 464.3 469.4 475.8 472.4 469.4 468.2 468.2 467.2 460.5 454.4 448.2 444.2 441.3 439.6 443 445.2 447.1 449.6 449.8 451.1 449 452 449.2 440.2 435.7
271.3 275.9 281.8 282.5 278.4 275.4 271.7 280.6 284.2 282.2 284.6 288 293.3 294.4 301.5 308.4 314.8 319.7 331 342.1 343.4 347.1 354.5 361.3 372.5 386.9 405 424.7 441.7 469.5 504.1 516.5 534.2 553.3 575.2 596.8 628.6 657.8 689.1 715.1 735.4 728.5 731.8 732.3 720.7 715.5 710.2 712.5 722.3 710.7 690.3 667.9 641.9 613.2 586.6 572.4 548.4 526.5 508.5 494.9 479.4 470.3 487.3 493.6 501 505.9 506.3 504.8 498.3 485.6 467.8 440.4 413.9 388.8 370.7 360.5 352.8 342.2 334.3 323.6 313.4 303.1 296.6 290.9 284.9 278.7 270.7 260.7 247 227 209.4 200 190.5 185.8 176.1 170 170.8 158.2 143.9 128.5 113.4 95.3 84.3 84.1 84.2 84.4 84.8 84.4 84.1 84 83.9 83.9 83.9 84.2 84.4 84.8 85.3 90.3 105.6 117.8 128.4 134.8 148 162.6 174.2 191.6 212.7 237.2 264 291.7 307.8 320.4 330.4 326.8 330.8 334.6 337.3 338.1 335.5 332.9 328.3 327.4 325.4 322.8 322 313.6 305.2 294.5 287.5 286.1 290.4 299.2 309.4 307.7 297.2 293.6 297.8 313.9 316.7 305.9 321.1 344.6 373.1 392.3 409 419.2 423.8 425.4 429.1 436.3 440 446.9 455 461.5 464.6 465.8 469.7 483.8 489.1 477.5 474.7 470.4 465.4 457.7 453.1 452 451.6 447.2 441.9 440.6 441.1 443.1 443.6 445.5 445.7 446.2 442.1 442.7 436.4 429.6
251.8 258.4 262 264.6 262 257.6 251.3 260 262.9 264.7 266.8 269.9 272.8 277.1 283.6 289.9 295.4 299.8 313.1 322.1 318.3 323.9 330.3 339 347.5 360.4 376.4 393.7 415.2 446.7 468.4 482.1 503.2 524.7 544.8 580.5 609.2 636 664.5 694.3 722.3 729.3 738.4 745.1 748.4 749.6 749.6 746.7 734.5 715 695.2 669.5 642 611.1 588.9 572.7 546.8 523.2 510.5 500.6 499.8 482.9 490.5 492.8 502.5 506.5 506.5 505.4 497.6 480.7 466.9 450.4 424.7 403.8 386.6 373.2 355.1 338.8 323.6 308.7 291.6 282.1 272.4 267.7 260.7 255.5 247.5 238.6 226.2 208 196.5 184.5 178.6 165.6 158.7 157.9 161.6 151.6 134.7 121 105.1 91.5 84.8 84.9 84.5 84.4 84.4 84.4 84.4 84.8 84.5 84.6 84.5 84.6 84.9 85.4 85.6 87 89.3 99.9 108.4 120.1 139 156.9 173.2 192.2 215.6 241.4 267.5 295.2 308.3 322.5 324.2 326.2 333.5 334 335.6 337.1 334.8 334.2 330.7 330.1 327.5 331.2 336.1 324.8 315.4 307.5 300.3 295.4 297.9 305.7 314.6 315.9 311.7 303.5 304.5 317 325 323.8 313.8 330.8 357 383.2 400 411.9 418.5 422.3 427.4 433.8 437.7 448.4 455.8 460.9 466.9 471.4 472.1 481 486.6 480 476.3 473.3 465.5 460.2 458 456.2 453 449.6 444.5 438.6 438.2 440.3 441.6 444.2 444.6 441.9 434.1 435.4 429.2 424.1
232.6 234 240.4 242 236.3 233 230.7 239.1 242 245.7 248.1 255.5 251.3 257.6 264.4 270.5 275.6 281.3 290.4 295.4 298.1 301.2 306 314 321.6 334.6 349.9 364.1 388.7 412 429.5 447.9 470.5 492.9 530.7 556.6 582.2 609.7 639.1 671.5 706.3 718.6 725.2 735.6 741.7 746.2 749.4 745.5 733.3 715.4 694.2 669.5 640.7 610.3 586.7 570.3 543.1 517.6 507.6 498.7 505.2 485.6 493.5 505.3 507.2 511.4 512.6 511.4 506.3 497.1 483.3 463.6 448.7 429.5 403.5 387.5 372.4 361.7 353.6 328.9 312.8 302.6 288.4 275.4 266.9 248.1 235.9 218.1 203.5 195.4 186.6 175.3 163.8 152.6 145.2 144.8 143.3 134 121.1 108.1 100.7 87.8 85.1 84.8 84.6 84.9 84.7 85.1 84.7 85.5 85.2 85.3 85.6 85 85.4 85.9 85.4 86.9 89 91.8 106.1 120.4 135 150.4 167.2 193.1 227 254.3 267.4 289.9 311.6 321 317.2 321.3 330.3 334.7 337.6 337.9 336.5 337 333.5 334 334 337.4 343.2 337.9 327.4 321.9 320.2 308.7 305.5 312 323.7 336.2 330.5 316.5 312.6 322.4 331.5 339.8 333.9 326.2 341.8 366.7 389 403.9 412.5 420.2 425.4 431.6 437.4 447.2 454.3 461.7 471.2 476.4 477.1 477.6 480.5 480.2 479 477.9 474.1 467.4 462.5 457 452.5 448.3 447 438.6 436.4 438.3 440.9 440.8 437.3 431.3 432.2 424 422.2 415.7
209.1 211.3 212.4 212.6 210.5 209.4 206.9 215.4 220.4 222.7 220.6 226.9 228.7 232.9 241.5 249.7 254 263.3 269 276.3 283.1 279.4 279.9 284.9 293.2 306.7 320.1 329.6 355.1 378 392.6 410.2 437.6 476 497.7 525 548.2 579.3 611.6 648 686.5 699.6 709.9 719.2 730 733.5 737.6 736.1 727.8 713.3 690.7 670.4 644.3 615.7 584.6 559.8 542.1 524.5 500.7 498.6 500 492.1 501.9 509.3 517 519.9 521.4 522.3 521.9 519.3 513.1 495.1 481.3 456.2 433.5 413.3 394.3 379.7 357.8 345.3 328.9 313.9 300.5 288 275.7 264.4 252 233.5 212.1 197.3 185.9 173.8 155.7 149.1 138.8 128.5 118.1 112.2 107 103.9 94 87.7 85.7 85.2 84.6 84.4 84.5 84.9 84.5 85.2 85.2 86 85.6 85.6 85.8 85.7 86.2 87.2 89.1 89.9 104.4 119 135.6 148.5 165.1 192.6 224.9 254.6 276 288.9 309.3 316.5 314.3 325.9 337.3 339.3 340 339.8 339.1 337.6 336.4 335.2 336.5 346.9 354.4 351 341.4 331.1 328.4 324 320.1 323 333.4 337.8 340.9 332.4 324.6 331.9 342.7 349.7 348.8 346.5 334.6 349.3 372.9 393.4 410.2 420.8 427.8 429.8 435.7 447.4 457.6 465.6 473.9 477.2 479.7 480.6 481.6 481.8 481.4 484.6 480.1 472.1 465.2 460.3 453.7 450 444.9 437.4 436.8 438.2 435.8 433.2 429.2 427.7 422.8 418.6 409.9 406.2
187.3 187.5 188 188.5 184.6 187.4 187.2 195.2 200.4 204.1 200.5 202.5 215.9 220 224.2 232.5 234.7 242.7 247.7 256.6 264.6 257 260.2 265.5 274.3 284.7 297.1 309.4 325 346.9 358.1 389.4 420.8 446.8 473.3 498.2 528.6 557.5 588.7 620.2 664.6 681.3 695.1 706.9 713 721.1 725.8 726.4 718.1 706.5 687.6 667.2 641.7 612.6 581.9 558.6 533 516.7 501.2 499.9 500.9 498.3 505.5 517.4 522 525.7 529.5 533.5 532.8 533 530.2 518.2 495.2 472.4 452.7 436.4 425.7 409.4 392.3 367.6 339.4 318.5 303 289.1 275.9 262.4 250.5 236.1 213.9 202.4 192.4 179.1 165.3 151.8 144.5 134.9 122.5 111 102.3 99.1 92.1 88.4 86.2 85.7 85.4 85.1 84.9 84.9 84.6 85.3 85.5 86.2 85.8 86.5 86.2 86.5 86.6 87.1 87.9 91 99.9 110.9 128.1 145.1 160.8 184.4 217.2 258.6 275.1 284 301.2 314.4 317 333.5 340.7 343.6 341.2 341 342.8 340.1 336.4 340.3 342.4 354.6 369.2 370.5 355 349 343.8 342.5 342.7 335.8 341.5 350.8 355.2 352.2 340.6 341.3 349.3 356.5 358.9 360.4 357.8 343.1 362.5 397.4 411.8 419.3 425.8 431.4 434.1 447.9 459.4 465.5 474.7 481 482.1 483.5 484.6 484.5 483.5 484.8 488.1 475.5 470.8 468.7 461.8 457.6 451.6 437 433.8 432.6 428.7 426.8 424 422.4 421.1 412.3 406.8 398.9
165.4 165.7 167.4 167.4 165.7 169.9 170.2 174.8 177.9 183.4 182.5 189.1 196.1 200.9 205.8 215 215.2 218.8 223.6 229.8 237.7 238.9 241.8 245.6 252.3 262.7 274 286.4 302.4 316.4 339.1 362.7 389.4 418.8 446.2 472.7 504.9 533.1 574.6 613.2 639.3 663.9 678.9 692.7 703.2 710.1 715.1 715.6 710.8 700.4 683.9 662.4 637.1 608.4 579.7 559.5 533.5 510.4 502.6 502.2 510.1 504.4 509.5 521.8 530.3 532.7 539.8 543.5 544 543.3 540 533 522.2 509.2 490.3 476.3 453.3 436.8 406.5 380.8 356.8 335.6 314.3 294.6 276.7 258.5 243.6 231.1 216.9 207.8 194 179.4 164.3 159.9 152.7 142.8 123.9 108.6 95.3 94.4 91.2 88.8 86.8 85.6 85.7 84.8 84.7 85.1 84.8 85.1 86 86.4 86.9 87.2 87.1 87.2 87.4 87.6 88.8 91.2 99.9 109.9 130.9 145.6 176.5 185.8 208.4 243.8 268.2 284.5 300.7 311.3 318.2 336.2 340.7 343.3 343.8 343 345.3 349 341.6 344 350.1 371.2 381.5 378.2 369.4 365.6 360.9 357.7 354.5 351.7 349.2 355.8 365 364.4 358.4 352.7 357 360.2 365.8 366.3 364.3 355 357.1 382.3 402.6 412 419.6 428.6 434.6 447.8 457.7 466.7 479.1 483.3 487.3 485.6 485.5 486.7 486 484.7 482.8 480.1 476.6 476.6 472.2 460.8 450.9 437.9 432 430.5 426.8 425.1 422.2 417.4 413.5 406.6 402.2 397.1
145.6 147.2 148 151.9 154 155.6 158.4 158.9 161.7 166.5 171 179 185.2 188.1 192.7 196.2 197.4 199.5 203.4 207.4 218.1 221.7 224.1 225.1 231.2 240.2 253.7 264.2 281.7 298.4 320.4 343 370 394.8 423.1 452.7 481.8 515.8 557.7 588.3 603.9 636.3 661.1 679.7 692.6 698.9 705.2 708.2 703.4 691.4 675.7 656.1 629 602.9 573.5 549.6 524.6 512.7 503.9 507.8 510.4 512.5 514.2 527.7 535.7 541.2 545.3 549.2 549 546.5 541.8 534.3 526.4 518 507.2 492.5 474.4 447 416.8 389.7 362.8 342.5 321.1 297.1 280.6 261.4 240.5 226 222.9 207.9 196.7 175.5 169.6 164.6 152.3 140.4 122.4 107.1 97.2 90.3 89.8 87.8 86.5 86.3 85.5 85.2 85.1 85.1 85.6 85.4 85.4 85.8 86.4 87.4 86.7 87.9 88.3 88.3 89.2 92.9 100.2 111.3 127.3 145.4 168.4 185.4 207.8 235.7 256.2 280.8 300.6 305 314 329.7 339.3 343.3 353.2 349.9 352.9 346.9 344.7 347.9 359.6 376.2 389 384.6 387 380.6 374.7 371.7 367.5 364.9 363.5 363.7 376.2 373.2 370.8 366.4 366.8 370.3 371.4 380.4 379.2 368.5 365.6 382.4 393.1 406 415.8 428.3 435.6 448.3 460.4 471.1 480.2 489.2 488.7 488.2 489.3 490.2 489.5 489.1 486.7 482.9 480.4 479.3 475.9 466.7 454.7 443.3 431.9 429.4 424.9 420.2 418.5 413.5 408.7 402.9 399.6 395.3
137.2 139.1 139.6 142.4 143.2 147.2 147.5 150.3 151.5 155.3 155.9 163.5 169.6 173 177.3 177.9 179.2 178.4 181.8 193.5 201.4 202.9 202.2 205.3 211.1 222.7 229.7 252.5 265.1 283.7 302.9 324.3 345.7 373.6 400.9 430 461.5 493.9 519.2 542.4 592.5 635.9 658.2 670.6 678.6 687.9 693.2 696.2 690.7 682.8 668.7 650.8 627.7 603.3 576 554.3 532.8 524.1 520.9 518.4 514.8 521.1 524.7 532 539.9 546.7 550.9 552 550.8 548.3 543.4 536.8 532.3 524.2 512.5 498.1 481.4 458.6 420.5 390.3 364.2 343.7 322.2 303 281.9 266.5 246.2 231.6 214.6 199.5 185.9 181.4 173.5 166.2 153.6 140.3 119.3 105.4 96.3 89.9 87.9 87.3 86.3 85.7 85.8 85.9 85.7 85.4 85.5 85.8 85.5 85.6 86.1 87.1 87.5 87.3 88.1 89.1 91.1 98.4 100.7 110.2 129.1 142.8 159.7 183.5 205.6 235.5 256.7 274.1 288.5 305.8 321.3 334.5 348.4 350.7 354.2 353.6 352.1 359.5 356 351.2 363.2 391.8 399.8 395 398.6 394.1 390.3 390 384.6 392.3 385.3 380.3 380.3 386.2 388.7 384 375.6 378.3 379.4 382.2 384.7 383.6 378.6 388.3 394.2 402.5 412.8 427.5 439.5 449.3 463 474.4 488 490.8 491.6 492.5 494.8 495.2 496.8 495.3 492 487.4 483.2 482.5 482.5 472.8 455 443.7 433.4 429.4 427.5 422.2 415.8 411.8 406.4 401 394.8 390.7
131.5 132.4 132.2 136.2 137.7 138.2 140 139.6 140 138.6 149 151.6 153.4 155.9 158.9 161.9 165.8 163 163.4 170.3 175.5 179.6 182 188.7 197.4 203.6 222.1 232.1 249.9 267.9 287.5 310.7 333.7 358.8 382.6 409.5 440.8 461 495.1 541.7 589.7 633.6 657.3 662.9 667.5 676.5 680 684.1 683.7 673.5 659.3 642.9 623.7 598.8 578.5 559 541.1 528.4 526.7 522.9 521.8 529.5 531.1 538.6 545.7 550.9 551.8 551.7 551.7 548.1 544.8 536.1 529.3 524.6 514.5 500.9 485.2 457.5 421.6 389.6 365.7 343 320.3 299 277.8 257.4 244.5 226.6 213.2 201 187.3 178.1 174.6 161.2 150.4 133.7 117.8 105.9 96.1 89.8 88.3 87.3 86.1 85.9 86.2 86.5 86.1 85.8 85.7 86.3 86.9 86.1 86 87.3 87.6 87.6 87.9 89.2 91.7 94.2 96.4 107.9 129.6 143.4 155.3 177 204.4 229.6 249.3 266.6 291.9 303 319.5 333.8 349.6 353.5 351.7 355.5 372.8 386.2 369.6 360 367 389 411.3 412.5 409.9 416.7 415.1 407.7 397.9 412.5 404.2 396.7 396.6 396.1 399.4 395.9 386 382.5 382.1 385.2 387.7 379.1 384.4 393.7 397.8 405.2 408.3 423.3 436.6 448.9 467.5 479.9 490.9 494.3 496.2 497.5 501 503.2 504.3 502.6 502.1 493.5 486.7 485.1 484.7 476.7 464.2 448.8 437.9 433.1 429.3 422.9 416.6 410.3 404.5 397.2 391 388.6
122.1 122.8 123.9 124.8 127.7 126.7 129 129 131.3 132.4 132.9 135.4 137.2 137.9 143.2 149.6 153.7 153.4 151.9 156.4 160.1 163.4 167.7 173.8 183.3 193.7 200.9 217.4 233.7 252.6 272.5 293.1 314.9 333.7 359.2 386.3 408.7 442.9 482.7 548.4 606.8 631.7 652.7 652.2 660.3 664.1 672.3 678.4 676.9 669.8 655.4 638.4 618.1 591.9 572.7 555.6 539.9 532.4 527.8 522.7 528.2 532.4 536.5 544.3 549.3 551.3 553.1 554.1 549.7 547 544.8 537.3 529 522.1 513.6 504.8 490.7 466.8 432 394.3 369.7 345.3 320.7 300.9 276 256.3 237 225 216 199.3 186 174.7 166.1 159.5 138.5 120.1 118.4 109.4 97.5 90.8 89.1 87.8 86.5 86.1 86.5 86.8 86.5 86.1 85.9 86.7 87.8 88.2 87.2 87.3 88.2 88.1 88.4 88.7 89.8 93.2 95.4 103.7 125.7 140.9 164.1 189.6 209.1 220.2 250.3 270.6 287.8 307 316.4 335.2 352.5 355 355.9 365.4 389.5 411.9 395.2 383 381.3 385.3 404.7 421.9 430.7 436.8 430.3 428.4 422.3 431.8 419 419 410.6 404.3 404.1 404.2 395.9 392.8 387 386.1 384.8 378 387.4 396.2 404.7 412.9 411.7 421.5 433.8 449.9 472.1 482.4 492.9 497.3 501.8 505.5 506.3 509.8 507.4 505.6 503.8 497.1 492.2 488.3 492.6 488.3 477 456.7 442.1 437.5 433.7 425.9 418 409.2 401.5 395.4 390 389.2
125.9 127.2 125.4 125.6 126.9 129 130.7 132.4 132.9 138.4 141.2 139.9 138.6 139.6 141.8 143.7 141.4 142.7 144.5 146.4 148.7 153.4 158.3 166 176.2 182 189.7 204.8 218.9 235.4 255.2 273.4 291.5 311.7 337.4 362.6 392.6 424.3 487.4 543.2 592 607.8 636 641.9 647.9 654.5 664 672.2 669.5 665.4 652.4 633.7 611.1 585.8 566.5 550.2 540.6 532.6 527.8 527.3 531.6 534.5 542 547.8 550.7 551.6 552.8 551.8 547.5 545.1 541.4 533.5 530.3 524.8 517 510 494.5 475.6 438 408.1 381.1 353.3 318.5 294 275.8 261.2 247 227.8 211.9 199 185.3 174.4 167.9 153.9 136.4 120.2 108.9 102.7 95 92.5 90 87.7 86.5 86.2 86.5 86.8 86.8 86.4 86.7 87.8 88.8 89.3 87.8 87.4 87.6 88.3 89.4 88.6 89.8 94 95.7 102.9 116 137.1 165.7 194.1 213.5 221.8 243 273.5 288.8 302.1 313.8 333.7 352.7 363.8 361.2 380.6 413.7 418.8 418.1 402.1 409.9 398.5 409.1 419.1 438.3 442.2 435.7 444.7 445.8 442.8 445 435.2 421 410.8 406.4 403.9 400.2 399.5 392.8 388.5 388.2 384 389.7 394 405.8 414.7 419.8 420.8 434.8 449.9 470.2 484.9 492.9 500.3 504.5 511.7 513.3 512.4 511 505.7 502.9 499.7 495.3 494.1 490.1 487.1 483.1 462.7 450.7 444.7 435.9 428.7 422.1 413.9 401.8 394.1 390.8 390.3
136.8 138.9 137.6 137.8 138.5 143.9 144.2 141.6 143.2 154.4 155.4 148.3 148.3 147.2 152.7 152.3 151.4 150.5 150.5 148.4 147.8 148.7 151 156.5 164.9 167.2 177.6 189.4 205.2 223.8 236.9 255.9 276.3 299 319.8 343.8 373.4 408 508.7 524.6 558 572.6 614.4 633.1 642.2 643.7 656 660.5 663.9 659.9 649.8 630.8 603.8 582.5 563.5 549.9 540.5 536.5 533.6 531.7 534.1 538.7 545.9 548.5 551.1 550.6 550 551 547.2 540.2 536.3 532.7 531 527.2 521.8 514.8 508.3 490.9 465.7 432.3 399.3 369.1 346 319 295.7 268.8 244.7 224.5 211.4 194.6 181.7 173.7 158.5 142.4 145 133.2 120 108.3 101.3 96.5 89.4 87.4 86.2 86.3 86.6 86.9 87 87.2 87 88.5 89.6 90.3 90.7 88.2 88.2 90.5 89.1 89.4 88.6 95.1 96.9 98.8 114.8 135.7 165.5 197.9 214.1 225.8 249.4 270.1 288.7 298.7 314.5 329.4 355.5 362.9 371.1 396.5 426.5 439.7 428.8 420.6 413.1 410.2 411.9 421.4 425.7 445 441.1 443.5 446.3 451.3 453 441.4 430.3 418.5 408.9 405 402.1 399.2 396.1 393.7 387.9 387.1 392.7 395.8 409 419.5 420.9 427.2 433.7 447.6 466.6 485.2 493.8 501.7 508.4 513.7 513.3 511.6 510.9 506.8 503.3 502.2 500.8 495.7 490 486.9 480.9 469 456.5 445.5 441.2 436.8 437.5 431 411.3 400.4 395.2 395
159.8 162.7 159.5 157.9 158.9 165.6 163.5 157.6 168.5 184.3 186.6 173.7 165.9 168.3 172.8 177.4 167.7 169.4 169 168.2 160.6 156.4 152 152.8 155.4 161.8 169.5 179.5 192.6 208.8 224.6 241.2 261.2 281.2 299.8 324.5 350.8 387.4 452.6 482.7 525.9 562.5 601.5 624.8 638.8 639.8 646.1 653.7 654 651.9 647.9 631.4 609.8 587.2 569.7 556.3 545.7 541.5 537.7 536 538.5 547.3 548.9 549.4 552.4 550.2 547.8 547 541.2 537.5 534.4 532.7 530.1 526.8 520.6 514.3 509.5 494.3 475.6 443 411.2 383.8 352.1 320 294.2 272.5 244.5 229.3 213.7 199.6 187.7 178.9 163.7 163 162.8 146 132.4 121.5 111.6 102.9 90.3 86.6 86.3 86.6 86.9 87.2 87 87.6 87.4 88.8 90.3 90.9 91.5 92.5 92.1 102 95.6 90.3 90.9 95.7 97.4 100.8 113.2 129.4 153.9 179 197.9 225.5 257.7 288.3 290.4 302.4 312.5 331.4 351.5 360.1 368.7 399.2 425.5 444.4 435.4 424.4 415.2 414.8 413.1 420 424.3 425.6 436.4 445.1 450.4 459.2 453.9 450.1 445.9 436.2 419.9 407.3 404.6 399.8 397.6 392.6 386.6 390.4 392.7 396.8 406.4 413.2 419.4 432.7 445.6 455.2 464.9 480.5 492.6 501.9 510.3 511.9 514.2 512 510.2 507.3 504.2 503.7 503.2 497.5 490.6 485.8 479.2 469.6 461.4 452.9 453 446.8 450.4 455.6 446.3 420.7 415.2 408.8
191.7 193.9 187.9 185.9 190.4 190.7 188.3 186.3 209.1 212.8 206.5 196.2 191.8 192.7 198.9 203.2 191.4 193.4 190.1 185.4 181 171.1 163.6 157.5 157.2 160.4 162.6 172.9 184.2 197.8 210.7 228.9 245.3 261.8 283 306.5 326.4 374.8 422.4 490 526.7 561.9 592.3 614.1 627 632.4 639 641.9 644.2 650.9 645.5 632.1 616.3 595.7 577.7 562.2 551.7 544.3 541.2 540.2 543.7 550.3 549.4 550 549.5 548 545.1 542.8 539.4 536.6 533 529.4 525.6 521.5 517.9 513.6 513.6 507.4 489.9 453.8 420.8 391.2 370 329.8 304 284.2 253 227.7 208.3 197.3 187.1 178.7 178 181.2 171.7 156.8 147.6 135.4 123.6 110.5 96.4 86.8 86.4 86.7 87.2 87.2 87.4 87.8 88.2 88.6 89.7 90.9 94.3 93.4 103.8 103 105.4 93.6 89.5 97.5 97.6 99.8 108.7 126.6 143.1 161.3 184.6 215.3 248.8 278.2 304.9 308.2 317.5 332.9 341.9 359.6 372.9 421.3 430.2 438.2 439 425 413.9 413.4 411.4 414.2 422.1 424 426.8 435.1 444 450.2 457.4 452.2 455.2 453.3 438 415.4 403.4 400.5 399 399.8 388.4 393.4 392.7 395.8 400.3 406.6 413.3 429 445.5 458 466.6 476.3 488.2 499.3 505.3 508.1 510.8 510.3 512.1 510.8 503.7 502 500.7 498.1 491.3 484.3 478.7 470.2 465 461.5 463.9 463.8 462.4 465.5 460 443 424.4 419.5
240.3 230.9 221.3 217.1 217.9 225.4 220.4 230 235.9 236.6 225.3 224.1 227 227.4 231.8 228 216.8 218.2 218 223.2 208.1 193.4 184.3 175.5 167.3 165.8 164.6 165.9 174.3 185.9 197.9 212.8 227.7 249.1 266.5 286.3 312.5 350.3 398.7 478.2 486.4 542.8 578 605.1 611.6 625.2 627.6 637.3 635.1 642.7 637.9 632.5 619.7 601.8 583.6 568.8 556.6 547.5 545.3 548.2 550.9 550.1 550 548.9 548.2 546.2 543.4 540.9 538.6 535.1 529.7 525.8 523.1 518.4 513.5 510.3 506.3 499.8 484.1 456.3 426.7 397.1 368.6 325.6 296.9 273 246.8 225.1 210.6 197.9 195.7 193.6 195.9 196.3 183 173.7 165.1 152.2 136.4 119.9 105 90.9 86.8 86.7 86.7 87.6 87.6 88 88.3 88.6 89.8 100.6 100.4 94.3 95.8 112.8 111 101 91.9 95.6 97.7 99.4 105.6 122.3 139.4 162.4 181.4 208 239.3 268 297 309.8 322.9 332.3 346.5 353.8 377.2 415.1 434.7 443.6 435.7 419.5 433.8 417.5 414.3 413.8 423.7 425.1 424.5 432 438.9 445.2 453.4 453.1 453.6 447.4 437.5 422.8 410.2 401.9 399.6 397.6 392.7 393.9 393.7 395.7 397.7 403.6 411.9 437.2 451 474.1 477.7 479.3 484.4 492.3 498.1 501.9 505.6 508.2 508 506.7 502.7 501.5 500 497.9 491.7 485.9 479.5 473.4 474 470.8 470 469.1 473.3 476 473.6 456.3 437.8 425.5
275.9 273.7 260.5 252 259.7 252.9 260 262.2 268.5 260.7 250.1 252.7 259.5 270.3 270.2 260 245.5 245.5 246.9 247.2 238.8 229.5 210.3 197.9 188.9 175.2 168.2 167.2 169.4 177.3 188.7 199.9 216.4 234.5 251.6 275.9 298.7 333.5 402.5 440.8 462.4 521.1 561 582.7 604.1 615.7 615.9 624.5 629.9 628 633.1 628.7 616 600.8 583 570.4 559.1 552.4 549.4 553.3 552.7 551.4 549.9 548.2 547.1 543.8 541 537.4 534.6 531.2 528.4 524 518 512.8 503.7 496.6 493.8 479.5 466.5 448.2 434.6 392.6 361.2 320.8 291.3 266 243.9 228.7 212.2 197.3 203.8 209.2 217.6 230.7 214.6 204 189.3 171.3 155.8 139 124.1 109.5 94.5 87.5 87.2 87.7 87.7 88.1 88.4 88.5 90.5 97 102.4 100.7 95.7 96.2 101.2 97.3 95.2 94.8 95.3 98.5 100.9 119.3 140.7 161.4 193.2 228.7 261.6 286 303.1 313.7 323 332.3 342.5 346.9 365 391.6 422.4 443.2 438 418.5 420.5 417.4 415.5 417.5 420.2 421.8 422.2 426.1 432.5 436.7 444.8 448.2 451.8 449.9 444.1 429 415.9 403 397.2 393.7 392.9 394.9 396.1 396.6 399.3 404.5 416.5 435.9 459.2 472 477.7 481.1 483.3 488.2 492.4 494.9 498 501.1 502.9 501.5 501 501 500.3 497.5 492.9 489 480.3 476.5 476.3 478.1 477.6 480.2 480 481.9 478 462.9 445.7 432.8
314.6 330.1 320.7 307.4 297.1 293.1 301.6 298.2 300.6 290.7 293.9 287.1 291.6 303.4 296.8 288.7 280.4 275.5 276.1 276 279 265.2 251.6 225.5 210.2 191.8 184.6 174.1 171.2 174.9 181.4 192.6 207.4 222.4 236.8 259.1 281.2 313.9 350.2 395.4 431.5 477.4 523 558.4 588.7 597.9 607.5 616.3 618.6 622.9 623 618.6 610.5 599.1 580.4 570.4 560.7 556.6 557.4 558.2 555.2 551.8 550.2 548.6 544.6 543 539.4 534.9 531.5 528.3 525.9 521.7 515.5 506.6 499.7 490.1 478.2 468.5 451.9 434.4 416.9 381 347.1 316 285.3 260.5 239.7 224.6 211.8 209.1 213.5 222.1 238.7 263.7 261 241.3 223.2 194.2 177.1 159.5 143.6 129 112 94.1 88.1 87.7 88.2 88.4 88.9 89.2 90.9 94.5 97.5 99.2 96.9 97.1 98.4 89.8 94.9 91.7 91.9 96.8 100.1 118.5 139.2 160.3 192.4 228.4 266.3 289.1 304.9 322.8 342.2 347.7 346.4 345.5 366.9 387.3 419.7 438.5 434.4 423.8 426.1 429.9 420.9 413.9 412.8 420.2 413.9 417.2 427.3 433.4 440.4 447.7 451.6 458.5 452.8 438.4 421.7 411.7 397 395.1 393.6 395 396.3 397.6 401.5 414.7 425.5 437.3 452.3 470.9 475.7 478.2 481.4 484.4 487.6 490.2 492 495.9 498.2 499.8 500.2 499.8 499.2 498.4 495.2 491.1 484.4 481.4 481.1 481.3 482.6 483.5 485.8 489.6 494.6 484.6 475 446.6
365.3 375.4 379.2 357.5 331 333.3 336.4 343.8 331.2 335.2 333.8 323.9 331.1 332.7 327.7 323.7 316.8 307.1 307.2 310.1 305.3 296.1 275.4 253.3 232.1 219.5 206.9 190.3 179.3 176 180.1 187.5 198.4 207.1 224.2 244.8 273.4 308.2 342 370.2 406.5 462.6 486 515.4 555.9 581.8 588.4 605.3 609.6 615.8 614.1 608.3 601.8 596.3 586.6 575.5 567.6 564.9 563.5 561.2 557.9 554.2 552.1 547.7 543.6 540.6 537.5 531.3 528 523.1 520.1 516.9 511.2 501 495.5 486.2 475.6 460.3 440.1 415.8 391.8 369.2 349.5 304.4 274.9 255.6 239 226.9 216.7 217.8 222.2 234.5 249.7 273.5 279 268.3 256.4 230.4 202.1 181.8 163.1 147.5 128.9 109.9 98 92.4 88.6 88.7 89.2 89.9 90.3 98.2 97.2 97.1 98.3 98.5 96.4 91.2 91.1 91.7 91.6 95.5 98.5 114 137.6 163.7 192.3 224.6 262.6 294.9 313.2 339.3 353.8 361.2 356.7 345 353.9 378.2 403.4 438 427.6 427.1 425.8 427.3 420.8 410.4 409.3 408.5 409.3 415.5 423.4 434.9 438.3 446.8 452.9 457.4 458.2 447 434.3 417.2 399.8 395.8 395.1 395.2 396.5 397.4 401.7 416.4 434.9 446.8 459.4 467 472.4 471.8 474.7 474.1 482.2 485.7 488.3 491.5 494 497.1 497.7 498.7 498.4 499 498.3 493.8 490.9 488.7 486.4 488 489.4 490.8 494.5 497.2 501.3 495.6 480.9 454
383.5 404.2 411.4 393.1 377.9 377.6 388.2 383 383.8 388 378.4 372.4 367.6 367.8 364.4 360.2 354.4 346.8 343.1 345.2 353.5 332.3 317.8 294 277.6 249.7 229.2 215.4 201.3 192.2 186.2 183.3 193.4 202.3 218.9 242.4 262.8 290.7 319.1 346.5 377.8 425.8 442.9 482 510.7 542.2 573.8 595.3 597.4 602 604.6 600.3 594.9 592.1 584.1 580.6 573.5 568.8 563.7 561.5 559.5 554.4 550.5 545.9 540.4 536.3 531.9 526.5 523 518.5 512.7 511.2 504.3 491.8 484.8 475.1 466.4 458.8 439.8 415.6 400.7 369.1 343 319.4 292.2 267.9 249.2 232.2 222.1 228.2 231.6 241.9 261.2 275.6 275.8 277.5 272.6 262.1 240.3 213.8 187.8 163.9 145 126.1 108.6 102 95.2 90.7 89.5 90.3 90.1 93.1 95.4 96.7 101.6 96.8 95.4 91.1 91 92.1 92.2 92.5 96.9 109.9 136.1 163.7 202.1 239.7 264.1 301.7 327.5 354.5 367.1 375.2 370.8 352.2 354.8 372.2 400.3 430.2 429.5 426.1 414 410.7 415 411.3 409.4 410 408.9 418.2 428.1 429.1 434 444.8 451 458.1 462.2 454.8 439.8 424 409.4 398.9 397 396.1 397.2 398.9 406.1 441.6 455.2 462 463.5 464.6 463.2 465.6 467 468.5 472.7 480.1 484.9 488.4 491.3 493.9 495.4 497.2 497.9 498.8 498.7 498.2 495.3 492.8 490.3 492.1 495.3 499.5 505.3 514.9 512.5 505.6 490.7 467.4
363.8 388.5 417.2 435.6 427.6 415.9 425.7 428.4 426.8 425.3 417.6 410 405 405.3 404.7 400.8 391.3 395.5 379.8 381.6 388 383 357.4 354.7 335.8 302.7 270.4 247 226.9 210.7 199.8 189.5 190.3 198 215 240.5 253.2 272.7 301 325.2 355.2 386 414.7 448.6 494.4 544.8 561.8 571.7 580.7 592.5 591.9 585.9 584.3 582.7 577 578.5 568.2 564.2 561.8 560.5 558.7 554.8 551.5 545.3 538.7 533.6 527.3 519.2 514.2 509 504.2 497.1 491.4 484.8 473.9 458 446.6 432.8 414.4 406.1 393.5 367.3 344.7 322.9 309.2 287.3 255.9 234.1 236 251.9 267.3 272.4 274.1 268.6 279.6 277 266.2 252.3 243.3 235.1 202.5 177.6 158.3 138.8 117.9 105.9 99.6 94.8 91.6 90.9 91.1 92.6 95.1 98.6 96.8 96.2 97.8 91 91.2 91.8 92.6 92.3 96.3 106 129.6 171.8 213 246.7 282.5 303.1 348.8 367.5 379.1 389.4 390.2 364.7 352.4 366.6 395.1 411.8 416.2 415.6 411.1 412.3 421.6 416.6 407 407 406.8 421.3 424.1 426.4 431.5 437.6 448.9 460.6 474 466.2 449.7 431.4 414.7 403.4 398.2 398.6 398.2 401.5 407.4 437.9 458.3 456.2 458.9 458 456.3 457.6 459.1 465.2 471.8 474.4 480.2 484.9 487.3 490 492.3 494.9 496.5 498.1 499.5 499.9 498.5 494 494.5 496.5 505.5 510.1 524.7 527.7 524.1 519.9 504 483.7
343.3 367.4 395.1 433.8 448.9 456.1 468 474.5 470.2 464.9 459.4 452.2 455.1 453.2 453.6 444.7 434.2 438.6 428.6 422.1 425.2 423.8 410.3 407.4 380.6 345.7 318.2 277.1 254.8 238.7 220.2 206.3 195.6 199.8 205.2 223.5 241.2 257.8 279.4 306.6 329.8 362.9 393.7 440.5 476.1 531.2 552.2 560.7 570.5 577.4 576.4 573.7 577.6 572.5 568.1 565.1 562.6 559.9 558.2 557 555.4 552.7 547.9 542.4 536 529.1 520.3 512 504.5 498.5 491.2 481.2 479.9 473.4 447.7 432.3 414 406.3 382.6 372.4 356.4 349.8 339.6 316.9 303.5 271.2 246.2 238.2 250.9 267.4 273.9 271.8 263.1 264.5 267.3 270.4 258.6 243.4 245.4 227.9 203.6 186.5 168.8 147 127.4 115.4 105.2 97.9 93.9 92.5 91.5 90.6 96 97.4 96.3 97.4 97 91 91 91.5 92.4 93.1 93.8 103 136.2 169.7 207.7 260.7 275.1 307.1 346.8 376.7 382.1 394.6 397.1 383.8 359.3 369.9 374.7 393 400.9 417.2 416.3 411.9 422.1 416.6 407 407 407 416.7 423.6 427.3 431.8 441.4 451.6 460.8 471.9 471.1 458.2 439.5 426.9 420.5 406.4 402.7 401.3 401 418.4 434.9 449.9 451.5 453.2 448.2 448.9 451.3 459 471.1 478.9 480.3 476 481.6 484.3 487.6 490 494 497 499.5 501 501.8 500.4 500.9 502.5 510.3 518 529.1 531.4 536.4 536.6 526.6 516.2 505.3
319.8 344.5 371.4 404.7 436.5 466.1 502.5 525.3 533.3 516.9 522.5 517.1 511.7 509.9 509.6 496.3 484.3 489.5 492.3 461.4 486.3 474.7 456.7 446.6 418.3 391.6 353.5 314.6 285.3 266.9 248.3 227.9 212.7 205.3 204.4 212.5 224.2 242.9 261.9 286.7 312.3 341.6 372.4 413.9 453.2 494.7 545.9 550.9 563.2 565.3 567.5 566 561.8 559 555.1 553.9 551.4 549.5 548.8 548.3 548.7 546.3 542.5 536 528.5 521 512.2 500.4 488.4 481.7 471.1 461.3 454.9 438.8 420.7 394.8 376.3 363.6 352.4 341.7 331.8 323.8 315.7 307.2 287.6 262.9 241.9 244 257.1 261.5 263.8 260.8 268.3 261.9 260 263.6 244.1 235.4 236.5 222.9 205.4 188.3 175.2 154.2 137 129.9 119.4 104.3 96.5 94.6 93.9 92.9 99.3 97.2 97.3 97.3 94.6 91.1 91 92 92.7 92.9 95.8 102.7 127 161.7 199.4 235.7 273 306.7 347.3 366.6 377.8 390.3 389.7 381.6 370.3 361.6 376.8 377.5 392.7 412.3 419.2 410.7 420.9 415.3 412.1 407 407 416.6 425.6 434.9 436.8 451.8 463.9 469.1 472.7 475.8 461.9 453.8 442.8 436.1 420.8 415.9 407.1 402.8 407 423.8 437.6 440.7 440.4 437 441.1 451.5 464.8 477.8 482 488.4 481.1 477.3 480.4 484.2 488.4 492.2 495.6 498.9 501.7 504.1 505 508.5 515.1 530 531.8 538.4 530.8 538.1 549.6 543.3 528.2 517.1
300.5 324.3 352.2 388.2 419.6 451.3 487.8 523.2 571 571.7 574.8 564.8 571.1 572 570.5 533.1 540.7 557.4 552.1 516.1 518.1 528.9 520.6 506.2 462.4 424.6 393 355 321.5 297.8 276.7 250.9 232.2 215.8 211.2 210 216.4 231.4 253.2 270.7 290.8 321.3 354.7 393.7 438 471.6 528.4 538.7 548.3 558.6 556.6 554 551.4 547.1 545.1 543.1 541.4 538.9 537.4 538.3 539.4 537.2 533.7 526.6 518.6 509 498.5 480.5 457.7 452 443.3 428.9 415.7 404.1 388.1 366.1 348.3 334.7 328.7 318.1 311.8 300.4 288 277.3 267.2 250 237.7 244.6 247.1 250.5 253 254.9 259 249.8 249.9 243.5 233.3 224 222.1 217.6 202.7 192.4 178.9 160.4 151.7 145.8 133.5 118.3 103.3 96.1 95.6 92.2 95.4 97.7 98 97.8 93.7 91.7 91.3 91.8 92.8 93.6 94 99 119.9 153.8 187.8 221 256.3 304 340.8 371.2 371.7 382.9 389.9 382.3 380.2 359.4 367.9 376.1 391.5 394.7 406.3 405.7 413.2 410.2 417.4 407 407 412.7 427.8 432.9 446.1 461.5 469.5 479.3 474.1 469.6 463.6 466.1 456.4 449.4 434.9 424.9 419.3 411.6 411.7 410.7 422.9 429.6 430 431 441.7 456.6 470.3 483.9 492 490.6 485.4 477.5 477.5 480.5 484.1 488.1 493.2 497.3 501 504.7 507.8 513.6 524.7 530.8 543.8 536 534 541.5 553.9 546.6 533.2 527.4
279.7 311.7 342 369.6 402.6 429.9 465.8 505.1 544.2 587.8 623.1 618.1 618.4 624.2 610.6 600.5 606 611.4 604.8 582.3 563.3 571.5 566.6 564.6 531.6 511.5 447.9 412.2 372.4 329.6 299.4 279.5 262.5 237.5 226.1 217.2 214.3 224.2 237.9 253.4 276.1 304.5 333.4 371.4 413.3 494.9 504.4 518.5 540.3 537.6 545.8 541.8 539.4 535.9 533.6 529.2 526.6 524.5 526.3 525.3 523.8 521.8 518.1 513.5 504.4 488.3 465.5 451.7 431.6 411.9 410.9 391.1 372.4 365.5 350.5 335.6 323.2 313.2 306.1 296.7 289 284.3 271.4 258.1 249.7 238.7 238.6 240.6 235.9 240.1 241.8 244.4 237.1 231.2 228.3 217.5 218.3 214.7 213.9 208.7 202 195 183.4 167.2 161.3 157.6 147.5 132 112.6 97.3 95.6 91.9 97.6 97.9 98.6 98.2 96.2 91.9 92 92.4 92.8 93.5 93.9 97.8 111.1 143.9 176.7 209.6 244.6 283.8 325.5 352.7 358.1 367.5 388.9 394.2 378.4 359.8 360.8 382.5 394.4 394.3 400.9 396.6 402.1 409.1 412.4 405.5 405.5 409 422 439 448.6 451.9 464.7 473.4 472.5 469.8 472.6 478.6 473.2 459.3 448.1 434 441.1 425.3 417 414.4 420 421.6 425 432.9 441.3 461.9 478.5 487.3 494.8 492.4 486.8 481.1 477.5 477.5 478 481.8 488.2 492.6 498.2 502.7 508.2 515 523.4 532.6 537.6 538.7 536.6 541.2 557.5 544.9 535.5 536.1
265.5 300.6 323.6 352.2 378.9 409.7 444.2 494.6 541.9 589.6 622.2 644.9 647.6 644.4 639 636 637.8 632.3 624.5 608.7 605 606.9 611.7 615.5 620.3 600.5 518.1 483 436.1 393.8 358.7 324.9 300.3 266.9 251.2 231.7 220.1 219.5 225.8 238.1 260.1 285.8 315.5 356.6 388.3 442.5 472.6 504.9 518 525.2 533.6 528 525.5 521.7 518.4 511.3 508.8 500.3 509.4 504 494.4 498.5 494 488.6 471.5 447.4 432.4 418.6 409.4 385.9 374.5 362.5 348.6 334.4 321.7 310.6 302 294.5 287.6 275.6 267.3 258.5 248.4 239 231 225.4 229 232.8 227.7 232.6 236.2 235.9 219 211.7 207.4 201.2 196.5 201 201.8 189 184.7 180.3 177.4 169.1 161.6 156 144.7 128.8 111.7 97.6 93.5 94.6 99.1 99.2 98.8 96.4 95.8 92.8 92.1 92.3 92.8 93.3 94.5 96.5 108.6 137.4 167 198.2 229.6 269.6 313.8 325.7 339.7 362.4 380 390.6 384.5 369.1 359.7 377.1 386.8 386.7 402.2 389.8 393.8 398.9 404.5 408.8 405.7 406.9 421.4 438.6 441.9 449.3 458.9 475.6 472.1 472.1 476.4 475.3 472.6 468.8 458.5 444.4 438.9 430.1 421.7 420.5 419.1 421.5 425.4 430.3 445.1 466.7 483.3 492.4 500.7 496.3 490.9 485 477.5 477.5 477.5 477.5 480.6 486.8 493.8 499.9 506.3 513.8 521.8 531.2 536.5 536.8 536.8 543.4 547.5 547.1 537.1 538.4
250.9 280.1 302.3 331.5 359.5 391.3 434.7 488.8 534.9 573 609.8 633.9 638.6 628.1 628.5 629 627.4 625.1 625.6 620.1 612.9 616.8 613.7 614.8 624.5 631 603.3 544.8 457.7 436.9 399.6 363.1 323.7 297.1 274.4 249.8 234.4 228.2 227.9 232 247.2 270.7 302.4 336.8 372.6 410.8 442.4 489.5 507.1 517.1 512.9 510.1 510.1 507 502.3 496.3 488.1 478.5 487 483.7 457.8 467.1 458.6 443.9 430.2 414.7 403.4 388.9 375.7 361.4 346 335 324.2 310.8 299.9 288.9 283.2 276.7 268.1 259.7 247.7 237.8 227.7 220.1 219 216.6 220.2 222.6 213.3 216.7 214.1 209.7 204.4 194.1 197.1 184.4 183.4 183.3 181.2 174.8 169.6 165.8 163.3 156.7 150.7 141.1 129.6 119.5 103 94.4 95.6 95.7 100.7 99.1 98.9 96.8 96.1 93.3 92.5 92.6 93 93.5 94.5 94.2 102.3 124.2 151.5 183.5 215.1 245.2 271 297.1 318.3 354.5 363.4 370.2 373.9 369.5 364.4 367.4 381.9 381.8 388.7 387.8 389.8 392.1 400.6 406.5 407.2 410.6 417.6 430.2 436.6 448.3 466.5 470 473.4 474 477.3 475.3 474.1 468.1 459.9 449.1 444.7 440.7 430.8 430.5 425.4 423.8 429.8 437.7 450.3 471.3 483.6 500 500.4 496.9 492.1 482.7 477.5 477.5 477.5 477.5 477.5 480.7 488.8 496.7 504.3 511.1 520.2 525.6 528.8 532.3 537 540.4 545.3 547.8 533.5 527.4
234.7 259.5 282.4 307.3 341.4 370.3 416.1 485.6 523.7 539.2 592.8 618.4 619 613.1 615.2 614.9 616 617.7 619 611.2 615.3 618.1 611.2 611.9 616.8 619 611.5 539.2 510.1 527.3 446.2 412.8 357.6 325.9 299.5 273.4 256 246 239.8 241.1 242.8 267.6 299.4 324.7 355.5 388.4 416.9 460.2 488.6 495.9 499.1 496 494.6 496.5 486.7 477.2 460.5 458.6 458.8 453.3 439.4 433.1 425.7 410.5 398.7 385.3 372.9 362.1 348.7 337.6 325.8 315 304.1 294.1 283.3 277.8 269.1 263.8 255 245.3 235.4 222.8 216.1 207.3 202.9 206.7 212 207.8 194.9 198.4 193.7 195.8 186.3 181.4 180.6 172 166.8 168.7 166.3 164.4 157.9 150.7 147.4 140.7 132.8 124.6 114.4 105.9 95.8 99.6 100 99.3 100.7 99.9 99.7 96.5 96.5 94.7 94.2 93.1 93.2 93.9 94.5 95.2 95 108 133.5 165.4 194.8 221.3 245.8 272.4 307.3 331.2 344.3 364.8 382.4 387.5 380.6 359.5 382.3 376.1 379.1 381.5 391.4 410.8 419.6 413.6 409 411.7 418.1 424.9 435.2 456.1 475.4 469.9 472.2 473.2 473.1 473.8 472.8 470.4 464.9 458.6 455.6 456.4 447.1 439 437.4 436.8 437.2 441.3 453 471.3 490.5 500.7 504.8 500.9 492.3 481.2 477.5 477.5 477.5 477.5 477.5 477.5 484.8 492.5 502.3 509.8 517 523.7 526.8 527.8 527.9 528 528.9 533.2 530.9 518.1
220.1 238.2 264 293.2 317.8 347.3 401.4 459.4 500.6 543.8 582.3 600.4 597.9 600.5 602.5 601.4 601.4 611.8 608.7 610.3 616.7 610.8 609.7 609.6 611.8 610.9 607.3 597.4 572.6 567.9 518.4 452.3 388.5 354.9 326.2 297.6 280.6 267.5 257.5 269.7 258.8 254.8 285.7 307.4 331.4 365.8 394.8 428.3 457 479.5 484.1 479.9 484.6 479.5 469 452.1 432.1 431.7 424.7 418.7 411.8 403.5 396.6 381.8 369.6 357.7 345.5 336.1 325.7 316.2 307.1 299.9 290.8 280.1 275.9 265.8 260.1 250.5 243.3 237 226.2 215 205.5 194.8 186.2 188.6 195.1 189.7 182.4 176.2 177.2 175.2 169.1 165.1 170.8 159 159.3 159.4 154.7 149.9 144 136.2 129.8 123.6 115.3 107.8 99.7 98.6 96.6 101.8 102.1 100.2 101.4 100.5 100.1 97.4 96.5 95.4 95.7 95.4 93.7 94.2 95.1 95.6 95.5 96 115.2 145.5 173.6 197.2 220.7 251.3 283.3 315 328.8 352.1 369.8 380.6 374.4 356.9 356.9 363 367.9 373.5 391.7 404.6 425.7 422.1 414 411 412.4 427.8 440.5 466.9 476.3 470.2 470.3 471.4 472.5 474.7 475 473.4 468.8 465.8 463 465.7 463.2 451 447.9 443.2 443.8 456.8 459.7 471.3 490 500.5 510.6 517.1 511.6 495.8 483.9 477.5 477.5 477.5 477.5 477.5 477.5 484.4 496 506 515.5 522.5 525.9 526.9 526.8 525.2 521.5 518.3 512.9 506.3
198.5 219.4 241.4 269.8 297.1 328.6 371.6 415.3 481 503.2 552.9 584.7 585.7 589.2 590.4 590.4 591.8 600.9 599.9 602.6 607.6 602.4 604.8 608.6 606.1 604.7 604.3 604.6 593.2 579.9 564.8 496.5 420.1 418.3 391.4 331.7 312.8 299.3 291.5 320.6 288.5 266.8 267.9 285.5 310.8 343 371.1 404.6 438.2 466 471.4 465.7 467.8 461.1 445.6 426.2 408.7 398.4 391.4 388.6 383.3 378.4 372.1 356.8 343.2 334.2 324.3 318.2 309.8 302.2 296.4 288.7 280.9 274.6 268.3 260.1 251.3 241 228.5 221.8 213.8 207.4 193.9 186.4 177.2 174 175.1 169 164.7 163.6 159.7 161.3 162.5 156.1 151.3 146.5 147.2 143.6 138.4 134.3 130.2 122.6 117.3 111.4 104.5 99.6 99.4 98.9 97.8 102.5 102.3 100.6 104.6 101 100.6 97.7 98.1 95.6 95.5 95.6 94.2 95 95.2 95.3 96.2 95.8 104.5 124.5 149.7 173.6 197.9 230.3 263.7 298.6 325.8 333.1 346.9 366.4 364 357.5 337.8 344.3 363.5 385 393.9 405.3 418.3 433 442.7 433.4 428.8 435.3 449.3 455.5 462.1 464.9 468.1 471.7 471.9 474.1 476 476.1 472.1 471.7 469.5 475.6 480 462.7 455.8 453.5 454.2 457.2 462.5 475.1 486.2 500.2 520.1 524.6 517.8 502 485.8 477.5 477.5 477.5 477.5 477.5 477.5 482.9 494.5 506 514.4 525.5 528.3 529.5 526.7 524.3 517.9 516.5 507.9 494.8
182.3 202 226.7 246.8 276.3 308.5 346.8 402.7 436.6 477.5 535.3 564.2 568.9 573.9 575.8 580.1 589.3 591.1 591.3 593.5 594.5 600.2 599.9 600.7 600.4 600.8 594.8 588.2 584.1 575.9 565.2 550.6 491.2 475.7 440.5 388 354.5 340.7 332 339.1 311.4 284.7 275.1 276.7 300.7 329.8 358.5 393.4 419.7 446.6 455.3 451.3 452.4 436 422.2 402.5 388.3 369.2 368.2 362.9 360.7 359.5 349.3 337.9 327.1 318.7 310.2 303.7 299.3 294.7 288.6 279.3 275.1 268.4 256.6 246.9 237.2 229.2 221.6 213 198.7 191.4 180.1 173.2 163.9 158.4 156.1 150.1 147.6 146.8 147.5 147.1 148.4 142.2 134.1 134 131.4 127.6 124.7 119.9 115.9 111 106.1 100.6 100 99.8 98.8 100.8 100.9 102.5 102.7 101.7 103.7 102.1 102 103.4 100 96.5 96.1 96.3 96.5 95.6 94.9 95.5 95.7 96.3 96.9 108.7 127.1 151.1 177.8 211.1 244.4 277.6 303.9 317.9 336.5 353.8 353.6 346.1 331.5 339.4 363.9 379.6 384.5 396.1 420.7 436.9 434 439.7 437.6 436.2 443.2 448.2 453.8 459.7 464.2 470.2 471.9 474.7 478.9 477.8 476.5 474.8 473.7 480.1 481.8 475.7 468.2 460.9 461.5 470.3 474.1 476.3 485.5 502.5 518 528.6 525 517 509.1 496.3 481.7 477.5 478.8 476.7 477.9 482.9 493.4 508.1 517 523.1 528.2 528.9 526.1 525.2 518.2 512.4 504.2 490.2
167.5 185.9 208.8 232.7 261.3 288.9 327.8 364.9 409 467 508.9 550.6 557.2 560 563.6 570.1 578.4 582.2 582.2 581.7 593.3 592.7 590.9 592.7 591.7 595.5 589.6 583.1 576.1 567 558.4 537.9 519.9 512.5 485.3 433.1 390.8 386 372.6 357.8 331.8 308.4 291.3 279.5 290 316.2 349.7 384.2 410.7 427.4 436.8 436.1 432.3 421.3 398.6 381.5 370 357.1 347.3 347.7 345.4 341.2 334 326 315.3 310 301.7 296.4 291.1 288.2 276.6 269.8 262 251 249.8 243.2 230.6 220.3 217.9 200.4 191.9 186.9 178.7 177.9 168.5 159.5 151.8 140 132.6 134.2 134.6 134.6 131.1 125.7 119.2 119.6 119.3 113.5 110.7 106.5 103.8 101.2 101.1 100.9 99.9 100.3 100.9 101.6 100.2 99.5 104 102.4 104 102.5 106 111.3 108.5 102 96.3 96.4 96.4 96.4 95.1 95.5 96 96.7 96.5 97.9 110.4 129.6 158.7 191.9 219.9 243.4 266.8 290.1 315.1 327.9 337.7 340.4 341.4 308.7 340 366.8 377.7 416.2 423.8 449.3 437 432.1 428.2 432.9 434.3 443 446.4 453.9 460.8 468.8 471.9 474.8 476.9 477.6 478.1 477.9 478.9 481.6 484.2 480.4 477.8 470.9 473 478 480.2 483.6 498.2 510.8 523.5 527.7 530.5 523.1 514 505.2 490.1 482.4 481.8 480.2 480.8 486.7 494.7 506.9 516.7 524.8 529.8 530.3 526.4 524.7 515.8 510.3 501.6 488.2
154.9 173.7 194.5 219.7 244.8 275.6 309.9 359.9 395 437.8 476.7 528.8 542.4 547.7 551.9 563.4 571.6 569.4 571.8 577.7 584.5 581.6 578.5 576.6 586.1 585 582.6 573.6 566.5 563.8 555.2 544.3 527.2 516.2 497 476.8 441.3 443.1 406.7 389.7 367 341.8 319.4 300.9 292.7 309.3 345.6 369.5 391.3 421.3 427.8 426.7 410 400.3 383.6 367 352.3 345.1 332.1 333.6 330.6 325 323.2 317.3 312.3 306.8 297.8 292.3 288.1 278.7 272 264.6 266.3 264.3 261.6 255.4 246.1 237.2 224.7 218 210.9 199.6 193.9 185.8 178 164.6 151 138 126.6 124.5 123.6 120.5 117.9 115.7 112.8 111 109.9 106.4 105.4 104.8 102.9 102.7 101.8 101.2 102.2 102.5 102.3 101.9 100.5 100.4 104.4 103.4 104.1 112.2 118.2 123.5 120.1 112.7 101.5 97.3 97 96.7 97.1 95.8 96.6 97.2 97.2 97.5 98.6 111.9 134.4 162 189.6 201.6 222.3 249.5 280.2 304.6 319.6 330.8 336.1 302 319.7 346.5 376.3 394.4 418 433 425.3 421.6 428.7 434.4 431.2 436.6 440.1 449.4 457.5 464.1 469.4 473.3 477.7 478.5 478.7 480.7 481.7 486.5 488.4 486.4 480 479.5 479.2 482.9 495.7 502 507.3 517.5 525.6 530.1 531.4 529.6 519.9 509.5 493.8 485.7 483.1 481.6 484.2 488.8 499.9 511 518.9 525.2 527.7 528.9 525.7 520.4 516 507.8 497.7 485.3
148.8 164.8 181.4 204.1 231 259.1 295.1 333.8 375 412.6 451.2 510.4 527.6 536.7 542.9 552 559.4 559.5 559 567.5 569.9 568.7 564.9 572.2 574.5 574.8 560.2 564.3 562.2 553.2 553.5 546.4 527.9 519.5 505 489.1 474.7 452.6 432.4 400.9 387.1 362.4 344.7 327.9 313.9 306.3 332.6 357.5 384.5 407.9 416.2 411.8 402.8 381.5 364.9 353.6 335.9 328.2 322.8 319.1 315.8 314 312.3 311.6 307.5 301.9 295.4 288.2 281.8 275.5 274.3 276.1 274 267.9 264.5 256.7 246.7 237.3 225.5 224.1 219.4 211.5 201.7 187.5 174.9 157.7 141 131.1 124 121 119.7 117.5 114.4 112.9 110.6 108.9 107.8 106.5 105.8 102.9 103 103.2 102.2 101.7 102.7 102.7 102 101.5 101.2 101.8 101.5 105.6 116.1 126.4 139 145.3 141.6 128.6 114.8 104.9 97.8 97.8 98.2 98.4 97.7 97.4 97.5 96.7 97.7 100.1 114.8 131.7 156.6 171.4 189.2 206.1 235.4 266.1 288 304.4 316.4 299.5 292 326.3 359.1 380.2 395.8 403.3 412.8 416.9 434.9 434.2 431.2 436.3 438.7 445.4 454.3 461.2 466.9 471.8 475.9 477.8 480.7 481.6 486.6 488.6 490.4 489.6 488.2 489.1 494.2 505.7 517.7 527.6 524.4 528.5 535.7 536.6 539.1 533.5 528.9 516.8 502.8 496.6 489.8 487.2 491.1 502 511.9 520.8 523.5 526.1 527.3 527.1 524.9 518.5 509.7 499 484.9 473
144.3 156.1 173.9 196 222 255.4 285.1 322.8 371.3 404.9 440.9 486.9 510.2 523.3 536.5 543 544.9 548.2 550.9 557.9 557.2 554.2 555.7 563.2 562.9 560.6 560 564.7 554.4 548.2 544.2 534.8 526.2 517.4 506.4 489.7 473.8 452.4 432 413.7 403.3 383.9 377.7 362.1 339.2 328.6 320.9 349.8 380.6 401.8 404.1 399.7 389.5 376 357.8 335.3 326.5 317.2 312.9 310.7 307.7 307.4 305.4 303.4 300.6 300 292.1 287.2 283.4 283 284.8 283.1 278.7 272.3 265.6 253.1 247.8 238.7 234.2 229 226.2 223.5 214.2 201.7 181.5 158.9 140.2 128.4 120.3 117.9 117.7 116.1 113.8 111.6 110.4 108.9 108.1 106.4 104.4 103.4 103.1 103.4 102.5 102.4 102.8 103.1 102.7 102.5 102.7 102 106.6 118 126.4 139.6 157.9 171.1 162.9 153.6 136.1 122.6 108.3 98.5 98.9 99.2 99.2 99.2 97.6 98.7 97.6 98.7 103.7 115.2 129.2 145.2 167.2 179.5 195.1 230.5 254.2 269.3 278.2 280.1 272.6 307.6 333.7 367 365.4 383.3 396.6 411 435.3 425.8 427.2 434.5 440 445.3 452.9 458.7 465.2 470.2 473.9 478 481.9 486.2 488.6 491.9 494.2 495.3 502.3 511.3 510.5 522.1 536.7 547.3 548.6 548.3 547 547.8 546.2 541.9 536.8 526.9 514.8 508.7 503.2 496.4 499.9 511.6 520.5 523.9 526 527.7 527.8 525.8 522.9 517.8 506.9 492.7 476.7 462.9
143.7 158.6 173.8 195 221.1 249.8 283.2 322.2 372.9 400.3 436.7 472.3 492.8 505.3 523.4 531.8 533.3 532.5 534.8 542.7 544.8 545.5 545 549.5 550.3 551.3 551.4 549.8 546.4 543.4 536.6 530.7 522.6 514.2 501 490.8 474.3 462.8 451.3 431.6 409.3 399.3 385.1 379.7 367.2 358.1 328.1 340.9 368.9 387.8 387.9 385.5 377.5 361 341.2 326.6 315.9 311.3 308.5 307.6 303.9 301.3 299.1 298.9 295.9 293.4 292 289.7 290 290.4 288.3 285.3 279.9 272.6 263 254.6 251.4 245.8 243.3 235.6 235.2 234.2 226.1 213.6 191.2 163.4 151.1 139.3 126.7 120.4 115.5 113.2 112.9 109.9 109.5 108.6 107.1 106.7 105.1 103.9 103.2 104.8 105.2 105.8 107 103.4 103.8 103.7 106.8 108.4 117.7 128.4 140.5 154.3 167.4 189.2 185.4 174.6 170.4 148.9 129.1 113.2 105.7 102.6 101.8 100.4 98.9 98.7 99.2 98.4 99.6 104.4 113 126.2 133.8 143.6 169.8 196.1 218.7 234.6 237.7 243.7 273.6 288.1 310 328.6 344.1 365.9 384 401.6 415.4 418.9 420.5 427.4 437 442.8 450.2 457 464.3 468.9 473.2 478.1 483.1 488.3 491 496 501 507.1 521 528.5 530 538.2 551.4 565.2 572.3 565.9 564 557.3 550.3 548.4 543.6 536.2 527.7 519.3 515.3 508.2 506.2 517.3 524.6 530.1 528.8 528.5 528.8 527.2 523.7 519.7 508.6 492.2 476.2 463.9
146.9 162.9 180 197.1 224.9 254.6 289.2 329.6 363.6 395.5 433.8 468.2 480.4 494.6 515.9 516.5 518.2 519 523.8 529.2 533.9 535.2 538.4 539.6 542.5 542.8 544.3 545 541 535.6 533.5 526.2 517.5 507.9 498.8 490.3 480.4 461.8 452.1 440.9 423.8 410 398.4 387.6 374.7 364.7 342.8 338.7 355.7 372.7 372.6 369.7 365.4 351 334.9 324.5 311 307.2 304.9 305 300.6 298.6 296.4 295.3 294.8 292.4 297.3 303.3 299.2 300.6 293.7 290.8 284.1 273.5 270.6 262.3 263 259.3 255.1 251.7 247.9 244.6 237.5 218.9 199.2 181.2 167.9 161.2 153.8 138.7 128.2 112.6 110.1 109.5 108.3 108.3 107.3 107 105.5 104.3 104.5 108.5 111.6 115.1 114.9 111.4 108 105.4 110.5 117.4 125.6 143.1 160.1 173.2 189 209.2 222.4 200.2 188.2 171.1 153 140.4 124.2 115.8 114.2 106.3 100.3 100.1 100.2 100.3 98.6 100.4 107.2 115.6 128.8 135.3 149.2 173.3 190.4 201.3 216.3 239.5 261 272.7 285.7 299.1 323.6 349.8 372.5 385.3 387.3 397.2 404.6 416.9 426.8 439.8 446.9 455.4 464.2 467.2 472.1 478.7 484.6 490.7 494.4 504.3 511.5 518.3 532.8 543.7 548.2 556.7 568.5 579.5 584.8 580.7 577.1 568.6 557.5 552.7 547.8 542.9 535.2 529 525.9 520.6 516.1 518.6 527.4 532.6 530.8 528.6 530.8 528.5 525 522.3 517.8 505.2 487.7 475.9
163 169.3 185.4 205.5 230.9 265.5 298.7 339.7 372.2 400.7 432.3 464.5 470.3 494 502.3 502 500.2 507.5 513.7 522.2 524.4 527.5 529 531.9 534.2 537.8 537.6 537.3 533.9 533.5 527.8 523.9 519.3 513.6 503.8 495.6 485.3 475 459.3 449.5 437.8 440.2 417.8 401.4 386.1 370.7 354.2 355.6 351.3 359.2 361.5 358.9 353.5 345.2 334 323.6 311.4 305.6 303.2 302.3 301.8 301.2 299.2 297.1 296.6 297.1 308.5 308.7 307.2 308.9 313.6 317.3 314.8 292.3 277.9 269.9 269 270.9 268 264.9 266.6 258 244.7 217.3 195.2 174.6 156.9 152.1 139.7 123.2 113.2 113.1 113.3 111.5 109.9 108.6 107 106.6 106.4 105.1 106.1 113.4 115.8 119.5 119 115.5 109 107.6 120.2 131 139.3 155.6 170.5 187.4 204.3 222.1 245 259.6 247.8 215.1 185 164.6 148.7 134.9 125.9 118.6 114.5 103 101.6 102.1 101.4 99.8 103 110.1 123.2 132.2 142.8 156.2 171.8 189.4 211.5 221.5 240.1 253.5 263.9 278.8 303.1 325.8 349.3 357.9 359.4 387.6 409 417.7 430.5 434.4 443.3 456.2 463.4 467.3 470.2 477.8 485.9 492.3 499.7 510 520.6 528.2 544.8 556.2 561.5 571.9 581 591.6 600.3 598.8 593 578.7 566.9 559.5 554.4 547.7 540.2 533.9 531.1 528.2 537.5 524 529.9 533.5 531.7 532 541.7 536.1 536.7 535.6 532.9 519.8 504.9 498
183.1 180.4 191.7 214.3 243.2 277.4 310.8 370.3 392.3 411.4 450.2 450.5 467.8 481.6 479.5 483.2 492.4 492.9 503.7 510.5 505.9 520.6 519.5 526.3 532.5 531.3 532 533.1 533.9 532.9 530.5 527.7 523 515.8 509.2 500.7 488.4 479.8 470.1 460.7 450.8 442.6 432.9 418.2 400.1 379.1 370.1 361.4 356.7 357.7 356 352.8 347.2 335.9 326.9 317 320 313.6 312.5 313.8 313.7 314.6 313.4 309.1 308.4 311.2 320.1 319.5 320.2 327.6 335.7 340.6 324.9 305.6 285.1 280 278.3 278.7 278.5 278.1 275.8 265 238.2 211.6 190 164.8 149 137.9 127.1 116 112.2 115.8 114.2 112.8 112.6 110.5 109.4 107.2 105.8 105.3 107.5 118.4 121.7 124.8 124.2 118.2 113.5 113 133.2 141.8 155 174.1 191.3 207.7 224.7 243 259.7 276.9 282.8 257.5 213.6 190.7 172.3 157.3 140.4 127.4 118.7 107.9 103.3 102.7 103.6 100 101.6 103.8 112.3 121.6 128.2 141.8 160.1 178.7 200.6 218.9 228.2 241.5 247.4 260.8 286.6 309.5 328.1 328.2 351.1 378.3 391.5 409.3 417.2 414.7 428.7 449.2 462.2 467.5 470.3 476 483.4 493.7 503.7 517.8 529.2 538 555.6 566.1 574.2 585.1 590.4 597.3 610.4 605.9 599.3 587.8 577.2 565.5 559.1 554.1 546.3 540.1 534.9 535.3 539.1 536.1 531.9 535.7 538.9 536.9 547.3 549 558.3 570.9 554.2 545.7 533.2 516
204 201.5 203.8 224.8 250.1 285.8 321.5 372.4 407.2 432.4 436.5 437.7 459.5 465.4 466.3 464.4 474.9 480.4 487.4 497.5 506 511.5 510.2 517.7 523.1 524.9 528.5 530.9 532.3 532 530.5 529 526.2 519 513.1 503.6 495.4 487.6 479.1 469.3 460 451.6 443.1 424.5 407.3 392.5 382.5 369.4 365.2 365.4 358.7 352.6 350.6 345 332.9 335 335.5 335.5 333.5 331.4 333 334.5 336.3 340.2 333.5 334.3 336.6 339 339.7 347.4 350 344.3 325.4 311.9 299.6 293.1 293.1 296.2 288 291.7 281.1 263.5 233.8 206.6 181.7 159.7 139.7 126.4 116.3 112.9 114.8 114.6 114.2 113.3 111.9 110.8 110.3 109.9 109.5 110.1 113.4 123.2 127.1 131.4 132.3 124.1 117.8 122.4 141 154.8 167.1 186.8 205.9 228 238.3 258.3 278.7 303.3 301.9 295.2 245.4 218.3 196.4 179.2 162 143.5 131.9 124.7 114.1 105.5 104.1 101.2 101.9 103 104.1 109.8 117.4 125.3 136.9 162.4 184.4 195.3 210.9 228.6 233.4 253.1 268.9 292.6 300.7 312.6 338.4 360.7 371.7 380.5 386.1 392.1 426.5 452.3 462.6 469.2 475.6 480.8 484.5 495.7 505.3 523 535.5 544.8 558.7 570.5 581.8 595.6 602 607.9 615.6 612 606.4 597.5 586.6 571.6 565.7 558.3 550 543.3 542.3 539 538.6 535.5 535.1 543.2 548.3 551.9 561.8 562.3 577.1 578.3 570.3 561.2 548.3 530
229.6 225.3 226.5 244.6 273.2 303.3 354.5 376.7 391.7 408.2 415 417.2 430.1 441.3 445.3 453.8 460.7 469.8 478.2 486.5 493.1 499.8 504 509.7 514.9 520.8 524.5 528.3 529.8 530.8 531.2 530.2 527.9 523.4 517.4 509.5 504.5 496.5 487.5 481.9 472.7 460.9 446.9 432.2 419.1 407.6 394.7 381.4 373.9 369.6 365.5 361.3 361 359.1 352.9 354 355.1 358 358.3 358 359.5 363.9 363.8 367.7 364.5 364 366.4 363.2 362 367.5 371 378.3 341.5 325.3 313.8 309.4 308.9 310.4 303.6 298.2 279 251.9 227 199.6 170.8 151.9 134.6 120 113.8 112.6 114.2 116.2 114.6 113.7 112.5 112.3 112.1 111.7 112.2 117 126.4 130.8 136.1 142.7 140.2 130.6 125 135.1 149.2 161.7 179.2 200.9 221.5 249.7 261.9 275.1 294 317.7 332.4 309.4 277.6 266.1 240.8 214.9 188.5 165.6 146.1 136.7 126.1 118.1 108.3 102.5 101.2 103.1 103.9 106.3 108.1 113.4 123.2 141.9 159.6 171.9 188.6 205.3 214 229.5 250 264.5 273.6 298 319.7 342.4 342.9 340.7 350.1 386.2 419.7 450.8 464.2 470.9 478.9 485.5 488.6 494.3 508.4 526.6 539.3 549.6 560.7 572.4 577.2 596.1 606.3 614.7 623.1 620.6 616.5 611.3 593.9 578.8 571.1 563 555.2 550.2 547 542.6 537.4 539.4 540.4 548.5 560 571.5 610.6 601.1 590.4 584 578.2 571.2 557.7 548.1
257.1 256.6 257 266.7 295.7 327.3 340.2 349.3 367.4 376.4 386.8 420.5 423.7 429.6 440 438 444.9 455.9 461 473.8 484.1 490.5 497.8 503.9 510.4 517.2 522.3 525.7 529 531.1 531.9 532.5 531 527.9 524 520 514.2 508 498.9 490.4 479.2 468.2 457.3 438.5 439.7 424.3 398.6 405 395.3 390.3 386 381.2 378.6 370.5 377.7 377.1 380.2 385.2 394.1 389.1 386.1 391.3 396.7 415.5 409.6 399.8 396.6 390.2 387.1 391.6 396.4 375 352.8 336.4 330.5 325.7 328.6 320.8 330.3 328.9 311.1 262.5 217.9 192.6 165 145.7 130.9 120.6 113.1 112.2 114.2 116.7 116.3 115 113.5 113.7 113 113.1 119.7 126 131.4 142.6 149.8 153.8 147.2 133.1 140.7 150.8 164.4 176 193.1 215.2 239.4 262.4 283.3 301.4 319 338 362 348 313.2 316 287.7 251.7 221.1 191.8 167 152.6 148.2 134.7 123.7 108.1 105.2 103.3 103.7 105.3 105.9 108.6 114.3 124.4 133.5 148.8 168.9 177.6 198.3 208.9 232.5 247 254.1 280.2 298 308.4 302.3 329.7 366.3 398.2 428 450.7 464.3 471 479.3 486.8 496.9 498.5 512.6 523.1 539.5 549.2 560.4 571 579.4 595.2 611.2 624.1 629.4 631.5 632.3 622.1 610.4 587.3 576.3 568.6 561.5 555.4 547.9 545.4 541.4 544.4 551.3 559.5 572.7 596.4 619.7 609.6 599.2 592.5 584.9 577.6 567 562.8
268.2 278.9 280.7 289.2 294.3 305.7 347.6 374.9 387.1 404.2 415.4 434.3 442.3 453.7 453.1 448.6 447.5 447.1 450.5 454.9 467.4 481.4 488.6 495.9 504.2 512.6 519.3 525.6 529.7 532.3 535.7 537.4 536.6 534.5 531.4 528.2 524.2 516.3 507.7 497.5 490.7 480.2 467.9 463.7 455 445 434.6 429.3 419.6 409.9 403.6 399.7 397.2 392.9 401.9 401.7 404.4 410.7 421.4 417.4 420.4 427.5 426.8 434.6 434.3 427.1 420.8 411.3 407.2 407.8 393.3 372.7 356.8 350.7 345.1 349 341.1 336.9 341.2 330.4 308.4 266.2 218.4 186.7 163.6 140.9 120.5 113.4 113.4 112.8 113.5 118.9 117.6 115.5 115 114.9 114.6 116.7 121.8 131.1 139.8 148.8 155.3 159 149.9 135.7 150.9 162.5 178.9 191.7 211.4 235.1 259.3 285.3 307.6 329.9 360.3 377.4 383.5 383 361.8 359.3 322.9 273.5 242.6 212.6 188.8 171.2 166.9 153.4 134.6 116.1 110.2 105.6 104.8 105.6 106.4 106.6 107.1 109.1 118.7 127.9 143.3 158.5 177.4 194.9 207 224.1 236.5 261.3 272.1 269.9 300.5 338.2 378.4 410.6 438.5 452.6 464.2 472.2 482 491.5 497 505.2 515.1 524.5 536.3 549 561.4 572.5 587.8 597.7 612 632.2 637.6 643.6 642.7 633.6 618.2 596 584.3 574.9 564.7 559.2 555.6 551.5 546.7 553 562.7 569.8 580.3 601.2 619.6 622.5 615.8 607.1 600.1 583.1 578.4 567.6
282.4 294.3 298.9 313.1 324.5 337.3 356 389.6 404.5 420.2 430.5 444.9 459.3 464.7 465.8 457.6 446.8 446 447.9 449.6 462.7 472.6 477.2 485.6 494.3 505.7 515.1 524.1 530 535.9 540.6 543.2 544.3 542.3 540.1 536.8 532.7 525.6 516.2 508.6 500.5 492.4 484.7 478.8 476 466.5 463.5 459.9 455.7 437.7 427.4 426.3 420.3 414.4 422 423.8 427.4 434.2 437.8 441.4 442.6 450.1 444.7 447.4 453.5 455.8 448.7 431.9 424.5 426 407 385.1 372.4 368.5 367.3 373.1 365.7 348.8 339.3 322.9 285 243.7 200.2 175.1 151 129.4 115.9 113.8 113.1 112.3 113.5 117.5 120.4 116.5 116.9 116.3 118.8 123.6 127.9 135.2 148 159.6 166.3 164.6 151.2 145.7 162.5 177.6 191.9 211.6 232 257.5 284.8 318.2 340.8 366.4 386.4 399.3 409 403.2 395.7 377.7 361.2 317.9 278.3 237.7 209.4 190.5 178.1 166.4 146.5 128.1 115.1 110.2 108.5 109.8 107.3 108.3 110.3 107.8 111.1 116.5 122.8 137.5 160.5 175.3 190.8 198.4 215.4 232 233.6 272 307.9 341 377 409.3 436.6 457.7 466 475.5 484 499.1 504.4 511.6 517.7 527.2 534.5 545.1 562.9 574.4 586.4 599.5 617.3 630.2 637.3 645.7 647.4 636.8 626.6 606.8 591.6 581 574.1 568.2 563.6 559.3 557 563.2 569.8 581.6 599.9 613.6 616.3 619.5 618.3 616.3 604.2 590.1 579.3 570
307.5 318.5 331.3 346.1 351.8 363.6 372.2 398.3 435.8 464 466.6 464.9 467.9 469.3 474 459.5 447.4 447.4 447.7 447.4 458.4 462.6 466 474.8 484.9 496.1 509.9 519.7 530.9 538.5 544.2 548 549.7 549.8 548.5 545.6 541.4 536.4 527.3 518.8 511.6 505.5 500.4 495 490.3 481.7 483.8 482.3 476.7 458.8 447.8 443.1 438 435.9 440 442.4 449.1 450.4 448 448.5 451.9 455.5 448.1 449.3 453.5 459.1 453.5 442.8 438.4 429.8 411.5 405.7 400.4 398.2 390.1 385.2 368.7 345.2 315 288.1 251.6 211 181.2 161.8 139.1 121.3 114.3 113.6 113.3 112.8 112.7 114.9 118.8 120.1 118 117.9 121.5 130.2 140.7 145.7 158.1 171.2 174.6 168.4 151.5 162.8 176.4 194 209.3 230.5 253.6 282.3 309.5 347.4 378 409.1 438 425.6 426.7 416.8 407.7 385.4 380.6 348.6 310 270.2 234.9 208.3 189.7 174.6 163.3 141.7 129.1 138 128 130.3 122.1 112.6 115.4 113.4 108.9 112.5 117.2 119.1 139.5 158.6 169.8 183.2 197 206.4 235.9 264.8 295.8 328.7 366.2 401 431.7 455.5 471.9 479 485.3 496 505.5 511.7 517.7 527.9 536.4 544.5 553.1 567.4 583.9 595.7 614.7 624 630.2 636.7 638.9 635.9 627.5 611.9 601.4 592.5 586.4 579.6 576 574.6 568.2 569.6 582.5 596.1 608.8 614.9 617.5 619.5 616.3 611.5 601.1 591.2 584.2 578.5
339.2 365.5 386.9 397.7 389.7 397.4 406.2 428.3 458.9 493.2 489.1 479.2 470.5 480.8 479.9 466.9 451.8 450.7 448.8 455.6 451.1 457.9 460 464.5 475.2 488 501.1 516.4 528.7 539 546.9 552.3 553.9 556.3 556.9 556.9 552.6 545.6 540.4 529.8 524 517.3 516.4 509.6 506.2 504.5 504.6 492 482.2 474.6 468.9 459.3 454.3 452.7 453.3 458.8 460.6 456.8 456.2 455.4 451.8 449.8 444.7 443.1 444 444.6 441.1 438.5 431.7 422.2 414.9 410.9 406.2 393.2 389.9 360.7 356 320.9 295.9 253.5 217.9 188 162.4 142.3 124.7 114.9 114.6 113.3 112.7 112.6 112.7 115.8 118.7 121.9 121.5 134.7 138.2 143.2 150.8 155.9 168.6 178.7 180.7 175.4 159.9 175.5 188.2 207.2 228.2 250.6 277.3 303.5 334.9 362.9 401.8 434 455.3 445.8 452.4 435.9 426.3 401.5 400.3 365.9 329.1 292.2 255.4 223.9 207.9 187.2 180.4 162.7 162.4 187 169 154.2 150.3 134.7 135.5 127 116.3 111.2 113.7 119.3 128.1 140 151.5 160.6 175.3 197.2 220.9 246.6 276.7 309.6 344.1 385.3 421.1 446.9 468.5 481.3 489.5 496.1 499.7 508.4 516.3 529.2 538.2 544.7 556.4 565.4 576.5 594.4 612.9 620.8 627.1 632.8 635.3 636.7 633.3 623.1 612.2 606.1 597.9 586.7 585.6 583.2 581.7 583.3 591.8 603.6 611.5 616.5 620.6 620.7 617.8 612.4 603.9 589.4 582.7 575.3
376.5 406.1 473.1 454.6 466.6 466.4 474.1 471.9 478.2 501 495.6 481.4 472.9 473 484.9 472.3 460.5 453.7 453 452.6 452.9 452.4 452.3 456.9 468.5 479.1 495.3 511.3 526.2 539.1 548.6 555.7 561.1 564.4 568 569.7 564.2 559.1 553.8 546.2 537.7 535.9 529.3 524.9 518.3 513.5 509.5 503.9 500.1 494.5 486.6 476.1 475 467.3 470.3 470.3 467 462.9 458.3 456.7 451.2 450 442.7 439.3 436 432.6 428.7 427.1 416.9 411 416 406 392.6 382 380.6 354.6 307 285.4 256.4 222.2 193.4 169.2 145.8 128.3 116.4 114.6 114.2 113.3 112.9 112.8 112.9 117.5 121.1 123.5 126.5 139.5 146.5 157.2 165.7 177.1 183.3 191.5 192 183.1 172 189.1 205.2 224.2 244.7 269.5 296.8 328.2 358.5 382.9 425 470 478 461.4 460 456.8 429.9 414 410.6 386.5 360.7 324.6 282.5 251.6 227.9 218.4 205 190.9 186.9 232.1 211.1 183.5 177.2 162.2 148.5 135.5 113.4 112.9 114.3 117.3 121.1 125.1 131.1 146.8 161.4 179.8 203.7 229.2 260 296.6 330.6 369.9 403.9 433.3 459.5 475.7 491.7 501.4 497.8 502 512.1 526.1 532.8 542.1 553.1 565.3 576.7 589.5 606.9 616.5 625.3 631.9 636.7 638.2 636.7 632.4 623.7 617.1 610.8 604.5 606 604 599.4 605.9 605.8 609.9 615.1 620.4 624.7 624.6 619.7 611.1 603 590.4 580.9 573.8
417 483.3 502.2 492.8 521.7 514.1 496.9 488 485 490 490.9 485.9 474.8 472.7 477.5 478 479.8 459.8 455.3 455.5 456.3 454.8 453.7 457.8 461.8 474.8 492 508.2 523.8 539.1 550.9 560.7 567.8 575.1 580.5 583 577.6 571.3 566.6 560.5 550.6 543 537.6 537.7 530.8 524.9 521.4 516.3 510.6 506.6 506.9 501.1 492.7 483.3 481.5 477.9 475.6 467.6 462.5 456.8 452.5 448.5 439.9 435 429.7 425.7 415.6 407.6 400 401 396.7 389.2 379.9 366 357.3 327.3 289.4 250.9 220 197.2 173.9 149.6 133.4 121.8 115.8 114.7 114.2 113.7 112.7 113.2 114.5 117.8 122.8 126.1 135.2 150.2 158.4 170.6 177.5 192.1 203.6 218.8 205.4 192.5 188.2 201.7 218.9 239.8 264 292.4 315.7 344.6 388.6 414.5 441.4 473.6 486.6 474 460.1 459.1 437.4 426.1 421.9 420.6 393.8 354.5 311.7 281.3 250.6 241.2 232.1 219.7 214.3 245.2 233.2 210.1 194.5 171.3 149.4 129.8 118.9 117.3 118 119.7 120.6 124.6 125.1 132 144.3 165.4 187 214.2 245.9 279.6 312.8 348.6 388.9 417.8 445.6 468.9 489.3 492.4 494.8 500.2 507.4 519.9 526.5 536.3 545.2 558.6 573.4 588.1 598.3 612.1 622.3 633 639.2 641.8 641.5 638.5 633.5 629.3 621.5 615.3 614.5 615 612.7 609.5 614.3 616.2 621.3 626.3 628.8 633.6 630.1 615.7 603.7 592.7 582.9 573.7
427.9 482.9 497.8 501 506.5 505.3 492.5 486.9 486.9 487.7 490.7 490.1 482 473.1 473.3 475.7 477.1 467.4 462 458.4 459.7 458.1 459.2 459.4 461.6 473.4 485.3 505.2 522.4 537.6 553.5 566.6 577.3 586.4 593 597.5 596.1 590.2 583.7 577.7 566.3 561.4 554 549.5 542.4 539 529.7 525.8 523.8 514.2 509 504.5 498.4 489.9 486.1 483.9 474.9 471.5 466.7 460 451.5 446.5 436.8 431.9 426.8 415 407.2 396.1 388.6 385.2 382.4 370.4 365.4 359.5 334 307.2 267.8 231.7 201.6 178 150.6 136.9 124.7 115.7 115.5 114.5 114.2 113.2 112.9 112.8 116.3 118.8 125.1 130.9 145.2 159.7 172.9 184.4 193.1 207 218.4 232.9 224.5 197.2 203 216.1 234.5 255.4 279.5 313.4 347 374.5 407.7 452.6 468.7 485.5 494 485.9 479.4 464.5 457.8 442.2 428 421 407.2 389.8 333.2 339.4 300.4 253.4 258 252 245.7 253.9 258.3 231.1 204.1 178.5 156.1 142.1 125.7 122.9 125.2 126.2 128.7 128.2 131.6 123.9 132.6 150.4 173.5 199.4 228.9 262.7 299.3 333.4 365.1 396.8 431.2 460.5 476.6 483.8 492 501 506.5 513.3 523.1 532 540.2 554.5 568.7 583.4 596.7 607 623 634 642.8 647.6 651.1 645.7 642.2 637.6 631.3 626.6 625 623.4 621.2 616.4 617.8 623.3 629.9 634.8 635.4 639.2 633.9 623 605.2 594.6 582.7 573
472 461.9 495.8 499.4 502 492.2 488.7 487 487.9 488.7 492.4 493.9 492.3 484.1 475.7 478.8 479.4 470.9 476.7 466.2 464.5 466.1 464.1 471.8 470.8 475.7 489.7 511.2 528.9 543.2 562 576.6 587.7 597.7 605.6 611.1 613.5 611.4 601.3 593.8 585.3 576.8 570.6 564.5 560.7 547.7 537.5 529 523.8 520.2 514.1 507 500.9 494.1 490.7 486.1 477.8 470 464.6 458.8 450.5 442.6 432.4 425.7 416.4 407.7 395.5 386.3 363 360.4 357.9 348.4 347.4 345.1 311.7 275.3 239.7 219.1 184.9 157 137.9 125.1 117.4 115.5 114.8 114.3 114.3 113.4 113 113 117.1 120.5 128.1 140.6 157.9 173.8 185.1 195.7 207.1 216.1 229.3 233.4 219.7 202 215.5 230.6 250.6 278.1 302.9 329.3 371.6 422.2 429.2 455.6 487.5 495.9 492.1 482.2 477.6 470.5 465.5 452 435.9 423.6 428.4 421.2 364.4 366.8 337.8 279.2 294.5 289.6 288 301.4 314.2 270.3 244.2 212.1 180.5 160 144.3 139.7 137.4 141.6 142.1 133.8 132.9 126.8 129.5 139.9 160.1 187.3 216.2 246.4 278.9 313.1 346.5 378.3 410.5 447.2 452.2 463.3 488.5 500.8 505.7 513.4 519.4 528.6 541.4 553.5 569.1 582.9 595.8 607.8 623.4 635.7 646.3 658 662.1 656.1 650.3 645.8 640.2 635.2 636.1 634.6 631.8 628.7 630.2 633.9 643.5 642.5 639.9 640 632.8 619.7 605.8 593.5 582.6 573.2
510.5 491.6 481.8 489.5 494.2 493.4 489.5 489.9 501.5 499.1 499.2 500.9 502.7 499.7 492.4 489.8 490.2 488.7 491.7 481.9 471.8 474.6 477.9 486.7 488.7 493.6 499 513.6 532.4 551.1 569.6 583.8 597.4 609.6 619.5 632.1 635.5 635.7 620.4 610.1 606.5 598.5 593.9 577.6 569 558 542.5 534.9 518.9 516.1 512.2 508.2 501.1 495.8 488.6 484.5 476.2 468.2 459.6 451.6 444.8 437.5 424.9 414.4 403.5 390.3 381.7 377.9 360.9 331.7 314.5 315.2 323.3 300.9 265.4 245.6 217.7 193.3 164.8 140.5 127.8 117.8 116.4 115.5 115.5 115.1 114.2 113.6 113.2 113.8 119.4 125 133.2 151.4 171.2 187.4 198.7 209.2 225.5 233.1 250.7 237.5 220.5 215.1 229 246.9 267.7 296.1 321.1 354.5 383 437.3 463.5 472.9 485.7 494.3 494.7 491.2 482.6 471.4 462.9 454.1 440.3 431.6 430.1 431.8 404.9 381.2 387.4 315.3 327.8 362 349.4 354.3 350.7 324.6 295.7 257.7 215.4 180.8 173.2 174.6 160.1 148.5 142.6 138.5 133.2 134.6 135 139.9 148.9 172.2 200.2 229.7 262.1 292.4 326.7 358.8 392.4 415.7 414.6 466 486.2 494.2 505.1 512 518.1 528.7 543.8 555.6 570.3 582.9 596.1 611 624.1 639.6 649 663.4 675.9 668.7 658.2 652.7 649.1 646 647.1 643.9 650.1 645.6 650.3 645.4 646.3 650.8 644.3 636.4 627.6 617.2 606 593.4 583.8 575.5
521.1 501.9 481.9 482.9 490.1 494.7 493.2 507.4 512.3 504.6 505 508.9 512.2 533.1 540 528.3 510.7 511.6 507.2 495.4 483.1 488.6 496.7 503 507.8 512.7 518.4 520.5 539.3 560.5 576.8 594.2 608.6 620.1 636.1 647.2 649.5 650.9 640.1 626.1 620.6 623.7 616.1 594.4 579.8 574.6 561.6 545.6 532.8 513.8 511.2 506.5 500.5 493.1 486.3 482.5 474.2 464.8 455.9 449.2 435.3 426.2 413.4 399.4 383.5 374.3 364.2 374.3 362.7 326.9 302.5 270.9 277.6 266.7 245.6 219.7 197.4 171.4 152.9 130.4 120.2 117.1 116.3 115.8 115.5 115.1 114.6 113.9 113.8 114.8 123.8 130 147.6 165.3 182.5 197 213.2 223.6 233.3 244.6 261.4 241.4 221 225.1 241.5 261.5 288.2 317.1 350.7 395.8 408.1 439.4 478.5 499.2 491.5 490.5 489.3 493.7 489.5 481.6 460.6 448.3 440.2 431.5 430.4 426.6 410.1 396.9 400.9 354.5 355.7 392.9 396.2 394.5 375.6 349.4 321.2 280.4 236.4 202.8 193.7 184.7 191.2 166 150.3 145.5 138 141 142.7 144.3 146.4 163.5 186 214.7 246.5 275.8 308.1 344.4 381 373.8 400.8 453.3 479.1 490.4 500.9 508.1 519.4 533.7 545.7 557.5 569.8 581 596.8 613.1 628.8 644.4 656.2 666.2 674.4 672 666.9 661.2 660 657.5 658.1 660.6 662.8 662.4 663.3 659.3 653.8 648.1 642.3 635.3 628.1 617.8 606.8 597.6 585.7 577.7
517.4 502.3 490.5 481.8 483 496.5 495.3 519.4 516.3 514.8 515.4 517.4 543.9 552.7 545.9 540.7 539 530.7 521.6 509.5 499.9 508 509.4 518.2 524.5 530.1 536.4 543 551.6 568.5 589.4 601.9 618.5 633.2 660.5 666.7 669.3 660.8 656.6 643.3 637.1 639.1 635.1 615.8 594.2 575.5 556.6 539.3 520.6 510.3 505.7 501.9 496 489.4 480 474.5 465.7 460.5 454.1 438.9 425.8 413.9 402 387.9 366.3 356 351.8 352.7 348.6 311.7 290.6 258.4 237.8 234 219.2 186.4 167.5 148.4 134.1 120 118.4 117.8 116.8 116.2 115.8 114.9 114.5 114.1 113.8 119.4 131.2 142.2 160.2 181.2 200.4 217.1 236.9 250.1 253.8 265.2 264.7 253.7 234.2 237.4 254.3 274.3 306.1 340.4 371 419.6 436.5 458.4 485.7 506.1 504.2 494.3 488.3 488.1 492.2 478.4 469.9 449.9 440.1 434.6 427.8 423.7 423.3 413 402.5 366.4 389.8 411.3 400.2 391.8 379.7 353.7 321.8 287.4 254.3 222.4 212.9 207.1 188.1 171.7 153.2 140.9 142 150.2 152.6 154.4 154.8 152.5 176.1 201 228.6 260.4 291.5 330.3 352.2 340.1 382.9 432 473.7 488.6 499.8 510.2 521.7 535.3 549 557.2 570.1 587.2 603.8 617.6 636.4 649.4 660.4 670.4 674.9 677.1 674.8 673.2 671.1 673.5 675.4 675.8 676.6 674.3 668.8 661.2 656.5 650.7 643.1 636.4 632.9 619.6 605.9 598.2 588 583.7
511.9 498.7 487.3 481.8 481.8 487.4 500 519.1 520.2 520.5 522.3 523.6 541.6 552.3 549.2 555.6 555.5 551.4 540.5 528.9 523.6 522.2 522.7 531.7 540.8 547.7 556 565.5 572.4 584.2 600 613 625 641.4 656.5 672.6 675.7 671.7 663.4 654 653.2 647.3 639.5 629.3 620.5 585.7 546.3 524.9 510.7 501.5 496.6 494.1 488.4 480.7 475 470.9 463.6 452.8 447.1 434.1 413.8 398.2 383.7 369.5 351.5 336.9 328.1 321.6 312.8 289.4 266.9 238.5 216.9 203 181.7 162.3 142.5 127.8 118.7 119.6 118.3 117.6 117 116.5 115.7 115.4 114.5 114.4 115.7 129 138.5 156.6 175.4 198.3 221.2 239 255.8 278.5 277.9 274.8 270.3 255.8 242.8 250.3 267.2 289.9 320.1 358.2 388.4 434 448.8 460.7 476.9 512.2 520.5 506.7 500.1 491.4 486.3 487.8 476.8 456.8 455.4 447.9 450.3 433.7 431.8 423.6 409.4 386.8 395.4 410.4 405.8 397.3 383.8 356.7 321.9 286.1 254.9 229 209.7 191.9 174 158.1 144.5 144.6 150.2 162.8 165.4 166.7 167.1 162.4 171.1 191 214.9 244 267.1 289.8 304.3 332.1 373.6 420.6 464.1 484.9 498.4 508.7 524.9 538.2 545.6 557.8 572.7 589.6 606.4 624.8 641 656 666.3 671.4 679.2 685.7 684.4 681.2 683 685.2 684.8 684.2 680.7 678.8 672.2 663 658.2 651.1 645 639.1 630.5 619.3 608.3 600.4 590.3 586.8
513.1 508.5 503.2 483.5 481.8 485.6 501.9 514.5 520.5 520.6 526.3 530 537.1 547.7 558 557 560 558.7 552.4 547.6 537.9 527.7 536.3 543.8 553.6 563.9 574 582.5 589.8 596.8 612.4 625.7 636.9 649.8 666.5 678.8 680.8 676.6 673.2 668.5 658.9 655.2 649.8 638.3 616.1 584.2 547.8 506.8 490.7 484 482.3 483.1 477.8 472.4 467.1 462.2 457.2 447 434.5 420.9 397.9 376.5 363.2 347.2 330.8 313.1 296.9 285.5 271.7 254.4 233.5 212.9 192.7 174.3 155.2 139 123.4 119.9 119 118.6 117.7 117.1 116.9 116.2 115.8 115.6 114.8 116.7 132.1 141.9 157.7 176.3 192.2 213.4 233.6 257 279.8 301.4 302.8 287.8 271.3 257.2 248.9 264.8 279 299.9 327.9 360.4 399.7 433.8 448.5 474.2 473.2 505.8 519 509.3 499.4 494 488.4 481 473.9 457.1 456.3 449.4 443.5 430.8 421.9 418.1 400.3 395 394.6 409.5 414.4 405.1 389.8 358 324.8 293.3 267 227.3 204.4 182 164.6 150.1 148.1 149.7 160.2 172.4 182.5 181.8 180.2 176.2 166.8 182 200 217.6 238.7 275.5 303.5 337.1 374.8 425.2 456.6 480.8 497.2 514.2 524.9 534.7 545.5 558.6 575.9 594.5 616.7 631 641.2 657.1 667.2 674.1 682.2 692.4 693.6 691.7 691.3 692.9 690.4 690 685.7 680.7 674.3 665.8 660.1 652.3 648.5 643.5 635.7 627.3 618.9 602.7 596.6 589.3
523.2 521.5 507.2 489.5 483.8 490.6 499.5 509.6 525 521 527.6 533.2 540.6 550.8 555.4 564.2 564.2 561.6 557.2 555.1 550.6 539.6 550.8 560.5 571.8 577.3 586.7 593.9 604 614.5 621.7 633.3 645.1 661.6 672.3 677.8 684 685.9 680.5 675.2 667.8 661 653.7 645.2 620.1 576.5 542.3 502.6 475.7 466.3 465.8 467.4 466.2 465.4 462.5 453.5 444.9 436 420.6 406.9 383.1 354.9 339.7 327.5 308 291.1 274.9 251.7 241.6 226.8 205.3 186.5 169.5 152.8 137 123.2 120.6 119.4 118.9 118.6 117.7 117.5 117 116.7 116.4 116.2 120.4 131.7 150.3 161.5 175.3 195.6 213.9 234.9 255.3 271.7 306.3 315.1 308.6 292.7 275.1 259.8 258 279.8 288.3 314.7 336.5 370.2 397.8 428.6 452.1 470.8 471.9 492.4 507.5 510 496.4 491.2 489.6 490.3 464.2 457.6 453.8 444.3 436.2 431.5 426.8 418.2 434.1 417.1 411.5 413.1 405.2 409.8 385.5 348 314.5 290.8 255.2 221.3 195.7 172.6 158.2 148.4 151 159.5 172.3 187.8 198.9 198.9 196.1 192.1 183.7 181.5 197 216.7 240.9 267 295.6 328.9 374.6 422.8 448.2 476.3 504.4 517.5 524.6 533.3 545.6 558.9 578.8 600.3 619.1 633.3 647.4 656.3 667.7 676.7 687.5 696.8 698.9 701.9 700.4 697.1 695.2 692.8 687.9 681.5 676 669.6 663.5 660.2 655.2 650.4 643.4 631.7 618.6 605 598 594.4
524.5 518.7 507.5 495.1 488.8 507.3 504.2 505.7 513.9 521.2 525.5 535.6 544.4 550.6 557 566.8 567.4 566.3 564.3 563.9 562.1 557.8 559.5 571.7 580.8 588.5 598.5 608.3 618.5 624.4 629.6 641.6 654.4 667.6 676.6 686.9 689.8 694.9 691.2 684.2 671.5 664.7 657.7 646.8 599 557.6 517.6 484.8 461.6 456.1 449.9 449.3 449.9 451 450.9 446.1 435.4 420.4 403.6 384.4 365 341.5 316.8 303.4 283.9 268.8 249.1 232.8 214.5 195.3 181.1 162.7 147 137 127.3 121.5 120.5 120 119.3 118.7 118.7 117.8 116.6 116.7 117.3 120 132.9 148.1 166.1 180.8 198.8 218.7 245.1 289.2 302.9 299.8 314.2 320.8 312.2 297.3 286.5 262.9 265.2 289.5 305.9 328.2 349.5 373.6 405.5 429.1 444.5 456.5 464.8 487.3 503 504.6 496.6 496 505.1 504.4 471.4 459.8 457.2 454.4 456.6 456.4 443.1 438.7 437.6 414.1 410.9 420 405 385.6 370.7 327.6 301.6 270.6 236.3 211 185.1 164.4 152.9 145.6 153.1 167.4 179 197.5 215.9 219.5 217.7 210.7 202.4 195.8 188.9 205.6 224.7 257.6 285.9 315.2 352.7 397.8 429.3 467.8 495.5 509.7 521.2 534.6 544.4 561.2 580.2 599.3 618.6 637 647.5 656.1 670.3 683.8 692.7 701.1 704.6 710.6 708.7 703 697.2 692.1 688.2 683.2 677.6 671.7 669.3 668.4 663.9 654.7 644.6 630.5 618.3 606.5 600.8 598.4
517.3 520.9 511.8 520.8 517 521.6 508.3 509.4 512.1 522.7 530.7 538.9 548.3 552.8 561.1 568.7 567.8 571.1 574.1 575.7 573.6 572.2 564.7 576.8 588.6 597.9 604.6 612.6 624.5 637.7 641.6 647.5 660.9 677.9 696.7 689.6 691.1 693.4 688.8 683.9 674.6 664 655.9 641.7 595.8 559 506.2 472.5 451.1 441.7 435.2 436.2 437.6 438.8 437.1 434.2 425 411.3 385.1 365.4 343.4 323.2 301.1 282.6 263.7 248.4 225.6 208.5 192.1 177.3 159.4 142 129.7 122.1 121.7 121.4 120.4 119.8 118.9 118.7 118.4 117.9 117.8 121 123.2 135.4 151.3 167.9 185.8 206.3 225.9 243.1 273.2 306.5 353.6 354 330.3 327.8 322 310.1 290.5 275.7 275.5 297.8 318.4 332.1 352.4 375.9 405.3 423.3 441.2 450.5 472.3 487 511.8 512.2 523.9 512 518.8 508.7 477.4 465.3 459.2 453.2 456 467.2 458.1 447.7 439.8 417.6 421.8 422.2 407.3 382.5 345.8 330.4 288.5 254.3 224.1 194.9 171.9 158 150.5 150.8 163.2 181 195.2 209.8 237.8 244.6 239.6 232 224 214.4 205.8 198.9 218.7 246.3 273.9 301.7 333.9 373.3 410.4 447.2 490.7 502.5 518.2 531.2 540.3 565.5 583.6 599.6 623.4 634.6 645.5 659.3 676.3 687.2 698.3 703.5 706.9 710.3 711 705.6 700.7 695 688.8 683.5 678.2 676.2 678.2 671.7 665.6 658.8 645.7 629.7 619.6 613.5 608 599.8
