ncols 200
nrows 86
xllcorner 320000
yllcorner 522450
cellsize 50
443.6 452.6 467 484.4 497.3 501.1 502.5 506.5 504.7 498 488.4 483 481.4 484.6 485.6 480 469.5 459.8 450.4 445.5 440.1 429.1 426.1 416.5 415.7 428.3 442.9 453 463.8 461 444.6 413.3 378.5 329.6 299.4 253.3 213.8 175 141 113.6 93.6 106.9 123.1 127.8 111.2 87.1 73.8 73.6 68.7 68.7 68.7 68.7 68.7 68.7 68.7 68.7 68.7 68.7 70 69.9 70.3 70.1 70 70.2 70.3 69.8 69.6 69.8 69.9 70 70.1 70.2 70.4 68 70.2 70.1 73.3 77.5 84.9 94.4 108.9 126 135.5 149.1 162.5 166.1 169.7 177.9 187.7 199 209.2 216.8 228.1 240.5 247.6 252.4 256.5 256.7 247.2 238.9 248.6 251.4 267.2 287 305.5 325.4 337.4 336.2 338.9 335.3 339 329.1 314.8 287.8 252.6 221 230.5 236.3 239.9 235.5 220.8 232.3 265.8 293.6 316.5 332.8 348.1 363.1 377.6 393.3 405.8 415.9 424.5 431.9 441.2 448 454.5 458.7 460.6 458.7 426.9 400.1 413.8 426.1 465.3 499.2 524.2 543.9 555.4 560.4 562.1 563 565.5 567.9 571.2 574.1 576.7 574.1 555 537 557.7 573.3 585.2 593.3 599.3 604.9 609.3 612.6 615.3 616.6 616.1 615.9 615.1 615.3 614.4 614.8 613.6 610.5 605.6 596.4 570.3 543.9 503.1 456.5 427.1 406.3 388.3 365.4 336.7 305.7 279.2 255.9 238 236.1 253.6 275.8 298.4 320.8 351.9 385
433.4 442.2 455.6 472.7 491.5 505.4 511.1 516.1 518.8 520.8 512.4 507.8 500.5 491.5 487.4 477.4 464.9 454 445.3 438.5 427.3 420.5 408 406.1 419.1 430.9 443.6 440.6 439.4 450.2 440.6 431.7 398.5 348.1 299.6 260.3 220.8 178.9 145.1 114.6 95.1 109.9 125.4 127.3 106.3 84.9 73.4 73.6 68.9 68.7 68.7 68.7 68.7 68.7 68.7 68.7 68.7 68.7 69.6 69.5 70 69.7 69.9 70.2 70.3 70.2 70 69.9 70.1 70.1 70.2 70.3 70.4 69.9 69.8 69.9 70.2 71.8 75.8 83.5 90.7 101.6 112.4 123.3 130.3 137.9 147.1 158.2 169.6 180.1 189.5 199.6 210.9 220 225.5 225.8 223.6 220.3 211.3 233.8 239.9 241.1 252.7 273.8 295.3 311.5 315.5 319 314.5 315.9 310 303.2 288.9 275.4 254.7 222.4 208.8 216 219.1 212.6 202.4 234.2 265.2 292.5 309.8 322.9 335.5 347.3 357.8 370.7 382.9 395.8 404.7 410 414.8 422.2 428.8 432.2 432.6 432.5 417.3 374.9 390.6 427.5 454.3 479.3 505.7 523.8 531.2 537 537.1 537.5 539 542.6 549.1 554.8 557.8 556.9 547.1 518.4 540.3 553.9 564.6 572.1 580.1 586.7 591.9 595.9 599 600.8 601.6 602.4 603.2 605.4 605.7 605.9 605.3 604 600.4 590.5 559.4 527.3 501.2 450.3 416.7 398 376.5 353.1 323.6 294.1 268.5 246.9 230.9 236.8 255.6 280.8 301.7 324.6 357.8 387.2
415.5 426.4 441.7 460.8 478.8 498.5 511.7 522.3 535.6 538.5 532.9 521.7 510.7 498.9 483.2 472.1 457.3 445 435.2 426.3 414.2 403.7 394.7 397.2 408.2 420.7 427.9 422.1 420.7 410.4 413.7 410.6 398.5 344.6 308.4 265.2 223.1 184.1 148.6 116.1 96.3 109.9 123.1 118.9 98.8 83.9 74.1 71.1 70.7 68.7 68.7 68.7 68.7 68.7 68.7 68.7 68.7 68.7 69.6 69.2 69.6 68.5 69.7 70.1 70.2 70.3 70.5 70.3 70.1 70.2 70.3 70.3 70.4 70.7 69.7 70.3 70 70.4 72 75.7 80.7 83.8 89.8 96.8 106.1 112 121.1 132.5 147.3 162.8 173.6 184.3 197.4 204.6 200.8 197.2 194 191 209 221.2 225.3 229.3 240.4 262.9 281.3 288 293.9 300.7 297 290.7 284.5 276.8 263.9 252.9 234.1 209.1 194.4 198.1 198.9 190.2 212.7 238.9 265.7 287.6 301.9 311 318 328.9 339.6 355.6 368.5 378.5 384.8 388.6 390.1 391.6 401.1 405.2 406.9 405.6 390.5 360.8 374.6 400.3 428.1 463 490.7 507.1 511.9 512.2 510.7 509.7 511.9 518.2 526.5 535.3 539.3 541.1 537.4 503.3 520.3 530.8 539.2 549.5 559.3 568.6 574.8 578.8 583.1 585.4 587.5 589.3 592.9 595.7 597.7 597.9 597.9 597.2 595.1 589.5 579.1 535.3 494.7 454.7 422 398.7 375 349.1 314.2 286.7 255 243.4 226.8 244.1 260.7 280.7 301.8 328 358.2 389.6
398.7 411.8 428.5 444.8 469 493.7 510.8 532.5 549.7 545.8 534.1 523.5 512.3 497.4 482.7 465.8 449.4 434.5 424.9 417 408.7 399.7 393.6 390.7 392.1 401 404 392.5 382.1 375.1 372.6 361.8 348.7 333 303.8 271.5 227.5 186.2 151.4 117.9 96.9 107.8 117.1 109.2 93.6 82.6 75.8 73.1 71.4 70 68.7 68.7 68.7 68.7 68.3 68.7 68.7 68.7 68.7 69 69.6 69.8 69.5 69.4 70 70.1 69.9 70.3 70.2 70.2 70.3 70.3 70.4 70.2 69.5 70.3 70.1 70 70.3 71.1 71.4 72.5 76.3 83.3 89.6 95.4 101.6 109.3 123.4 142.2 156.9 165.1 175.6 180.5 173 172.3 170.7 187.1 202.5 205.4 212.6 218.4 230.6 251.7 263.3 266.9 272 273.4 269.7 263.6 257.2 249.4 243.5 226.4 205.8 188.6 181.8 180.4 177.2 200.5 222.6 247.5 266.6 279.8 289.3 297 305.3 316.1 328.8 347 359.7 365.9 370.6 371.8 370.7 370.8 371.1 377.4 381.8 383.6 378.7 342.8 354.3 391 425.5 452.6 478 485.8 486.7 482.4 480.6 480.9 486.2 495.9 506.5 516.2 522.4 525.2 522.3 507.6 492.9 503.9 512.1 523.6 538.3 549.3 556.8 561.6 565.7 569.7 572.9 577.4 582.8 586.2 588.3 588.9 588.9 589 587.4 582 574 559.2 511.9 469.7 431.2 402.7 379.2 353.9 320.3 287.4 262.4 238.9 227.3 244.2 261.5 284.1 304.7 326.9 357.5 388.8
394 404.7 422.8 443.7 467.7 491.5 511.8 531.7 544.6 538.8 532.5 523.2 508.5 495.2 483.3 461.3 445.3 434.2 424.9 419.1 412.6 402.4 391.8 383.3 379.6 377.2 368.4 353.9 336.2 325.8 322.7 319.8 303.7 300.6 286 263.8 228.9 186.4 150.4 118.6 96.6 99.7 104.8 99.2 89.8 83 78.3 74.1 73.2 70.3 69.7 69.1 68.7 69.2 69.5 69.2 69.6 68.7 69 69.9 70 70 69.7 69.5 68 69.9 69.6 70 70.2 70.2 70.2 70.2 70.4 69.9 70.9 70.6 70.2 70.1 70.2 70.5 70.7 70.9 72.1 77.5 80.8 84.3 88 92.7 101.3 117.2 129.5 139.1 145.7 144.5 146.5 149.8 160.2 179.5 186.1 192.6 200.7 205.6 228.2 235.6 241.2 243 245.6 244.2 241.2 238 229.1 225.1 214.5 198.1 182.9 175.3 164.8 179.3 198.9 218.3 236.2 252.5 262.3 272.6 280.5 286.1 290 308.1 325.1 340.5 349.4 355.2 355 352.8 351.6 351.4 352.3 351.2 351.3 353.2 345.7 318.5 343.8 379.1 415.7 446.4 458.6 463.6 460.3 453.5 451.2 450.3 457.9 472.9 489.4 502 507.1 509.9 510 502.4 462.2 473.2 484.5 499.5 515.6 528 537.2 543.3 548.5 553.1 558.5 564.6 571.5 575.3 577.6 578.3 578.3 578.4 576.6 571.1 562.2 550.6 519.2 472.2 432.3 406 380.2 356.1 325.7 288.6 260.2 233.2 227.2 242.3 259.3 283.5 307.2 325.6 351.3 383.5
410.6 421.1 429.7 450.1 471.8 492.9 511.3 526.5 532.2 533.1 529.8 520.6 505.3 494.6 481.5 467.9 461.8 451.5 440.5 427.1 419.2 408.4 399.5 389.5 372 357.1 336.9 318 299.6 286.7 279 269.9 262.2 259.2 259.5 238.2 218 176.7 141.8 113.2 98.2 98 96.5 93.1 88.3 82.7 78.6 74.7 74.1 70.6 69.9 69.7 69.4 70 70.2 67.8 69.6 69.5 69.5 69.8 70 70.2 70.1 70.2 70 69.9 70 70 70 70 70.1 70.2 70.4 70.6 70.4 70.6 70.2 70.2 70.2 70.3 70.5 70.7 71.9 73.5 76 77.8 80.6 83.8 87.8 92.7 100.2 110.8 116.8 119.8 123.2 132.6 147.3 160.7 174.3 179.4 185.7 188.8 200.9 210.3 213.1 217.1 219.4 217.4 212.3 208 204.7 202.7 199.1 185 169 154 175.3 193.2 213 226.8 236.6 245 253.8 263.3 270 271.9 292.6 309.6 319.2 330.6 339.8 342.3 340.9 329.4 331.3 331.4 333.5 332.6 327.1 322.6 314.8 301.5 340.7 375.9 405.8 429 440.6 446.3 441.1 428.3 423.2 418.7 434.8 457.3 473.8 486 492.8 495.6 496 491.4 466 440 456.5 475.9 495.5 509.6 518.5 525.1 531.8 538.5 544.8 552.6 559.2 562.9 565 565.2 565.6 564.9 563.2 557.6 549.4 539 526.9 483.9 438 408.5 381.3 355.5 326.3 286.9 257.7 227.3 223.9 237.9 256.4 279.4 308.7 328.4 347.5 376.1
427.1 436.6 443.6 456.7 472.4 492.1 510.1 522.2 529 530.2 527.6 515 504.1 497.2 489.9 481.3 478.3 467.5 454.9 445.5 437 427.4 414.9 403 385.3 364.1 346.9 314.9 287.9 258.7 247.2 237.1 226 216.3 205.8 198.5 180.1 154 125.6 106.7 100.4 98.2 96.9 91.4 87.6 83.1 76.8 73.6 73.1 71 70.2 69.9 70 70 69.9 69.9 70 69.8 69.8 69.9 70 70.2 70.2 70.1 70 69.9 69.8 69.6 69.9 69.9 70 70.1 70.4 70.6 68.4 71 70.3 70.3 70.5 70.5 70.4 70.5 71.1 71.1 72.3 74.2 75.9 77.6 79.4 82.3 85.2 90.8 97.2 103.5 109.1 117.7 127.8 142.4 155.3 163 159.9 166.3 175.6 181.6 185.9 190 190.9 188.5 182.4 183.6 187.3 185 181.5 168.5 149 165.3 180 196.1 209.7 218.9 227.8 235.7 243.7 245.7 257.5 273.9 290.6 301.6 310 319.9 328.6 330 326.6 304.8 306.6 309.6 310.8 306.3 299.8 293.8 275.2 299.8 332.4 366.5 395.9 411.8 422.8 426.4 418.9 402.3 395.8 399.8 426.8 446.1 460.2 470.4 476.6 480.1 480.8 476.3 465.5 427.9 434.4 455.9 476.6 490.7 498.9 507 515.1 522.6 531.8 539.7 545.8 549.3 550.6 550.9 550.7 550.2 547.7 543.1 535.6 526.4 516.1 497.9 447.2 414.2 383.9 355.5 322.8 286.7 255.4 228.2 218 233.4 253 276.7 301 329.5 347.6 370.6
439.7 451.7 457.6 469.9 481.3 494.1 510.4 522.2 525.9 527.6 518.7 510.4 506.2 499.6 493 488.5 486 481.4 467.6 457.4 452.2 443.4 431.9 418.5 402.9 381.2 359.8 332.9 297.6 261.5 239.3 221.9 204.9 185 170.3 162.7 149.8 131.2 116.6 108.1 102.5 98.4 93.6 88.8 85.8 81.7 77.3 74.3 71.3 71.2 70.4 70.2 70.1 70.1 70.2 70.2 70 69.9 70 69.9 70.1 70.2 70.2 70.1 70.1 69.9 69.9 69.7 69.7 69.9 70.1 70.1 70.2 70.7 70.9 71.2 70.9 68.4 70.8 70.7 70.6 70.4 70.3 70.3 70.8 71.2 71.6 73.2 74.5 77.5 81.7 86 90.7 96.1 100.1 103.7 111.6 123.4 132.5 134.4 138.6 146.2 154.9 158.7 160.4 158.3 160.4 161.7 162.4 163 164.8 165.7 164.2 148.9 156.8 168.8 181 193.4 206 213.2 219.9 227.8 232.2 244.3 260.2 273 282.4 291.3 300.4 308.5 316.9 318.6 314.6 291 275.8 286.7 286.6 281 274.2 265.5 274.8 307.1 340.8 371 385.5 394 402.7 405.4 395.9 376.3 363.5 392.1 416.6 434.9 447.4 456.6 461.1 464.7 466.5 465.8 453 421.2 415.3 438.4 457.1 469.2 478.1 488.2 497 507.1 517.7 525.8 531.1 533.5 534.8 534.8 534.5 534.1 531.6 526.9 520.3 512.3 502.1 489.3 466.9 431.3 389.9 355.3 319.2 283.2 253.3 228 215.1 229.5 250.2 273.3 296.9 321.9 340.3 361.4
454.9 462.2 468.3 481.1 489.9 499.5 508.6 517.5 523.3 518.6 514 512.1 505.9 497.6 492.4 491.7 491.1 489.6 478.2 471.2 464.9 457.6 446.2 433 418.1 401 378 352.9 316.8 277.8 253.4 231.7 215.9 196.8 175.7 155.6 137 122.3 116.6 109.3 103.1 98.7 92.2 88 84.5 81.1 77.3 74.6 72.1 71.8 70.2 70 70.1 70.2 70.2 70.1 67.8 70.1 70.2 70 70.1 70.1 70.2 70.1 70.1 70 70.1 69.1 69.7 69.9 69.9 70 70.5 70.7 70.8 70.6 70.5 70.8 68.8 70.9 70.9 70.8 70.5 70.1 70.4 70.9 71 71.3 72.4 75 79.6 83.2 87.3 91.1 92.2 94.9 99.9 104.1 108.6 115.8 121.9 129.5 135 137 137.5 138.9 143.4 144.4 146.7 147.7 149.8 152.7 160.3 146.1 157.7 168.6 179.5 188.6 198.4 204.6 212.2 216.3 230.4 244.5 260.2 269.7 276.7 282.2 288.6 295.9 302.8 306.4 305.9 281.4 255.1 264.5 262 255.5 248.8 255.6 286.1 316.9 345.5 361.7 371.2 378.1 383.3 385.4 372.1 349.3 346.8 380 408.1 424.1 435.1 441.1 444.8 449.9 451.8 449 443.1 413.1 398 422 436.4 447.1 455.7 466.1 477.1 491.9 500 508.2 513.7 516.2 517.2 517.4 517.2 516.6 513.4 508.6 502.7 494.5 485.6 475.7 462.7 440.7 397.3 359.3 321.7 284.2 254.2 224.6 214.2 225.8 246.2 269.1 291.6 310.4 326.6 348.7
460.5 470.7 479.2 489.1 495.8 501.1 507.3 509.1 510.7 512.7 512.5 506.8 498.6 490.1 487.2 489.8 494.5 493.4 486.2 482.9 476.8 468 456.8 443.9 433.1 416.9 394.6 359.9 326.6 295.4 275 255.6 234.9 215.6 195.2 173.8 150.3 137.1 124.1 110.1 102.1 96.5 91.8 88.3 84.2 80.6 77.1 74.4 71.9 73.9 70.9 70.1 70.3 70 70 69.8 69.5 68.1 70.1 70 70 70.1 70.2 70.2 70.1 70.1 70.2 70 69.1 69.6 69.7 70 70.4 70.5 70.6 70.3 70.6 70.8 71 71.1 69 71.1 70.9 70.6 70.3 70.6 70.6 70.6 71 73 76.4 80.4 83.3 86.1 86.6 89.2 93.5 95.2 96.4 102.6 107.9 113 112.8 112.6 119.7 124.6 126.6 129.4 132.8 135.5 138.6 143.6 146.5 137.8 147.2 157.9 173.1 183.4 189.5 187.9 204.4 217.9 233.4 248.3 260.3 266.2 270.2 274.2 279.2 285.3 294.1 295.7 296.2 277.4 241.7 240.1 235.6 223.7 247.1 272.9 300.2 322.5 336.8 347.5 355.2 361.5 363.4 362.6 349.4 322.6 336 371.6 399 413.6 423.6 426.9 430.8 433.4 434.9 434.5 431 405.5 385 401.8 414.1 422.6 434.8 448.1 465.2 474.1 482.3 489 494.4 497.3 498.8 498.7 498.9 497.6 493 488.3 482.9 476.2 468.7 460.3 449 438.1 408.3 368.1 324.8 287.3 257.1 227.6 211.7 222 240.7 260.4 282 297.5 312.9 342.3
470.7 476.3 484.5 493.4 500.4 499.2 500.6 504.6 507.2 509 507.4 502.7 491 480.4 482.2 489.1 495.3 496.3 494.2 490.9 488 480.8 470.8 461.6 450.1 432.6 410.1 382.8 356.5 325.5 306 285.7 262 238.2 214.3 189 173.4 161.1 142.9 119.1 103.7 99.4 94.4 90.6 84.9 80.9 76.5 73.3 71.5 73.2 70.4 70.4 70.6 70.1 69.5 69.8 70.1 69.8 69.8 70 70.1 70.2 70.3 70.3 70.2 70.1 70.2 70.3 70.2 69.6 69.7 70.1 70.2 70.3 70.3 70.3 70.6 70.8 71 71.1 71.3 71.4 69.1 71 70.9 70.5 70.4 70.4 71.3 72 74.1 76.6 79.6 81.7 82.3 82.8 86.8 86.9 91.1 95.1 98.1 100.5 103.2 110 109.1 112.2 115.6 118.3 122 124.9 127 129.8 129.3 130.8 138.2 152 163.7 170 177.7 196.4 207.1 219.7 234.2 247 251.9 254.8 267.3 275.2 277.2 280.2 280.8 279.6 278.3 271.4 235.6 220 214.3 235.4 258.6 282.1 300 313.4 323.4 330.9 338.4 343.6 347.5 339.6 324 297.7 330.4 365.4 386.6 399.7 408.6 412.6 416.1 418.8 419.1 420.2 417.6 397.9 354.4 372.1 388.9 400 408.8 430.9 444.2 454.4 463.5 470.6 475.6 479.4 480.5 480.5 480.1 478.6 474.1 469.8 463.6 457.7 451.6 444.3 435.3 425.5 411.8 383.5 341.6 294.7 263.7 236.3 207 220.4 234.8 252.6 274.9 292.4 308 333
472.5 478.2 486.2 492.2 495.6 491.8 487.6 493.4 499.2 502.6 500.3 491 477.9 469.5 484.4 497 498.9 499.6 504.7 502.3 501.3 492.3 485.7 479.4 466.1 449.4 428.2 410 395.3 363.7 333.9 311.9 288.9 255.6 230 213 201.6 184.7 164 133.3 112 102.8 95.8 91 85.8 81.3 76.8 72.8 71.6 70.4 70.6 70.7 70.6 70.1 69.3 70.5 70.1 69.6 69.8 70.1 70.1 70.3 70.4 70.3 70.2 70.1 70.1 70.3 70.1 70 70.2 70 70 70.1 70.2 70.4 70.6 70.8 70.9 71.1 71.2 71.4 71.4 69 71.1 70.8 70.6 70.6 70.7 71.5 73.5 75.5 77.2 78.1 78.2 78.5 79.2 81.4 87.4 91 93.9 95.9 98.4 100.9 103.4 105.6 108 110.7 112.6 115.2 118.9 121 120.3 127.8 137.2 147.6 159.2 169.4 181.4 194.6 205.3 215.9 225.3 239.4 250.2 260.3 267.9 268.6 266.5 264.6 264.3 262.7 263.1 251.8 221.6 203.9 219.9 240 258.2 274.1 288.5 299.4 309.5 317 324 328.7 327.5 311.1 299.1 295.9 332 360.1 371.5 380.8 390.1 395.9 399.9 403.1 402.3 401.2 399.7 396.5 373.1 345.1 363.8 378.7 395.6 410 423.4 434.2 445.1 451.2 457.9 461.3 462.4 461.7 461.2 459.4 455.3 450.2 444.3 438.2 431.5 426.7 420.4 413.8 403.2 388.7 358.5 310 272.4 242.3 204.8 217.1 231.8 250.9 270.4 286.9 307.1 328.6
479.1 487 492.7 494.5 489.6 478.9 472.4 478.6 486.9 491.6 486.6 474.4 460.7 468.3 482.3 496.6 502.7 505.6 509.7 509.4 510.6 502.4 493 486.1 474.2 457.2 437.7 427.8 415.3 390.4 352 320 294.6 275.3 259.1 243.2 224.9 206.7 183.2 148.6 124.1 110.4 98.9 92.3 88 82.9 77.5 73.9 71.7 71.6 70.9 70.6 70.2 69.8 70.3 70.4 70.1 69.8 69.8 70.3 70.2 70.2 70.3 70.3 70.2 70.1 70 70.2 70.1 70.1 70.4 70.1 69.9 70 70.2 70.3 70.6 70.8 70.9 71.1 71.2 71.3 71.2 72.5 72.2 69 70.8 71 71.1 71.1 72.2 75.4 78.5 76.9 75.5 75.9 76.1 78 82.5 87.5 89.6 92.3 94.6 97.3 100.2 101.5 103.1 104.3 105.9 109.7 113.7 115.1 118.6 127.7 137.9 148.1 159.1 169.9 180.2 192.1 202.5 208.9 223.2 235.1 243.3 249.8 253.8 254.4 252.7 250.5 251.1 248.2 247.5 230 206.6 201 216.8 236.7 254 267.9 279.2 286.4 294.2 304.1 311.5 314.6 302.9 281.7 265.9 295.6 328.9 342.9 354.6 362.7 369.6 374.9 379.6 381.1 382 384.2 382.9 383.3 383.7 354.4 341.9 361.9 379.7 391 401.5 414.7 424.3 432.2 438.9 442.7 444.8 444.1 442.8 441.6 437.9 431.9 425.1 418.1 414.1 410 405.8 400.9 393.3 382.2 366.2 331.7 284.1 247.7 213.4 211.4 227 246.1 265.5 285.1 308.3 325.5
480.5 486.6 491.5 489.4 477.2 464.8 457.5 463.3 470.1 473.3 468.3 454.7 450.2 467.9 482 496.3 503.2 513.9 515.3 518.4 515.9 505.1 500.7 491.7 478 461.5 447.4 439.4 423.6 397.4 364.8 334.1 313 297.8 283.4 265.7 246 226.7 201.5 166.6 137.8 122.9 107.5 95.3 89.1 83.5 79.2 75 74.1 73.1 72.8 70.7 70.3 70.1 70.2 70.3 70.2 69.8 69.8 70.3 70.2 70.1 70.2 70.3 70.3 70.4 70.3 70.1 70.2 70.2 70 70 69.9 70.1 70.2 70.3 70.4 70.7 70.8 71 71.1 71.4 71.8 74.3 76.5 73.9 69 71.3 71.4 71.4 71.2 71.7 74.8 75.2 73.7 74.5 75.7 77.1 78.8 81.7 82.1 84.9 90.2 94.2 96.1 97.4 99.1 99.8 102.5 104.1 109.9 112.8 114.1 123.1 132.5 144.6 155.6 165.9 175.2 185.2 195.2 206.6 216.7 222.8 229.6 234.7 238.8 240.5 238.8 236.7 241 237.2 232 211.5 193.2 199.9 218.1 234.3 249.7 261.5 269.9 276.5 279.2 290.7 298.3 295.1 275.3 258.6 264 291.7 313.7 324.6 335.1 344.4 351.1 355.4 359 359.6 361 362.7 365.1 366.3 366.2 357.2 328.4 348.1 360.4 369.4 380.7 393.1 404 412.2 419.7 425.1 426.7 426.7 425.6 423.5 419.5 414.8 408 403.5 399 395.5 391.7 388.6 382.6 374 363.7 346.4 295.9 257 225.8 204.3 219.6 239.6 261.1 286 310.1 322.3
475.8 480.4 482 476.4 465.6 452.7 445.4 452.5 458 457.7 449.3 436.5 454.8 471.8 485.4 498.3 510.5 514.3 521.8 521.9 515.1 508.1 507 497.8 484.5 470 460.4 445.9 426.5 397.5 372.7 347.4 332.4 318.8 301.9 284.3 267 244.1 217.9 182.6 156.8 139.5 124.8 105.2 91 84.5 79.5 74.9 75 73.7 72.3 70.9 70.5 70.3 70.2 70.2 70.1 70 69.8 69.4 69.9 69.9 70.1 70.2 70.3 70.3 70.3 70.1 70 69.5 70.1 70.1 70 70.1 70.2 70.3 70.4 70.6 70.7 70.9 71 71.4 71.6 72.1 73.9 74.8 71.7 71.4 71.5 70.9 71 71.3 71.9 72.6 73.4 74.3 75.8 77.2 78.6 80.4 82.4 84.2 87.6 90.5 91.7 93.6 96.1 98.7 101.2 104.7 107 109 109.6 114 122 131.7 143.6 152.4 160.4 177.6 187.2 194.8 201.6 209.4 213.1 220.3 227.4 226.7 225.9 228.1 230.8 226.7 218.6 196.3 185.6 201.7 218.4 231.6 241.6 247.6 253.6 266.3 282.3 284.3 281.3 270.1 252 247.6 261.2 285.7 301.3 312.7 322.8 331.6 335.2 335.1 337 338.1 339.3 346.1 350.5 351.9 351 350.2 326.3 326.9 338.9 345.5 361.1 371.8 382.5 392.3 401.3 406.7 410.7 410.2 408.7 406.1 403 398.6 394.6 389.9 387 384.5 380.2 377.1 372.7 366.3 358.5 347.9 323.7 268.4 234.8 199.6 205.4 234.7 260.3 287.3 313.4 327.7
475.3 474.7 472.9 464.5 453.3 440.7 435.5 442.4 446.5 444.5 436 439.7 459.8 475.1 487.8 500.3 510.6 515.7 518.4 515.3 511 512 512 505.5 493.6 480.2 467.7 451.1 434.1 415.6 391.1 366 350 336.5 317.8 303.5 289.3 264.9 231.5 200.3 178.4 160.3 144.3 124 100.7 86.9 80.1 78.3 76.2 74.7 73.4 71.2 70.8 70.6 70.4 70.3 70.3 70.3 70 69.8 70 70.2 68.5 69.9 70.2 70.3 70.3 70.2 70.1 70.1 70.1 70.1 70.1 70.2 70.3 70.3 70.4 70.4 70.6 70.7 71 71.2 71.4 71.6 71.9 72.1 69 71.7 71.7 72 71.4 71.4 71.6 72.2 73.2 74.3 75.8 77.2 79.2 80.2 82.1 84.1 85.8 88.3 90.4 92.6 95 97.5 99.7 102.1 103.9 105.4 105.6 106.6 112.1 119.1 128.9 140.6 156.3 167.9 175.9 184.1 192 199.7 201.4 203.7 206.7 209.8 214.7 219.8 219.8 212.3 202.2 175 187.8 200.9 213.7 223.4 235.4 249.3 263.4 272.6 281.5 287.8 279.5 252.9 239.5 242.9 260.9 280.5 290.3 300.7 310.3 316.7 319 318.1 315.2 316.1 320.4 329.6 335.1 335.9 336.3 336.4 329.1 300.8 324 330.6 342.5 353.1 363.8 372 380.9 387 391.1 392.8 391.3 390.2 388.4 385.3 381.8 378.1 375.3 373 369.8 367.6 364.1 358.8 353.3 345 328.4 283.3 242.1 208.8 197.1 229.3 257.1 285.7 311.5 334.2
464.5 463.4 458.9 448.2 439.2 428.1 424.1 429.1 432.9 433.3 425.2 442.3 461.5 475 488.3 504.1 515.2 519.9 516.9 511.5 508.8 510.8 514.8 512.5 502.3 488.5 472.6 458.5 443 424 403.9 383.2 367.8 354.7 338.7 320.8 305.6 280.9 246.9 221.8 198.6 180.8 164.4 142 112.4 88.1 82.2 79.3 77 75.5 73.9 72.4 70.9 70.7 71.1 70.9 70.7 70.5 70.2 70.3 70.3 70.2 70.8 70.3 69 69.8 70.4 70.4 70.4 70.1 70.1 70.1 70.1 70.3 70.4 70.5 70.6 70.4 70.7 70.8 71.1 71.4 71.5 71.5 71.8 71.6 71.6 71.9 71.8 71.8 71.9 71.8 72.1 72.4 73.2 73.9 75 76 79.9 81.5 81.7 83.2 85.4 87.5 89.6 91.7 93.7 94.8 97.3 99.1 100.5 101.8 102.3 102.4 105.8 109.5 112.1 125 137.6 147.5 157.8 166.1 174.1 183.8 189.2 194.3 200.6 204.3 202 201.8 203.3 198.6 186.7 165.4 184.2 195.8 204.6 213.9 234.4 250.4 260.6 266.4 270.3 273.1 260.5 241.5 228 241 259.1 270.8 279.4 287.9 295.2 299.5 300.7 298.9 295.5 295 305.8 312.6 313.9 318 325.4 329.1 316.2 290.8 305.2 316.2 326.4 337.5 349 358.8 365.4 370.5 371.3 371.2 372.3 372.5 373 370.7 368 365.1 363.1 361 359.3 357.5 354.9 351.1 344.7 336.4 318.4 286.1 246.3 210 192.1 224.5 253 283.6 307.2 328.2
448.1 444.9 439.4 431.5 423.7 411.8 409 412.9 416.3 415.8 423.8 446.5 463.8 479.1 495.9 510.4 517.3 512.9 510.6 505 501.4 504.9 511.5 510.7 503.2 491.3 477.9 463.7 450 431.7 414.5 395.5 380.6 366.9 352.5 337 316.5 295.7 269.3 243 217.1 199.2 181.8 157.7 123.7 93 82.6 81.6 78.7 75.7 71.7 71.8 71.8 71.9 72.4 72.1 71.6 71.2 70.7 70.4 70.3 70.4 71 70.2 70.5 69.5 70.5 70.5 70.2 70.2 70.2 70.2 70.2 70.3 70.4 70.6 70.7 70.8 70.7 70.9 71.2 71.5 71.6 71.6 71.6 71.7 71.7 69 71.1 71.2 71.7 72.2 72.4 72.7 74 75.3 74.3 74.7 76.3 80.2 83.2 83.5 84.6 86.6 88.6 90.3 92.3 93.6 94.9 96.3 97.3 98.4 99 99.3 101.6 102.9 104.5 110.8 120.9 130 139 147.7 158.7 171.9 172.4 176.2 186.1 187 187.2 186.5 185.8 180.8 167.9 159.7 175.4 185.4 195.2 211.6 229.5 240.7 247.9 252.5 253.7 248.3 239.9 229.7 227.3 238 247.6 257.4 265.3 272.4 278.3 281.4 281.2 279.5 276.8 280.2 285.2 290.9 296.3 313.2 328.7 333.5 320.7 294.3 287.8 299.2 307.7 321.4 335.2 342.6 346.9 348.2 348.6 351.1 353.6 355.4 356.2 354.6 352 350 347.4 346.2 345.2 344.3 343.4 339.6 332.1 320.4 305.2 276.6 245.6 210.8 189.5 220.2 248.4 278.8 304.8 319.9
426.4 423.5 418.4 413 403.3 391.4 393.5 394.1 400.8 412.6 429.3 444.1 459.4 477.3 497.6 509.9 514.2 509.5 505.2 493.5 484.7 491.8 500 503.5 500.7 493.2 482.5 471.5 457.9 441.8 422.3 406 390.3 375.4 359.9 347.1 329.7 307.7 281.7 253.5 228.9 214.1 197.4 171.2 134.1 100.9 84.8 80.5 80.1 78.9 74.7 73.6 72.3 73.4 73.6 73.1 72.6 72 71.3 70.9 70.7 70.9 71.7 70.7 69.2 70.7 68.9 70.1 69.6 70.3 70.3 70.3 70.3 70.3 70.5 70.7 70.7 70.7 70.7 71 71.3 71.5 71.6 71.6 71.7 71.8 71.9 69 71.3 71.5 72 71.8 71.8 72.3 74.7 78.3 78.8 77.5 75.7 76.3 78.7 82.2 85.1 85.6 87.4 89.9 91.2 91.5 92.4 93.7 94.6 95.6 96.2 96.1 97.8 98.8 99.6 100.7 105.6 113.6 120.8 126.6 136.4 146.5 155 157.6 166.7 171.6 173.3 171.8 166.5 154.6 142.4 156 165.4 175.9 190 205 217.7 223.6 227.6 229.7 228.3 225.9 220.8 208.8 222.8 230 236.8 244.3 250.4 256.5 260.9 263.7 263.9 262.6 262 266.2 271.9 283.5 302.6 322 332.8 333.7 329.4 305.2 279.4 284.1 290.5 305.2 322.3 329.3 332.5 334.7 334.4 333.1 337.3 340.6 341.3 338.9 335.9 332.6 330.3 328.2 326.8 326.6 326.4 322.8 315.3 301.9 289.7 265.4 236.8 207.7 188.9 215.5 247 277 297.4 304.6
408.3 404.9 396.3 387.8 381.5 381.4 392.5 398.6 408.8 423.7 434 444.7 459.5 476.6 491.8 501.1 504.8 503.8 494.1 480.7 473.4 476.7 484.4 491.7 493.9 493.6 489.1 481.3 465.5 447.8 429.1 412.7 399.1 382.8 369.6 354.6 334.5 313.1 289.3 263.6 244.1 231.4 214.9 184.9 145.9 109.1 85.3 84 85.2 82.7 77.8 76.1 75.3 74.8 74.4 74 73.3 72.7 72 71.6 71.3 71.4 71.5 70.9 70.3 70.8 69.9 70.1 70.1 70.1 69.3 70.4 70.4 70.3 70.3 70.4 70.4 70.1 70.8 71 71.2 71.3 71.4 71.6 71.7 71.7 71.7 71.7 71.6 71.7 72 72.3 72 72.5 72.8 74.5 77.5 79.6 78.5 77.5 79.3 81.5 83 84.2 86.1 86.8 87.9 89 90.1 91.1 92.2 93.2 93.4 93.6 94.2 95.9 95.8 96.8 100.4 103.9 107.6 111.7 117.5 124.7 135.4 138.9 145.3 150 146.9 148.3 145.3 136.5 144.5 152.4 160 168.3 179.9 192.2 197.2 199.9 202.8 204.8 204.8 204.9 199.8 206.2 213.9 220.6 227 232 237.3 242.2 247.4 250.3 250.6 250.9 254.1 261.3 275.9 292.4 310.2 321.5 328.5 332.6 332.3 318.3 289.8 267 266.7 293.9 311.2 312.1 314.1 317.6 316.5 313.8 319.9 322.9 323.5 321.2 318.8 315.7 314.1 310 307.1 307.4 306 302.5 293 283.1 272 251 225.1 200.1 184.5 208.1 243.3 270.5 286.2 290.9
391.6 383.7 374.2 372.3 376.9 384.2 391.8 403.1 419.6 431.1 438.5 446.5 456 469.6 481.2 488.8 494.1 492 484.4 474 460.5 458.7 466.9 476.2 484.6 490.9 494.2 486.5 467.2 449.6 433 418.8 404.4 390 374.6 353.8 335 314.9 293.9 271.6 258.8 246.1 227.5 194.5 164.3 115.2 89.8 85.2 89.3 96 87.1 78.1 76.7 72.4 75.6 75.3 74.5 73.6 72.7 72.3 72.5 72.3 71.3 70.8 70.4 70.9 70.3 70 69.9 70 70.1 70.2 70.2 70.2 70.4 70.2 70.5 70.6 70.3 70.6 71 71.1 71.3 71.5 71.7 71.8 71.9 72.1 71.1 71.9 72 72.3 72 72.5 72.7 73.6 74.7 76.1 76.9 78.2 79.8 81.2 82.4 82.1 83.6 84.7 86.1 87 88.1 89.4 90.3 90.7 90.9 91.2 91.9 92.9 92.8 94.1 95.5 97 98.9 100.9 105.1 109.8 115.1 120.2 124.2 126.9 129.5 127.9 125.6 136.6 144.4 149.3 156.6 164.5 172.1 175 176.4 176.9 179.7 183 186.7 190.3 194.1 199.2 203.3 212.4 217 221.2 225.4 229.2 232.9 234.4 238.2 244.6 251 263.1 282.6 300.2 312 320.8 326.6 332 330 324.8 306.9 278.7 256.3 278 291 293.7 293.4 294.4 293.1 285.8 294 296 294.9 295.4 296.8 293.4 290.1 285.7 282.2 280.8 279.1 276.5 269.6 262 252.4 235.5 210 186.8 183.3 212.4 239.7 262.1 273.5 277.4
374.8 369.8 363.2 372.6 378.7 387.4 400.2 416.4 428.6 441.5 448.4 455.2 462.8 471.8 483.4 487.7 486.5 482.1 477.3 467.3 446.5 437.8 445.5 456 470.3 483.6 491.1 483.1 465 448.2 434.6 423.2 408.1 392.6 374.9 357.3 338.8 318.9 300 283 274.6 258.6 235 196.8 153.7 119.1 95.4 85.9 94.2 93.9 86.9 79.9 78.3 76.4 77 76.1 75 74.4 73.9 73.5 73.8 71.9 71.5 71 70.5 69 69.2 70.6 68.7 70 70.1 70.1 70.2 70 70.5 70 70.5 70.7 70.9 71 71 71.1 71.3 71.5 71.7 71.8 72 72.1 70.1 72.1 71.8 70.7 71.4 72.7 73.2 73.7 74 75.7 76.6 77.8 78.6 79.4 79.2 80.6 81.9 83.4 84.3 85.2 86.4 87.5 87.9 88.2 88.6 89.3 90.3 91 89.9 89.5 90.6 92.2 93.5 95.8 98.8 102.5 105.8 107.7 112.1 115.6 119.1 120.5 124.1 133.9 138.8 146 151.3 158.6 158.4 158.9 160.7 164.1 168.5 173.7 180.2 182.7 190.1 195 198.2 203 209.1 213.6 216.5 218.8 226.4 231.8 237.7 244.4 254.6 270.9 291.4 305.9 315.2 319.1 322.5 325.8 326.4 320.5 308.8 290.5 260.2 259.1 267.2 270.7 277.9 277 273.5 263.5 265.4 267.1 269.9 271.5 270.8 269.9 267.8 264.2 261 259.1 258.2 257.4 254.5 247.3 236 220.1 196.2 181 187.9 208.4 230.8 249.1 259.5 264.7
363.5 362.1 369.2 378.8 390.3 400.4 412.4 424.6 436.6 449 458.2 467.1 474.3 480.2 488.1 490.3 483.6 476.2 471.9 457.3 433.1 411.4 419 435.3 452 473.7 495 481 461.2 447.9 436.6 425.9 409.6 395 377.4 359 341.6 322.9 307.8 296.6 286 267.5 239.1 194.8 154.6 120.1 98.2 87.1 91.7 91.2 86.1 81.6 79.8 77.9 72.4 76.3 75.6 75.2 75.2 73.9 72.8 72.3 71.8 71.1 70.4 69.8 69.2 70.6 70.5 70 70 70.1 70.5 70.2 69 69.7 70.5 70.7 71 71.1 71.1 71.1 71.3 71.5 71.6 71.9 72.1 72.2 69 71.7 72.3 71.3 72.4 72.4 72.5 74.7 76 74.7 74.7 75.5 76.5 77.3 77.9 79.5 80.6 81.7 82.6 83.4 84.6 85.3 85.6 86 86.5 87.2 89.4 90.2 88.8 88.6 89 90.4 92.5 94.6 97.2 99.6 102.3 105.4 108.4 111.4 114.2 117.5 123.3 128.7 131.8 137.3 142.1 145.4 148.3 147.1 151.3 159 163.6 169.9 173.8 179.8 186.5 189.7 193.8 198.2 202.3 207.1 212.8 220 225 230.9 238.3 247.1 267.2 284.6 297.5 306.9 312.5 315.4 318.2 321.9 323.8 315.5 306 295.3 270.6 243.2 246.5 250.4 254 259 254.7 250.6 246.7 247.4 250.2 250.4 249.6 249.1 246.8 245.4 243.7 242.5 241.2 241.3 238 229.4 220.3 208.2 178 182.3 191.8 204 220.2 233.2 243 249.3
351.9 362 374.4 390.3 403 413.1 421.8 431.1 441.7 455.5 466.8 475.7 480.6 483.8 485.6 479 476.3 472.5 465.2 449 422.2 397 397.3 410.5 433.8 459.8 476.1 470.5 456.1 444.9 435.3 423.2 409.2 393.9 376.4 361.6 343.2 329.4 314.4 300.4 286 269.9 235.2 189.6 149.1 116.7 97.7 89.2 90.1 90 87 83 81.3 79.5 75.7 77.3 76.2 75.9 74.3 73.4 72.9 72.6 71.9 71.1 70.5 69.2 70.6 69.7 70.6 70.7 70 70.7 70.5 70.2 70.3 70.3 70 70.9 71 71.1 71.2 71.2 71.3 71.5 71.6 71.7 71.9 71.9 69 71.8 72.5 71.4 72.3 72.3 72.6 74.7 76.4 77.9 79 77.5 75.8 76.3 77.1 78.1 79.2 80 80.8 81.7 82.5 83.1 83.5 84 84.6 85.8 88.6 90.6 89.9 88.2 88.8 89.8 92.1 94.2 96.4 99.4 102.3 104.6 107.3 109.7 111.6 115.5 119.6 122.3 125.2 128.2 130.3 133.9 136.4 140.3 146.2 154.1 158.8 163.7 164 174 179.8 186.1 190.5 194.6 197.3 206 212.1 218.4 227.5 240.8 252.6 265 276.3 288.5 298.1 305.7 309.1 311.1 312.9 315.2 313.8 308.4 302.6 296.7 287.1 267.7 249.1 235.3 239.5 236.9 234.4 231.4 228 229.8 230.6 231.6 232.4 231 229.3 228.4 228.1 228.3 227.2 224.5 220.1 213.5 209 192.2 174.7 182.7 188.6 198.8 213 221 228.1 233.9
358 367 386.5 403.5 415.2 425.5 432.9 439 447.6 457.7 467.4 477.6 483.7 481.3 471.9 469.3 471 466.7 456.3 439.9 416.9 391 376.4 388.9 414.9 442 460.1 460.9 449.4 440.2 430.8 419.8 405.5 396.2 381.5 361.5 346.2 332.9 312.6 291.9 270.3 243.9 212.6 175.6 141.8 110.2 95.2 90.9 90 90 86.9 83 81.3 79.9 78.1 74.6 75.7 75.7 74.7 73.8 73.1 72.7 71.9 70.9 70.7 70.5 70.3 70.8 70.8 70.6 70.6 71.2 70.2 70.3 70.3 68.8 70.6 71 71.1 71.2 71.3 71.3 71.3 71.4 71.5 71.7 71.8 72 71.7 69 72.3 72.7 72.3 72.1 72.5 73.5 74.8 76 78.5 81.2 82.8 79.2 77.9 77.5 77.6 78.3 79.3 80.2 81.2 81.6 81.6 81.8 83.2 83.5 86.5 88.9 88.7 86.8 87.4 88.8 91.2 93.3 95.5 98.1 100.5 103 104.7 106.8 109.8 112.6 115.4 117.4 120.2 122.6 125.4 128.7 132.1 136.8 142.4 147.3 150.8 151.1 162 169.2 176.2 180.3 184.9 194.4 199.4 206.5 216.4 226.3 239.4 248.9 257.5 268 274.6 283.8 292 301 305.2 307.5 309.5 309.2 307.2 305.1 301.2 296 292.6 286.7 271.2 254.5 235.7 225.6 221.5 219.8 218.5 217.9 216.1 217.5 220.3 221.8 218.9 216.9 217 216.4 214.3 211.2 205.8 202.4 193.9 171.4 173.4 180.6 186.3 193 204.2 210.3 214.3 221.8
363.5 377.6 397.1 413.8 427.4 439.2 447.9 453.1 458.6 461.5 466.1 472.6 475.8 470.7 468.9 465.5 463.2 455.3 444.8 431 408.6 381.9 365.7 372 400.5 429.6 448.5 448.6 444.9 440.5 431.6 417.2 407.1 394.6 375.7 364.3 345.1 326 300.9 277.1 250.2 220.4 190.4 160.4 132.5 105.6 94.9 90.7 88.1 87.2 85.1 82.9 82.4 81.2 79.2 75.4 76.6 75.8 75.1 74.2 73.3 72.5 71.5 70.8 71.1 70.9 70.8 70.7 70.7 70.7 69.2 70.8 70.6 70.5 70.7 70.8 71 71.1 71.2 71.3 71.4 71.3 71.3 71.4 71.5 71.6 71.6 71.5 71.6 71.8 69 72.6 72.6 72.3 72.6 72.6 72.6 73.5 74.1 77.1 80.6 84.5 82.4 79 76.9 77.4 77.6 78.8 79.4 79.6 79.8 80.1 81.3 82.1 83.6 86.6 87.6 85.4 85.8 88.1 90.5 92.7 94.5 96.5 98.9 100.8 102.6 104.4 106.6 109.9 111.8 114.9 118.1 120.8 123.1 126.1 129.3 132.2 135.1 137.5 140.9 150.7 157.8 164.7 170.4 176.7 184.7 191.6 198.5 206 214.6 222.8 231.8 237.5 242.2 248.2 261.6 271 279.7 290.8 298.7 304.2 306.3 307.1 306.5 304.7 299.3 293.5 289.6 281.9 271.8 259.2 245.1 247.7 238.6 231.8 223.2 209.8 212 211.2 210.8 214.5 215.1 210.4 207.5 204.6 203 199.5 193.9 191.3 178.1 167.2 171 177.4 183.1 187.8 193.5 199.7 204 213
371.8 386.9 405.6 423.1 436.5 450.8 463.3 471.3 475.2 474 471.8 472.7 472.8 471.1 467.8 459.4 449.3 438.4 428.7 416.5 399.9 373.9 355.5 361.5 389.5 416 440.5 445.7 444.1 437.4 427.4 413.9 399.1 380.8 363.1 350.9 334.6 314.4 291.6 269.1 235.2 206.8 179.4 152 127 107.9 94.8 91.7 89.1 88.3 86.5 84.4 81.8 80.4 78.3 76.8 75 75.5 74.5 74 73.3 72.3 71.4 70.8 70.6 70.9 70.6 70.5 69.9 70.8 71 71.2 70.8 70.8 70.8 71 71.2 71.3 71.4 71.4 71.4 71.4 71.3 71.4 71.5 71.6 71.6 71.7 71.7 72 71.6 69.6 72.7 72.7 72.8 72.6 72.3 72.1 72.3 72.6 75.6 79.4 86.5 85.3 80.6 76.5 76.4 76.7 77.1 77.4 77.8 78.5 79.2 80.4 83.2 84.5 84.5 84.2 85.4 87.3 89.1 91 93.1 94.9 96.6 98.4 100.3 100.8 101.5 102.6 108.3 111.6 115.3 118.9 120.7 121.3 124.4 126.6 129.3 134.7 142.6 148.5 155.2 160.8 166 173.1 180.6 187.6 192.7 200 204.1 212.4 217.1 224.3 230.1 240.6 247.7 252.7 263.7 274.3 290.4 295.7 301 304.7 303.8 300.6 297.1 293.3 289.6 282.5 273.9 270.8 272.1 270.5 264.6 257.6 248.3 231.5 210.7 202.3 204.6 205.4 209.5 207.7 198.5 194.3 192 187 182.8 181.4 174.7 162.8 168.1 174 180.4 183.2 187.7 192.1 196.6 204.5
375.2 395.3 411.1 428.5 442 452.4 470.2 482 484 480 478.4 481 484.6 482.9 472.1 455.4 437.8 420.5 410.4 401.9 389.9 367.7 347.3 352.2 374.9 395.1 419.8 432.3 430 424 410.5 396.3 382.1 364 344.1 324.4 306 290.7 276.3 262.8 236 209 182.3 162 135.1 109.9 98.3 93 87.9 87.1 82.9 81 80.2 79.6 79 78 74.7 75.9 74.6 73.3 72.6 71.8 71.3 70.7 70.6 70.5 70.5 70.7 70.9 70.9 70.8 71.1 71.5 70.6 69.1 70.8 71.2 71.4 71.3 71.5 71.5 71.5 71.4 71.4 71.5 71.6 71.7 71.9 71.9 72 72.2 72.1 69.6 72.9 72.9 72.7 72.5 72.2 72.1 72.2 72.3 75.3 79.9 84.2 84.8 79.9 75.2 74.6 75.3 76.1 76.3 77.2 77.7 78.6 80.8 82.8 82.4 83.4 84.8 86.5 87.8 89.7 91.3 93 94.6 95.9 98 99 98.6 98.6 104.1 108.3 111.7 114.6 115.2 116.7 118.4 123.9 128.9 136.7 141 146.3 151.8 156.5 161 165.4 171.9 180.2 189.3 198.2 207.9 216.9 227.6 238.6 251.3 262.4 270 271.1 271.3 270 288.2 295.6 298.4 300.6 299.9 295.9 293.1 291.9 289.2 284.5 279.9 278 277.9 276.7 268.7 263.2 249.4 230.5 210.3 199.4 198.4 200 197.6 194.3 190.9 188 184.4 179.9 177 175.9 174.9 159.7 165.2 173.9 177.7 178.8 182.6 185.7 188 195
395.1 401.3 413.8 429.6 442.9 456.4 472.4 483 489.5 485.9 484.8 486.4 488.5 481.8 468.7 450.9 431.5 410.7 394.6 388.1 375.3 357 338.9 333.8 352.4 368.5 389.8 405.7 407.3 400 388.8 378.5 362.7 341.3 322 302.5 276.4 262.4 253 249.4 245.6 219.6 187.2 163.7 134.2 106.3 107.3 95.7 85.6 84.2 83 82 81.6 81.5 80.6 79.3 77.1 75.9 75 73.6 72 71.3 71.2 71 70.8 70.6 70.7 70.9 71.1 71 71 70.9 71.3 69.3 71.5 70.6 70.5 70.8 71.2 71.5 71.5 71.2 71.5 71.5 71.6 71.6 71.8 71.9 72 72.1 72.1 72.1 69.6 71.6 72.7 72.9 72.6 72.3 72.2 72.2 72.3 72.5 75.1 78.4 80.4 78.8 74.7 74.5 74.9 75.3 75.3 76.3 77.8 78.4 79.6 81 81.2 82.5 83.9 85.2 86.5 88.4 89.6 91 92.7 94.6 97 96.5 96.6 97.6 100.6 103.4 107.6 110.9 111.5 112.7 116 122.9 127.1 131.9 135.9 143.1 148.7 153.6 156.7 165.1 176.6 187.7 195.2 204.4 216.2 226.5 241.7 255.8 269.7 284.9 294.5 298.6 298 288.1 284.3 297.3 297.2 296.2 294.3 292.7 290.9 289.5 288.3 284.8 277.7 276.9 272 269.3 259.4 244.6 230.4 215.4 206 203.2 194.8 191.3 191.4 188.1 184.6 182.2 179.3 174.1 171.1 168.7 165 158.4 163 171.1 173.5 175 176.7 179.2 181.1 187.6
415.3 410.6 419.1 433.9 446.1 458.5 471.5 484.8 490 488.6 487.9 486.5 482 473.9 460.3 443 424.6 404.3 383.5 370 360.5 348.4 332.9 322.4 322.5 343.1 367.3 379.9 384.8 378.7 373.9 362.2 341.6 321.9 305.9 283.8 250.1 231.9 219.9 215.1 216.3 205.7 177.7 151.8 122.4 106.8 106.7 92.8 86.4 86.5 85.5 85 84.1 82.6 81.4 80 77.9 73.8 75.1 73.5 71.7 71.3 71.3 71.1 70.9 70.8 70.8 70.9 71.1 71.1 71.1 71 71.2 71.2 70.7 71 71.3 71.3 71 71.2 70.9 71.1 71.4 71.7 71.7 71.8 71.8 71.9 72 72.2 72.5 69.6 72.5 72.6 72.6 72.8 72.6 72.4 72.3 72.3 72.3 72.4 72.5 73.6 75.2 74 73.9 74.1 74.5 74.4 75 77.4 78 78.3 79.1 80 80.2 81.3 83 84 85.2 86.7 87.8 89.5 90.4 92.9 94.5 93.9 94.9 96.8 99 101 103.6 106.4 108.5 111.9 114.9 120.3 123.1 125.8 134 142.5 150.8 158.6 167.3 177 187.4 197.4 206.2 214.9 228.1 243.3 258.7 273.7 289.9 302.7 309.9 311.8 309.1 300.9 295 297.2 298.1 296.9 294.9 291.2 285.8 284.1 277.4 270.8 269.5 265.8 256.6 245.3 232.7 223.2 217.7 218.1 229.9 226.5 215.3 205.9 195.2 193 193.5 190 189.1 187.9 184 175.5 156.7 156.7 161.4 167.5 169.3 170.8 171.5 173.8 175.5 180.4
436.8 426.9 425.7 442.4 451.3 468.7 469.9 480.9 488.7 488.7 486.2 481 473.4 463.3 449.5 433.5 417 397.5 377.7 365.2 354.7 342.2 329.4 315.5 306.5 318.5 344.4 359.6 366.3 364.5 360.5 350.5 330.6 310 274.6 251.7 225.7 201.3 186 179.7 177.5 171.3 152.9 130.8 112 105.6 98.8 90.7 89.1 87.9 87.7 86.2 84.7 83 81.4 79.3 77.4 75.6 74.1 72.8 72 71.5 71.4 71.3 71.1 71 70.9 71 71.2 71.2 71.2 71.1 71 71 71.2 71.7 71.6 71.6 70.7 70.4 70.8 71 71.5 71.7 71.9 71.9 71.9 71.9 72 72.2 72.1 69.6 72.1 72.9 72.6 72.6 72.8 72.5 72.4 72.4 72.3 72.3 72.4 72.4 72.6 73 73.4 73.7 74 74 74.3 76.8 80.3 79.3 79 79.1 79.4 80.7 82.3 83.2 84.2 85.3 86.7 88.3 90.2 91.9 92.5 93.1 94.5 96.6 98.6 100.5 102.6 105.1 107.6 109.7 112.6 115.8 117.7 122.3 131.2 142.6 154.4 167.1 176.2 184.7 196.2 208.7 219.5 231.3 244.8 260.4 276 290.1 304.1 314.9 320.3 318.4 315.3 307.9 306.7 306.6 304.6 302.5 302 298.6 293.6 284.6 270.8 259.8 253 246.1 240.7 236.6 237.1 239.8 243.1 250.8 257.9 246.2 233.6 221.1 214.7 219.9 218.8 218.4 214.7 210.7 205.6 197.2 175.2 156.2 158.8 163.5 166 166.5 167.3 168.7 170.9 175.1
454.3 447.6 435.4 444.2 455.1 470.8 475.5 477.3 482.2 482.2 480.4 474 464.6 453.3 439.1 424.9 412.3 394.5 374.3 360.8 352 343.2 333.2 316.5 303.2 293 318.8 338.7 346 347.2 340.8 326.1 308.1 280.9 248.7 219.2 195.3 175.7 156.9 145.2 150.4 148.9 128.3 118.1 121.3 112.7 105.9 95.2 91.6 89.3 87.6 86.4 84.8 83.1 81.7 79.8 76.4 75.8 73.2 72.4 71.8 71.6 71.6 71.4 71.3 71.1 71 71.1 71.1 71.2 71.3 70.6 71.1 71.2 69.6 72.2 71.7 71.4 71 71.7 71.3 71.3 71.6 71.8 72 72 72.1 72 72 72.2 72.4 72.5 69.6 72.8 72.9 72.8 72.4 72.9 72.5 72.4 72.3 71.9 72 72.5 72.8 73.4 73.6 74 74.3 74.4 74 74.2 81 83.5 81.3 79.6 79.7 80.7 81.9 82.7 84 84.9 85.8 89 89.7 90.8 91 92.7 94.2 96 97.8 99.7 101.5 103.4 105.1 106.8 109.4 111.3 112.3 120.5 127.5 142.9 159.7 173.6 183.8 191.7 202.8 215.4 228 240.7 255.9 272.1 288.4 302 311.7 319.2 324.3 324 320.3 318.6 317.1 317.5 317.2 315 312 307.1 301.4 296.2 284.9 272.9 261 262.2 265.3 267 267.5 266.2 265.2 261.2 255.7 243.3 235.3 234.9 240.8 243.7 240.4 236.5 230.3 225.4 218.5 209.3 192.7 165.5 154 157.4 161.5 162.6 162.1 162.2 166.7 169.8
463.7 457.1 446.4 446.6 451.4 464.9 474.1 473.5 475 476.7 476.2 468.5 458.4 444.9 427.8 415.5 403.1 387.8 369.7 357.1 348.9 341.3 333.6 316.6 300.2 290.7 298.1 320.2 330.6 325.6 314.4 301.9 282.4 254.9 224.5 195.7 174.1 168.5 174.3 163.3 147 133.6 135.3 146.5 143.1 117.3 117 98.5 92.5 89.7 87.6 86.4 84.6 83 81.5 80.3 77.8 74.8 73.7 72.9 72.7 72.3 71.9 71.6 71.6 71.4 71.3 71.1 71.1 71.1 71.2 70.7 71.1 71.4 71.5 72 71.8 71.5 71.5 71.5 71.3 71.4 71.6 71.9 72 72.1 72.2 72.2 72.2 72.3 72.3 72.6 72.9 72.7 69.6 73 73.2 73.3 71.5 72.4 72.1 71.7 71.8 72.4 73.1 73.7 73.9 74.2 75.8 76.2 74.9 74.3 77.3 80.8 84.3 81.6 80.3 80.4 82 82.8 83.8 84.7 86.2 86.7 87.2 88.8 90.1 91.8 93.5 94.8 96.4 98.1 99.6 101.3 102.7 103.9 105.4 107.1 110.3 115 126.6 145 161.8 176.6 192.5 204.5 209.5 218.6 231.5 246.3 262.9 279.4 293.4 304.9 314.2 321.8 325.8 327.2 326.6 326.9 326.8 327.4 327.2 325.1 322.5 317 310.4 303.4 294.1 277.6 283.4 284.1 284.1 284.2 281.3 277.4 273.7 269.5 261.6 257.7 255.7 253.8 250.3 246.5 238.7 233.3 229.4 226 221.4 214.8 201.5 188 160.5 150.5 155.5 156.1 155 151.9 154.4 160.8
476.1 468.7 457.1 452.7 453.2 454.6 459.5 470 471.3 471.8 470 462.1 453.7 437.4 417.1 405.2 392.1 378.9 362.3 352.8 344.5 336.1 327.9 312.5 296.8 285.8 275.8 296.9 307.6 303.4 293.3 278.8 257.1 231 200.3 179 178.9 188.5 186.8 178 168.3 160.2 159.5 161.5 148.6 119.2 113.1 100.7 94.4 90.7 88.3 86.3 84.3 82.8 81.3 79.9 77.8 75.5 74.3 73.5 73.4 72.9 72.2 72 72 71.8 71.5 71.4 71.3 71.3 71.6 71.4 71.5 71.8 72.1 72 72 71.9 71.9 71.9 69.6 71.6 71.8 71.9 72.1 72.1 72.2 72.3 72.4 72.3 72.4 72.6 72.9 73.2 72.9 69.6 73.3 73.5 77.1 77.3 71.7 72.8 72.7 73.1 73.1 73.6 74.1 76.9 80.7 84.5 82.1 75.4 75.7 76.7 79.4 80.4 79.9 80.7 81.8 82.2 83.7 84.7 85.8 85.7 86.6 87.9 89.3 90.8 92.1 93.3 94.9 96.4 97.9 99.2 100.2 101.7 103.4 105.2 110.1 115.8 126.4 146.5 163.8 181.2 196.2 209.8 212.4 218.7 230.4 241.1 256.6 273.2 288.7 302.5 314.2 319.6 327.9 329.2 332.4 334.6 336 337.3 336.8 334.2 330.6 325.7 318.7 309.5 296.5 293.5 291.2 289.7 289 288.3 286.4 283.4 280.3 276 271.4 264.8 257.9 251.1 241.1 231.3 218 211.2 209.3 209.2 205.6 198.7 192.6 185.9 179.7 159.1 145.1 148.8 143.9 143.7 145.1 149.4
484.7 474.2 464.6 462.8 459 457.6 457.3 465.6 468.5 467.2 462.3 453.6 444.3 430.4 410.6 398.5 386.3 373.8 362.6 350.8 340.2 329.7 320.1 308.6 294 281.2 270.1 270.6 281.7 281.5 273.1 259.4 237.2 214.4 191.6 185.4 199.9 200.7 195.3 189.4 183.4 178.5 173.5 171.1 152.1 122.4 113.2 105.5 96.8 93.7 88.6 86.2 83.7 81.6 80.3 78.6 76.9 76.4 75.4 74.2 73.5 72.8 72.5 72.2 72.4 72.1 71.8 71.6 71.6 71.8 71.6 71.6 71.8 72.1 72.6 69.7 72.2 72 72.1 71.9 71.9 71.7 71.8 72 72.1 72.1 72.2 72.3 72.4 72.4 72.5 72.6 72.8 72.9 73 73.1 72.9 76.5 80.1 82.7 78.4 74.3 73.1 73 73 73.5 76.4 81.9 86.3 88.9 88.5 81.1 75.7 75.3 76 76.4 77.5 80.1 83.5 85.6 85.3 84.1 84.8 85.1 86.1 87.4 88.9 89.9 90.8 91.8 93.3 94.7 96.2 97.2 98.5 100.1 101.8 108.7 112.9 117.5 125.7 139.7 159.2 178.4 193.7 204.5 206.7 212.6 222.1 230.5 237.7 252.5 268.1 291.6 304.7 315.9 326.5 332.6 338.5 341.8 344.5 346.1 345.1 342.7 337.9 332.2 324 308.1 301.5 301.9 300.9 299.9 299.7 297.3 294.1 289.3 284.4 276.6 269.4 258.4 247.6 231.3 218.2 206.9 196.1 189.4 185.2 185.6 182.7 177.5 173.9 172.8 172.3 169.7 166.2 155.2 150.3 136.2 140.6 142.5
479.2 475.2 470.4 472.3 472.3 466.1 467.3 465 464.3 462.8 459.6 452.6 442.8 428.3 409.6 396 384 374.1 364.1 350.7 339.1 328.2 319.4 309.3 294.3 281.7 266.8 256.9 256.5 258.7 253 239.4 217.4 198.7 187.2 204.6 211.8 207.6 202.3 198 193 185.6 178.8 170.9 152.1 126.1 118.3 108 100.1 95.8 89 85.9 83.5 82.1 80.4 79.2 77.5 76.5 75.7 75 74.5 72.9 72.8 72.4 72 72 71.8 71.5 71.4 71.2 71.4 72 72.6 72.1 72.9 73.3 72.4 72 72.1 72.2 71.8 71.8 71.9 72 72.1 72.1 72.2 72.3 72.3 72.4 72.5 72.7 72.8 72.9 73 73.1 72.4 73.8 77.3 80.4 81.8 77.9 73.3 73.2 73.3 74.1 76.9 81.5 86.1 89.9 92.1 84.7 79.6 76 75.9 76.4 77.2 77.5 80.6 86.4 90.3 89.5 84.5 84.5 85.4 86.9 87.8 88.7 89.5 90.6 91.9 93.2 94.5 96 97.2 98.7 104.6 109.6 113.7 118.4 125.5 134.4 146.1 166.5 181.9 191.8 197.2 204.5 212.7 219.4 234.8 243.8 265.7 287.2 309.1 321.4 330 337.9 343.4 347.8 351.8 354.1 352.1 347.9 342.9 335.9 325 319.9 314.7 307.6 304.1 304.3 306.9 305.7 299.5 285.5 275.9 261.7 248.2 234.2 221 207.6 196.6 186.4 175.2 169.7 165.9 162.7 160.9 158.9 159.4 158.7 158.5 157.5 156.1 154 154.2 144.3 136.4 138.7
485.7 488.5 487.4 478.3 472.6 470.4 470.6 470.4 466.6 463.1 460.3 453.5 444.5 433.1 417.7 403.6 387.4 377.9 368.9 354.6 340.9 326.6 314 303.1 291.4 277.5 266.8 257.2 248.6 237.9 234.7 223 200.3 204 210.7 219.7 219.8 214.1 208.5 205 198.1 190.1 180.6 170 153.7 123.5 115.4 110.5 99.9 93.2 86.5 86.5 83.5 82.5 80 79.1 78 77.2 76.2 74.9 74 73.6 73.1 72.5 72.1 72.1 71.8 71.6 71.4 71.4 71.5 72.3 72.2 72.1 72.5 72.5 72.5 72 72.1 72.1 72 71.7 72 72.1 72.1 72.2 72.2 72.3 72.3 72.4 72.6 72.8 72.8 72.9 72.9 73.2 72.6 70.7 73.7 76.6 79 77.6 73.8 73.4 73.4 73.4 74.3 78.7 82.2 86.1 91.2 90.3 83.5 77.8 75.3 75.1 75.7 75.7 76.5 81.5 86.4 90.7 88.1 85.1 85.3 85.8 86.6 87.3 88.2 89.9 91.3 92.4 93.6 95.1 96 97.4 104.2 108.1 112 118.1 125.6 137.5 142.8 157.4 174.6 185.3 192.3 202.5 216 230.7 247.1 265.9 275.3 296.4 318.9 329.7 335.7 342.9 348.4 352.9 357.1 358.7 356.5 352 345.7 337.9 332.6 327.8 313.7 300.8 292.2 284.9 294.2 297 282 268.1 252.1 236.5 222.4 208.8 196 185.6 175.2 166 158.9 154.9 152.2 150.8 149.6 149 149 148.8 148.2 148.4 148.6 149.4 150.9 150.2 133.3 136.6
496.7 489.7 485.5 481.3 480.5 478.9 478.8 477.7 472 464.1 457.3 450.1 444.5 435.6 423.7 410.5 394 382.3 373.1 363.4 351 336.6 321.7 306.9 294.5 283.4 268.8 258.7 250.7 240.4 230.4 219.3 216.1 219.1 228.9 229.3 224 220.8 217.1 211.1 204.1 194.8 187.3 176.7 158.7 127.7 115.4 108.5 100.5 95.8 91.8 92.8 88 83.5 80.1 78.7 78.1 77 75.8 75 74.5 75.4 73.3 72.8 72.5 72.5 71.7 71.7 71.6 71.4 72.1 72.2 71.9 72.2 72.5 72.9 72.5 72.1 72.1 72.2 72.2 72.1 71.9 72.1 72.3 72.3 72.3 72.3 72.3 72.5 72.7 72.8 72.8 72.8 73 73.2 72.4 72.8 72.8 73 74.7 75 73.8 73.6 73.6 73.7 73.8 75.7 80.2 83 88.2 90.8 86 79.9 75.3 74.8 74.9 75 76.3 78.7 84.3 84.7 85.4 84.9 85.8 84.9 85.5 86.2 88.2 89.5 90.5 91.6 93 94 94.9 97.1 101.1 105.3 110 115.9 127.4 147.4 163.3 165.6 167.7 181.8 198.6 214.2 229.2 244 260.3 277.6 296.9 312.2 324.4 334.3 342.5 347.3 353.3 358.1 362 361.5 358 352.6 346.9 341.6 334.1 319.9 306.4 285.2 273.2 259.9 265.6 268.7 257.6 239.1 224 210.9 197.3 183.7 174 164.3 156.6 147.8 144.3 143.8 143.8 144.1 144 143.9 142.9 143.5 143.7 143.8 145.1 146.4 148 141.1 130.7 135.4
497.3 491.6 490.4 485.7 484.9 483.3 478.8 472.3 462.5 453.1 446.1 442.2 439.8 429.4 417.3 404 392.5 383.7 375.3 364.8 353.4 335.5 321.3 303.9 293 279.8 270.7 259.2 246.9 239.3 232.7 226.6 230.7 234.2 235.7 233.6 230.1 226.9 224.2 217.5 207.8 199.4 190.3 177.4 157 135.5 119.6 109.9 101.7 98.8 97.7 94.2 90.4 87.4 83.3 80.2 77.6 76.6 75.5 75.1 75 75.4 73.5 73 72.4 71.7 71.5 71.6 70.8 71.7 71.7 71.8 72 72.2 72.5 70.3 72.6 72.3 72.2 72.3 72.2 72.3 72.2 72 72.2 72.3 72.3 72.3 72.3 72.6 72.8 72.9 72.9 72.9 72.8 72.8 72.4 72.7 72.8 73.1 72.7 73.5 73.5 73.7 73.8 73.9 74.4 74.5 77.2 80.5 83.5 86 85.1 79.9 75.3 74.9 74.9 75 76.8 79 81.7 86.4 82.8 82.4 82.7 83.8 84.5 85.7 87.4 89 90.2 91.1 92.1 92.5 94.4 96.5 98.6 104.5 107.9 112.8 128.9 151.4 169.5 179 183.4 193.9 203.2 217.4 234.6 254.3 272.8 290.7 307.5 322.7 333.5 341.4 346.9 352.8 359.3 364.2 364.4 362.8 358.1 353.5 346.8 343 329.7 318.1 298.5 275.8 264.5 244.6 239.8 240.8 232.3 209.6 190.8 180.5 174.2 163.4 153.6 145 138.8 135.4 133.6 136.1 136.5 137.3 134.9 128.3 124.7 127.6 134.7 138.6 140.5 141.6 142.6 130.4 127.8 139.5
502.1 493.4 486 483 478.3 472.6 465.6 456.8 445.2 437.8 433.1 428.2 422 412.5 404 393.5 387.8 380.2 370.4 359.6 346.8 331.4 318.6 305.4 292.5 278.6 270.4 261.9 250.3 246.2 241.2 239.2 241.4 243 242.7 240.3 237 232 227.5 218.3 208 198.9 184.1 168.4 153.1 137.1 125.6 109.6 107 101.7 98.5 94.8 91.5 88.4 85.2 81.2 77.7 76.7 76.3 75.7 76.7 76.8 75.6 73.6 72.5 71.6 71.5 71.4 71.3 71.7 71.7 71.7 71.9 72 72.1 73.2 72.7 72.6 72.5 72.3 72.3 72.4 72.6 72.1 72.2 72.4 72.4 72.3 72.3 72.6 72.8 73 73 73.1 73.2 72.9 73 72.6 72.8 73.1 72.8 72.9 73.4 73.6 73.9 74.4 74.6 74.8 74.9 77.6 79.3 80.7 80.5 77.1 75.6 75.2 75.1 75.1 75.6 77.8 81 87.7 88 82.8 82.6 83.4 84.1 84.9 86.5 88.2 89.5 90.7 91.4 92 93.6 95.4 97.4 100.6 104.4 108.4 120.2 139.9 155.2 171.6 181.7 190.8 201.7 215.7 232.6 256.1 279.5 300.9 316.7 329.3 340.4 348.6 353.1 359.2 364.5 366.4 365 359 354.5 349.4 340.2 329.9 327.8 311.7 297.1 274.8 256.2 236.9 226.9 216.4 203.2 178.3 158.7 152.1 149.6 144.4 136.3 130.4 127.5 119.5 114.5 119.8 122.1 123.4 122.9 120.7 120.8 119.6 121.7 123.8 128.1 127.5 129.9 127.8 130.5 136.7
479 472.3 473.9 465.3 453.9 448 442.7 434.7 421.6 417.3 415.3 411 404.9 397 389.7 383 375.8 367.1 359.5 347.8 335.1 323.8 312.2 298.8 288 278.6 266.8 255.7 247.9 252.3 250.6 249.3 250.8 250.8 248.9 246.2 243.2 237.4 229.9 222.4 209.9 198.3 175.1 163.7 153.3 136.8 131.8 125.4 114.2 104 98.6 94.9 91.9 88.7 85.5 81.3 78.3 77.4 78.3 79.5 79.3 78.3 76.1 75.1 72.9 71.7 71.5 71.5 71.5 71.3 71.7 71.7 71.8 71.9 72.2 72.8 73 72.8 72.6 72.4 72.4 72.5 72.5 71.6 72.4 72.4 72.4 72.4 72.3 72.6 72.9 73 73.1 73.2 73.4 73.1 72.5 73.2 72.9 73.5 72.9 73.3 73.5 73.6 73.8 73.7 74.5 74.6 74.3 76.8 78.5 79.6 79.6 80.6 80.3 78.4 76.8 75.6 75.4 76 77.8 81.5 86.2 87.6 82.6 83.2 84.8 85.4 86.4 88 89.1 90.2 90.7 91.5 93.1 94.7 96.9 100.1 105.2 110.6 116.8 126.5 139.9 156.6 174.9 193.8 214.7 230.4 244 257.1 273.9 300.4 317.9 332.6 346.1 354.1 361.1 366.1 368.2 364.6 352.6 341 343.8 341 327.3 315.8 312.9 299.4 290.1 280.3 263.2 235.8 221.2 201 181 160.2 130.4 108.1 125.3 127 122 116.9 112.2 115.7 117.9 115.3 118.8 119.7 119.9 118.5 119.8 122 123.3 119.9 123.7 124.9 125.6 125.2 125.3 126.5
444.1 438.5 439.1 432 425.2 421.4 416.2 406.4 398 394 394.7 392.6 388.2 382.5 373.6 368 361.7 353.2 344.2 334.6 326.2 316.6 304.6 293.4 287.5 278.4 262.7 258.9 247.9 258.4 259.3 258.3 258.7 257.3 255.1 251.7 248.4 242.2 235.3 220.1 205.5 190.9 174.4 162 157.1 150.2 147.6 142.2 125.9 109.4 100.8 95.1 91.9 88.7 85 80.5 79.6 79.1 81.2 82.6 82.4 80.2 77.5 75.9 73.8 72.9 71.8 71.7 71.7 71.5 71.2 71.7 71.7 71.7 72.1 72.3 73.4 73 72.9 72.6 72.5 72.5 72.3 72.2 72.6 72.6 72.6 72.5 72.5 72.6 72.9 73.1 73.1 73.2 73.5 73.9 72.5 72.6 73.5 73.8 73.9 73.6 73.6 73.6 73.7 73.9 74.3 74.3 74.3 74.8 76.7 78.8 80.5 79.5 80.4 80.5 79.6 77.2 75.7 76.5 77.4 79.2 82.3 83.9 84.6 82.5 84.2 89.2 88.6 87.9 87.7 91.4 92.5 91.3 92.5 94.1 96 100.3 107.3 113.7 120.3 127.1 137.2 154.3 173.9 195.1 218.1 242.7 259.1 274.5 291 308.1 325.5 340.7 352.7 360.8 365.2 366.8 362.7 347 329.7 320.7 330.1 323.2 305.6 288.9 284.2 282.8 275 266.5 250.5 229.1 212.8 192.4 172.4 150.4 109 110.8 109.6 113.4 114.5 111.6 116.2 119.9 125.7 125.4 116.5 118.8 119.6 118.3 124.3 126.1 126.8 123.1 122.5 123.2 123.7 127 134.1 131.1
408.7 404.7 408.2 401 398.8 397.7 391.7 381.4 371.4 368.7 367.9 367 365.6 361.6 356.6 351.1 345.4 341 334.7 323 315.2 307.1 294.9 286.6 276.8 267 262.9 256 261.6 264.5 265.5 265.6 265.2 263.1 261 257.1 251 244.8 235.5 219.2 203.4 189.2 180.5 179.7 170.9 171 172.6 160.6 139.7 115.5 101.6 95.8 91 87.1 83.5 81.3 80 81.1 83 85 84 81.1 78.6 76.9 74.6 73.2 72.3 72.1 72 71.8 71.7 71.4 71.8 71.7 72.2 73.6 73.6 73.3 73.1 72.8 72.6 72.8 72.3 72.5 72.8 72.7 72.7 72.5 72.6 72.7 72.9 73.1 73.1 73.3 73.5 73.9 72.8 73.1 73.8 73.7 73.6 73.5 73.5 73.6 73.9 74.1 74.2 74.2 74.3 74.9 75.2 75.5 75.9 75.8 76 76.7 77.6 76.3 76.1 76.9 77.7 78.7 82.7 81.3 81.6 82.3 82.3 87.6 90.8 87.3 86.1 88.9 92.5 90.9 92.2 93.4 97.5 103.4 109.3 118.5 124.2 130.2 140.2 153.8 171.5 194.8 218.4 246.5 272.5 287.3 299.2 320.2 337.4 347.8 354.7 358.5 357.3 352.5 341.4 324.5 305.8 300.7 311.9 308.4 287.7 267.5 263.1 260.1 253.5 243.4 231 210.7 195.6 175.8 161.9 140.4 107 112 114.7 111 111 114.2 118.8 127.4 136.3 140.2 129.8 125.3 128.1 132.8 134.5 134.7 135.9 134.4 133.3 134.6 136.1 135.6 134.7 135.1
375.1 371.8 373.1 371.8 374.2 369.9 361.3 352.6 343.5 340.6 341.2 344.5 344.6 342.3 340.5 336.3 334.3 331.6 325.7 313.5 304.1 295.4 287.1 279.1 270.8 263 263 268.5 271.2 271.9 273.1 272.6 272.3 270.4 268 262 253.6 245.3 236.5 221.4 203.9 187 192.3 193.7 183.9 187.8 188.4 176.7 152.8 126.4 106.3 97.8 93.2 90.8 86.6 83.8 80.8 82.5 85.1 86.5 86.5 83.2 79.9 76 74.8 73 72.7 72.5 72.3 72.1 71.8 71.6 71.7 71.7 71.7 73.1 71.3 73.6 73.3 73 72.6 73 72.4 72.7 72.6 72.6 72.6 72.6 72.7 72.8 72.9 73.1 73.2 73.3 73.6 72.7 73.8 73.8 73.8 73.7 73.6 73.6 73.6 73.6 74.1 74.4 74.9 74.2 74.3 74.7 75.1 75.4 75.6 76 76.3 76.4 76.8 76.8 76.7 77.2 78 78.9 79.7 80 80.7 80.7 80.9 82.5 88 86.4 84.6 86.1 89 90.8 91.5 94 100 104.4 111.3 120.2 128.5 135.3 142.4 152 169.3 192.7 216.3 240.9 260.1 281.1 297.4 313.7 332.8 338.9 345.2 342.6 337.2 327.2 316 301 285.7 284.2 300.3 303.3 278.1 255 239.5 231.2 224.2 220 210.1 197.2 180 164.2 147.7 131.1 107.1 112.3 114.9 112.2 113.8 120.3 130.7 140.2 147 149.3 148.8 147.3 147.8 147 149.7 150.3 150.7 148 143.5 144.1 144.8 143 142 139.2
342.5 341.5 342.6 342 344.5 341.1 334.2 326.5 321.7 320.7 321.4 322.9 324.5 325.1 324.6 327.5 324.7 318.9 313.2 306.9 298 290.5 281.1 274.5 265.4 269.7 274.4 278.6 280.7 281.4 282.5 281.7 281.5 279 275.2 269.1 260.5 249.3 237.8 224.6 205.8 197 201.5 204.2 196.1 197.1 196.8 186 164.7 138.4 112.8 99 96.1 92.3 88.7 83.8 85.3 86.6 87.4 88.8 88.2 84.8 81.7 77.2 76 73.3 72.7 72.8 72.4 72.1 72 71.8 70.7 71.9 71.8 72.3 73.2 73.7 73.6 73.3 73 72.8 72.6 73.1 72.9 72.7 72.5 73.1 73.1 73.1 73.1 73.2 73.2 73.3 73.5 73.7 73.5 73.2 73.8 73.8 73.8 73.8 73.8 73.8 73.9 74.7 75.8 74.9 74.4 74.8 75 75.3 75.6 76.1 76.8 77.8 78 78.1 78.6 79.1 79.7 79.4 79.7 79.8 80.5 80.3 80.7 81.5 82.9 84 83.4 84.3 87.9 90.6 91.8 92.5 98.1 103.4 111.2 119.4 127.6 133.6 139.6 150.8 167.3 190.7 214.6 235.4 248.1 261.7 275.7 292.9 310.2 323.4 329.2 321.6 310.7 300 290.8 280.7 269.6 269.6 290.7 292.2 286 265.8 242.3 223 205.8 196.2 192.5 184 161.4 151.8 139.8 130.1 106.4 110.1 115.5 118.5 124.4 135.1 142.3 149 153.1 155.8 157.5 158.9 159.3 158.8 161.1 161.1 161.1 160.2 159.3 157.2 154.7 155.1 153.8 149.8
312.5 310.1 313.1 312.5 315.1 317.2 313.9 313.7 314.5 315.2 316.1 317.6 317.7 316.5 317.8 317.2 315.4 310.8 304.8 296.4 287.9 280.7 276 279.5 279.2 282.3 286.9 290.1 291.9 293 293.8 293.6 291.9 287.9 282.2 274.8 264.3 251.6 236.8 221.2 208.4 203.6 210.7 213.7 210 206.7 203.6 192.1 171.1 150.2 118.2 103.5 98.3 94.3 91.3 87.2 87.7 92.4 92 91.3 89.4 85.9 82.8 79.2 77.3 73.8 72.8 72.7 72.5 72.2 72 71.9 71.9 72 72.4 72.2 72.2 73.8 73.8 73.6 73.3 73 73.1 73.4 73.2 73.1 72.9 72.4 73.1 73.1 73.2 73.4 73.3 74.2 73.6 73.5 73.9 70.9 73.3 73.7 73.9 73.8 73.8 73.9 74 74.3 74.7 74.5 74.4 75.2 75.3 77.4 76.6 77.6 76.6 77.3 78.9 81.4 80.6 78.7 78.7 78.5 78.7 79.9 82.9 83.6 82.4 85.7 83.4 83.2 83.2 84.2 87.5 90.7 92.7 92.5 97 102.8 108.3 114 122.6 128.6 134.6 147.2 166.2 188.6 213.2 225 230.5 239.3 252.1 270 292 308 305 297.9 288.7 278.5 268.6 259.9 252.1 257.8 275.2 272.3 255 257.4 240.7 233.5 214.5 192.6 172.8 162 148.7 142 133.7 124.2 109 108 118.3 129.2 136.9 145.9 152.7 156 159.6 162.5 163.4 166.6 168.4 168.4 168.7 169.8 168.3 166.8 164.4 163.8 164.6 159.9 157.8 158.1
294.9 294.4 297.3 299.7 302 303.8 305 305.5 307.4 309.7 310.3 311.6 312.2 312.6 312.4 308.4 305.1 300.6 293.8 286 280.1 284.5 288.8 289.9 291.6 297.7 300.7 302.4 303.8 305.2 305.9 304.3 301.3 295.8 288.3 279 266.9 250.7 235.2 224.4 214.2 209.5 218.6 226.4 223.3 217.5 209.1 189.9 169.6 146.1 124.8 107.7 100.6 96.3 93.2 90.6 86.9 96.1 98 94.2 90.9 87.5 84.6 80.7 77.5 75.9 72.8 72.6 72.4 72.3 72.2 72.1 72 72.3 72 72.2 72.6 73.9 73.8 73.6 73.4 73.2 73.4 73.4 73.3 73.3 73 72.6 73.2 73.3 73.4 73.5 75 77.1 74.7 74.2 73.6 73.6 73.7 73.7 74 73.9 73.9 73.9 74 74.2 74.3 74.7 75.2 76.8 75 76 80.4 83.9 77.8 76.9 77.9 84.6 88.8 87.8 80.8 79.1 78.8 79.9 81.5 82.4 86.1 88.9 87 87.9 89.9 90.6 87.1 89.8 92.2 92.9 96.2 101.3 105.5 110.2 115 121 127.4 140.2 159.9 185.4 202.3 203.3 205.7 215.6 230.1 248.6 274.8 287.8 280.9 274.7 268.5 257.6 247.6 243.1 236.3 249.5 252.3 238.3 227.8 223 220.2 216.5 207.6 196.8 173.8 151.2 141.2 134.3 124.4 114.3 108 105.1 120.5 134.8 147.1 154 161 165.6 167.7 171.1 172.7 174.1 175.9 176 175.2 172.6 171 171 172.4 172.7 171.9 167.3 166.1 160.7
301.7 301 301.4 304.3 307.5 311.5 316.4 321.7 323.2 322.6 317 320.2 319.6 317.5 310.5 306.2 299.5 293.7 293 292.5 296 300.7 303.9 305.5 307.2 310.3 314 315 316.4 318 316.4 314.4 310.4 302.9 291.2 281 266.7 249 240.2 231 218.9 215.7 228.8 235.9 233.4 225.8 211.6 191.6 176.4 161 138.2 119.4 103.9 99.2 94.9 91.5 90.8 98.9 103.9 101.7 93.6 89.5 85.9 81.9 77.7 76.3 73 72.8 72.7 72.6 72.6 72.5 72.3 72 72.2 72.4 72.6 73.8 74.4 73.8 73.6 73.5 73.5 73.4 73.3 73.3 73.2 72.9 72.7 73.2 73.2 73.2 76.7 81.8 83.6 79.5 73.6 74.2 74.1 74.1 74.1 74 74 74.3 74.4 74.6 75.1 76.4 74.4 74.7 74.9 75.2 78.1 82 80 76.3 76.2 81.1 88.1 90.8 86.6 82.9 81.3 83.3 86.1 88.3 87.1 88.7 93.1 97.6 92.9 89.4 90.7 90.3 91.1 91.5 94.4 98 103.1 107.8 111.3 114.3 119.3 131.8 150 174.1 181.4 177.3 180.9 189.3 206.2 225.1 248.2 247.7 249.3 252.3 247.7 240.3 231.2 225.9 224.7 237.5 230.3 216.5 209.6 203.5 191.1 192 199.8 188.4 169.7 146.5 130.8 121.9 113.1 108.4 107.1 103.6 125.9 143.6 154.9 166 167.9 169.7 175.4 177.9 179.4 180.1 179.9 179.9 179.9 178.3 176.4 176.3 176.1 176.4 174.8 170.6 166.1 163
317.2 319 317.6 317.7 319.7 325.5 334.7 343.7 345.9 338.5 326.7 325.4 325.5 323.7 317.9 308.7 299.3 296.4 300.5 303.6 308.1 313.3 316.1 317.9 320.4 325.3 325.6 327.2 329.1 329.6 327.9 325 318.3 308.9 296.7 280.7 263.6 250.2 245 235.7 221 222.9 238.6 243.8 240.9 234.9 222.8 211.7 195.3 174.1 156.7 132.3 107.4 99.6 96.7 93.2 95.8 103.7 110 112.5 101.4 91.5 87.5 83.1 77.2 76.5 74 73.4 73.1 73 73 72.9 72.6 72.4 72.5 72.6 72.8 73.6 75 74.1 74.1 74 73.8 73.6 73.6 73.6 73.5 73.3 73.1 72.3 73.2 73.3 75.1 80.3 86.4 93.3 76.1 74.2 74.2 74.2 74.2 74.1 74.2 74.3 74.8 75.2 74.7 74.4 74.6 74.8 75 75.2 75.7 78.9 81.3 77.3 76.6 78.9 86.4 89.7 91 88.6 85.9 88.4 92.1 95.7 92.9 89.3 93 100.1 100.2 97.3 95.2 93.1 93.7 95.7 96 100.8 104.3 105.1 106.9 108 110.9 121.5 139.4 156.2 159.1 156.9 161.2 167.6 179.6 196.7 213.8 216.6 221.1 227.5 227.4 219.9 211.4 207.9 213.5 221 209.6 197.7 195.2 190.6 176.9 182.5 185.4 175 155.7 131.1 115 107.7 104.4 105.8 106.2 103 130.3 150.7 163.4 166.1 171.2 175.4 179.2 181.5 183 182.9 182.7 182.6 182.6 182.3 181.4 181.3 179.9 178.9 177.4 171.9 162.9 160.5
344.8 345.6 341.5 339.7 338.8 342.7 352 359.4 359.8 353.3 339.4 330.4 329.4 327.3 318.4 309.2 300.3 301.8 308.1 311.4 313.8 318.2 322.2 325.9 330.3 334.4 337.9 340.8 341.8 340.4 338.7 333.1 325 316 301.3 280.4 261.1 251.9 246.4 237.8 222.4 234.6 247.2 250.2 246.7 242.1 236.3 226.7 210.3 187.1 164.4 141.3 115.1 102.7 97.1 92.9 100.6 111.7 118.3 125.3 114.8 99 88.3 83.5 79.9 77.3 75.5 74.5 73.8 73.7 73.7 73.3 73.1 73 72.9 73 73.1 72 74.1 74.6 74.4 74.1 73.9 73.8 73.9 73.9 73.7 73.5 73.2 73 73.2 73.4 73.6 77.8 86 86.5 80.2 71.4 74.4 74.4 74.3 74.1 74.2 74.5 76.5 75.1 74.5 74.6 74.7 74.9 75.1 75.5 76 76.5 79.7 78.8 76.9 77.3 81.5 87.6 91 91.9 90.1 91.7 97.2 101 100.4 91.1 90.3 89.6 99.1 97.8 94.3 92.7 92.5 94.2 95.7 100.2 101.6 103.3 103.8 103.8 105 110.3 124.9 138.9 140.6 139.2 146.5 152.7 159.6 169.8 180 187.9 193.2 196.2 198.9 195.1 191 187.9 194.2 197 187.3 180.2 178.6 173.6 168.1 162.5 158.5 148.2 133.2 109.2 102.5 104.3 106.2 102.3 102.8 120.4 148.3 163.1 163.9 168.5 173.2 177.1 180.9 183.2 184.4 184.7 185.3 187 188 187 186.8 186.7 185.4 183 177.5 168 162.6 160.2
387.4 380.3 375.7 370.8 367 372.6 380.2 378.8 374.7 364 352.6 336.4 333 328 318 309.3 301.2 307.5 311.3 315.6 318.7 323.6 330 335.1 340.4 344.9 349.6 354 355.7 352.7 347.3 339.2 329.7 320.1 301.4 280.3 263.8 255.6 248.6 241.4 227.7 242.4 255.2 258.2 253.6 247.9 244.7 235.7 215 189.5 163.3 141.9 119 105.5 99.1 94.9 105 120.9 129 135.1 124.5 107.2 92.5 83 80.6 77.9 75.8 74.3 74.6 74.6 74.4 73.7 73.6 73.6 73.5 73.5 73.4 74.1 75.1 75 74.4 74.2 74 74 74.1 74.1 73.8 73.6 73.2 73 73 73.2 73.7 77.7 83.9 84.5 81.8 75.7 71.4 74.5 74.3 74.4 73.9 77.1 75 74.6 74.6 74.7 74.8 75 75.3 75.7 75.9 76.1 76.4 77.3 77.2 77 78.3 83.1 86.9 89.1 91.6 92.6 96.5 99.5 101.4 96.5 86.3 88.1 89.8 94.8 93.5 93.3 91.5 91.6 92.7 100.6 106.3 106.4 102.4 104.9 108 108.8 112.7 120.6 124.1 129.1 138.9 140.5 143.8 148.3 155 159.9 166.4 169 171.8 172.1 170.9 170.6 175.6 177.2 171.1 166.6 163.4 160.7 156.2 146.6 136 122.3 103.2 103 105.3 113.6 123.2 124.1 133.1 151 158.9 162.6 167.2 171.9 176.4 179.7 182.9 185 185.9 186.6 188.2 189.3 190.5 190.5 192 191.4 188.2 183 173.1 167.5 164.2 159.8
423.9 412.4 411.3 405.8 394.2 401.1 404 396.1 386.4 374.7 362.9 347.2 336.5 328.1 318.5 310 301.1 309.7 314.6 319.4 323.4 331.3 341.6 346.5 351.3 357.6 362.9 368.7 369.2 365.6 358.4 346.4 333.4 320.6 300.6 281 267.3 258.5 250.8 245.5 233.8 247.7 262 265.4 260.4 254.6 247.6 236.2 215.8 190.3 163.6 142.2 127.6 111.9 103.3 97.9 109.6 125.2 138 146.8 132.5 117.8 102.9 89 81.2 78.5 75.6 74.9 75 75.1 75 74.5 74 74 73.9 73.9 73.8 74.5 74.9 75.3 74.5 74.4 74.2 74.3 74.2 74 73.8 73.6 73.4 73.2 73 73.1 73.1 75.9 80.3 83.6 84.5 81.2 77.2 71.4 74.9 73.8 77.1 74.7 74.3 74.6 74.7 74.9 75 75.1 75.4 75.7 75.9 76.2 76.2 76.8 77 77.1 78 78.5 80.9 83.8 86.6 88.5 91.7 93.4 94.4 92.8 83.9 83.6 85.5 86.6 88.7 89.6 89 88.8 92.8 98.8 104.6 105.6 104 102 99.6 104 106.8 112.8 115.3 116.7 120.5 125.2 126.8 128.7 134.5 140 144.1 147.3 150.7 153.9 153.6 156 159.7 158.2 151.9 145.9 156.4 149.3 146 139.2 124.6 102.2 99.6 104.4 111.6 122 130.4 139.4 147.4 154.2 158.8 165.4 169.4 173.9 178.3 180.7 184.1 187.4 187.8 187.8 189.7 193.4 195.1 195.4 194.4 191.7 187.2 180.2 172 167.9 163.3 157.8
453 436.9 435.9 432 419.3 417.4 412.1 403.3 391.2 380.1 367.4 354.8 343.5 329.2 317 305.6 308.2 314 320.3 325.6 329.3 340.8 353.5 359.1 363.4 371.8 378.4 381.1 379.7 373.2 363.4 350.7 335 317.8 299.6 281.3 269.9 259.8 252.6 245.9 247.4 256.4 265.4 269.8 266.9 260.4 249.3 235.5 216 191 165.8 150.4 139.9 124 107.9 104.1 112.9 129.2 146.6 153.6 142.3 126.2 110.9 94.5 82.1 79.2 75.7 75.5 75.5 76 75.8 75.5 74.5 74.3 74.3 74.3 74.1 73.8 74.8 75.7 74.9 74.8 74.5 74.3 74.1 74 73.8 73.5 73.4 73.2 73 73.1 73.2 73.5 78.1 82.7 85.5 85.3 82.4 76.4 74.5 71.4 74.4 74.2 74.5 74.7 74.9 75 75.1 75.2 75.6 75.9 76.2 76.4 76.2 76.3 76.6 77.1 77.8 77.7 77.7 78.3 80.2 82.4 85.6 87.4 87.6 86.2 82.3 81.8 81.8 81.4 82.4 84.6 87 89.8 91 95.6 99.1 99.3 98.9 100.7 99.1 100.5 104.1 108.8 112.4 113.9 115.5 116.2 117.1 121 126.1 128.1 129.2 131 133.4 137.3 138.4 141 144.1 136.7 127.6 122 121 123.6 132.7 129.9 117 101 102.1 107.7 116.5 127.5 137 143.7 149.4 155.6 161 166.4 171 175.5 180.2 182.5 186.9 190.8 194.5 195.5 196 195.4 194.9 192.6 190.4 188.3 185.8 180.1 172.5 165.8 160.9 156.4
469 452 444.1 437.2 430.5 423.1 412.9 399.3 388.6 379.1 368.6 356.6 341.8 326.3 315.9 311.5 311.7 319 325.6 331 335.7 350.2 361.2 368.3 377 385.7 390.9 390.9 387.5 379.1 366.2 351.9 330.5 310.3 297.3 283.5 270 259.7 253.3 244.5 263.1 269.6 273.1 275.2 274.6 267.2 254.7 240.1 218 191.4 170 158.6 149 132.2 113.9 108.9 115.8 132.6 153.5 157.6 146.9 132.2 118.3 103.6 85 79.9 77 76.4 76.2 75.9 75.6 75.9 76.3 75 74.9 74.8 74.4 74.2 74.1 75.4 76.3 74.8 74.7 74.6 74.5 74 73.7 73.5 73.3 73.2 73.1 73.2 73.3 73.4 75.3 79.8 83.5 85.9 84.8 80.6 76.9 74.6 73.2 74.3 74.6 74.6 74.9 75.1 75.2 75.3 75.8 76.1 76.4 76.6 76.4 76.4 76.8 76.9 77.7 77.6 77.7 77.7 78.2 78.5 79.5 80.7 81.1 79.9 80.7 82.5 80.9 80.3 81 82.8 88.6 94.1 95.3 94.9 95.9 97.5 98.9 98.4 98.9 99.4 102.9 104.5 108 109.8 110.7 109.6 107.8 111.1 116.5 121 125.2 127.2 131.7 131.3 128.1 127.6 129.1 112.9 94.1 92.5 98.4 107.7 114.6 118.7 103.1 98.1 107.1 117.1 125.9 134 141.6 146.8 151.7 158.7 164.5 170.6 177.4 183.5 187.1 190.8 193.4 196.4 199.6 200 198.7 196.1 193.7 192 190.8 188.1 182.2 176.1 170.5 165.6 160.2 154.8
467.3 456.5 442 435 424.2 412.2 401.6 390.4 382.3 373.3 364.1 351.1 335.2 323.5 313.9 317.8 314.9 323.7 331.1 335.6 343.8 359 370.2 382.3 393.1 399.4 400.9 399.4 394.2 382.4 368.9 353.7 334.9 315.1 299.5 286.2 273.4 263.8 252.8 263.1 276.9 278.3 280 282.7 283.1 274.9 262.7 247 223.6 198.2 180 171.5 157.5 136.8 118.1 114.2 116.1 135.1 157.6 160.6 147.7 134.9 120.7 105.8 87.5 80.9 78.7 77.4 77.1 76.7 76.2 75.9 75.7 76 75.3 75.2 75 74.7 74.5 74.3 75.9 75 75 74.9 74.8 77.1 78.3 73.6 73.4 73.3 73.3 73.3 73.4 73.9 72.9 76.5 79.1 82.1 84 79.8 75.3 74.4 72.9 74.2 74.3 74.5 74.9 75.1 75.1 75.3 75.8 76.4 76.6 76.2 76.4 76.5 76.7 76.9 77.3 77.6 77.8 78 78.7 78.7 78.9 78.8 78.9 79.3 79.9 79.8 80.1 80.4 82.2 83.5 87.2 94.5 97.4 97.5 97.5 99.8 102.1 103 104.1 103.7 103.6 107.1 107.5 106 105.5 104.9 105.4 107.8 113.3 116.4 117.9 119.7 123.3 122.9 117.4 114.5 107.8 91.4 97.2 99.5 104.2 96 97.8 102.7 98 106.2 117.4 125.5 138.3 140.5 144.3 148.9 156.3 165.1 174.9 181.5 186.8 192.1 195.7 199.7 201.6 202.1 201.3 199.3 197.9 196.3 193.3 191.8 188.1 182.5 176.1 170.5 166.5 163.2 158.7 154.6
457.3 441.4 435.4 419.1 407.4 397.8 386.8 379.9 371.8 363.3 353.2 340 329.1 320.2 322.5 323.4 320.1 328.4 335.7 339.7 351.9 366.7 380.5 395.4 407.9 410 409.5 406.5 397 384.5 370.5 353.5 336.5 316.2 300.8 288.3 278.3 262.6 263 278.4 287.1 287.8 288 290.5 292.3 283 268 249.8 229.6 205.1 185.8 182.2 168.5 143.3 123.3 116.3 120.2 139.6 163.1 166.2 150.3 137.1 121.8 104.8 89.6 82.6 79.4 78.3 77.9 77.5 77 76.7 76.6 76 75.7 75.4 75.2 75.1 75 75.1 75.9 75.2 75.4 75.1 74.8 80.9 87.8 77.7 73.7 73.5 73.5 73.8 74 74.1 73.6 74.1 76 76.7 77.8 78.2 76.9 75.1 73.6 75.3 75.5 75.3 75.3 75.4 75.5 75.6 76.2 75.6 75.8 76 76.3 76.5 76.6 76.8 77.2 77.5 77.7 77.9 78.5 78.4 79.1 78.5 75.9 75.9 76.4 80 80.1 80.1 83.5 85.6 87.1 92.5 98.1 100.1 100.2 100.4 102.1 104.1 106.4 108.1 107.9 109 110.1 108.5 105.4 102.9 104.1 104.7 102.4 100.8 88.9 98.1 106.6 108.8 104.5 96.7 91.7 97.8 103 112.6 120.5 103.1 97 97.5 109.5 119.6 127.8 134 142.3 143.3 146.4 150 159.2 171.5 182.5 190.9 196.1 200.6 203.4 205.6 205.3 204 201.2 199.6 200.1 199.6 197.3 193.6 187.4 176 169.8 165.7 162.3 159 154.2 153.1
443.6 428.9 413.4 396.2 385 377.3 366.4 359.1 352.2 345.8 337.6 330.2 329.9 328 328.2 324.4 321.8 331.7 339.5 345.1 363 375.9 390.3 406.5 415.9 420.8 419.8 411.5 400.4 385.9 371.7 353.2 335.3 316.8 301.6 289.1 279.5 269.3 275.2 289.2 295 296.3 296.5 297.1 296.4 286.4 272.5 254.3 230.6 209.9 196.3 193.3 180.4 147.8 125.7 117.2 127.2 143.3 164.9 165.8 152.2 139.3 124.8 109 93 84.8 80.5 79.1 78.7 78.3 77.7 77.4 77.2 76.7 76.1 75.9 75.7 75.4 75.2 75.5 76.6 75.7 75.7 75.4 75.3 82.5 86.5 79 78.1 76.2 75 75.6 76.4 74.4 73.9 74.8 74.6 76.4 77.8 77.4 76.4 75.4 72.2 75.3 75.7 75.3 75.4 75.4 75.6 76.2 75.9 75.8 75.8 76 76.2 76.4 76.5 76.7 77.1 77.4 77.6 77.9 78.2 78.3 75.5 78.5 80.4 80 80.4 76.6 80 79.9 80.1 83.9 90 90.3 98.2 101.4 101.5 98.9 99.6 101 103.7 104.9 105.1 106.2 108 106 103 97.6 85 85.7 85.7 90.2 93.5 92.6 89.3 93.1 92.2 92.1 100.8 107.6 114.3 121.1 127.4 126.8 127.4 128.4 125.4 129 132.6 132.5 140.5 141.6 149.7 157.3 165.7 174.3 182.5 192.1 199.2 203.6 207.2 209 208.3 205.8 203.4 202.6 202.3 200.6 196.8 190.5 180.9 171.5 168 161.6 159.5 157.6 155.9 151.1
428.3 410.2 393.6 369.6 360.7 354.1 356.7 356.9 352.2 347.4 343.1 340.9 336.9 333.9 332.1 327.7 324.7 336.3 344.5 355.9 374.2 391.6 406.5 422.2 431.5 433.5 430.7 417.3 401.6 384.6 369.1 352.2 335.9 319.3 301.6 289.8 275.8 281 287.7 297 302.8 303.8 303.9 303.5 300.2 291 277.3 256.4 237 218.2 208.4 205 184.8 152.6 127.9 117.1 129.8 148.9 163.7 165.7 154.5 139.5 122.6 108.5 93.8 85.9 81.5 80.6 79.8 79 78.5 78 77.7 77.3 76.7 76.3 76 75.8 75.5 75.3 75.7 76.2 75.9 75.7 77.7 86.1 82.4 83.6 83.3 80.1 79.3 79.2 77.5 73.9 73.7 74.2 74.2 76.2 76.3 77.4 77.9 76.3 75.1 72.2 75 75.4 75.7 75.4 75.6 75.1 76.2 75.9 75.8 76 76.2 76.4 76.4 76.7 77 77.3 77.6 78 78.3 78.5 76.1 80.4 80 79.9 82.5 84.4 77.1 80.3 80.3 80.4 87 87.9 91.2 95.5 98 95.7 94.9 95.9 95.4 98.4 98.9 99.6 101 101.4 90.5 84.8 90.2 90.8 92.4 93.5 95.1 96.4 97.1 100.2 102.8 108.1 114.5 119.9 126.2 130.7 132.2 134.4 133.2 133.1 133.6 134.2 137.9 134.8 140.2 152.9 161.2 168.6 175.2 182.4 188 195.7 201.8 205.8 209.6 210.8 210 208.2 205.7 203.5 200.9 196.8 191.7 184 177.6 173.1 167.7 161.3 158.8 157.5 153.2 148.4
406.9 388.9 372.2 383.1 382.3 380 377.9 370.9 366.4 364.2 360.1 355 347.6 341.2 335.2 330.9 329.9 341.8 349.3 366.1 386.8 407.9 426.7 439.6 448.1 446 433.7 418.1 399.5 382.3 366.4 353.3 338.8 322.5 303.6 292.5 278.5 289.9 298 305.7 313.1 310.5 311.4 309 304.6 295.5 279.8 259 241.2 225.5 220.8 218 194 158.4 130.5 117.1 128.1 151.4 154.4 157 148.4 134 116.6 102.2 91.6 85.3 81.9 81.2 80.7 79.7 79.2 78.7 78.1 77.7 77.1 76.7 76.5 76.2 75.8 74.3 76.2 76.1 75.9 75.9 79.9 85.4 84.1 86 86.6 83.8 83.5 81.3 77.2 74 73.8 74.1 75.6 75.1 75.4 78.5 81.8 84.1 82.6 79.6 74.9 74.7 75.2 75.7 73.5 75.8 73.5 73.5 75.8 76 76.3 76.3 76.4 76.7 77 77.3 77.5 77.5 78.3 78.3 75.5 78.7 79.4 79.8 83.5 89 90 77.2 80.4 80.8 80.8 83.2 83.8 88.8 91.7 91.6 91.7 91.2 91 93 92.2 92.2 92.8 91.7 83.7 90.2 91.1 92.2 92.7 94 95.3 96.4 101.3 104.9 111 115.6 118.1 121.8 125.6 133.1 134 134 135.3 136 135.5 135.4 134.2 145.1 157.6 169.3 176.7 178.5 183.6 188.8 193.7 200.7 205.3 208.1 210 211.1 210.5 208.4 205.4 202.9 199.8 194.1 187.2 181.5 177.7 173.1 167.5 161.5 158.4 154.3 150.4 146.5
388.3 393 395.8 396.5 397.2 396.4 394.4 388.5 386.3 382.7 376.4 369.2 361.2 349.6 339 334.2 334.4 346.7 354.7 375.7 397.5 423 448.4 455 458.7 451.9 435.7 418.1 398.9 382.2 367.3 352.7 339.3 324.9 306.6 294.4 286.5 297.1 304.8 314.6 320.6 319.9 321 317.1 308.6 295.4 280.7 264.1 249.4 233.8 227.6 228.9 199.6 164.1 131.8 117.9 124.4 148 151.6 145.6 135.4 122.3 106.3 94.7 86.2 83.3 82.6 81.9 81.2 80.5 79.8 79.1 78.3 77.9 77.5 77 76.9 76.6 76.5 76.2 76.8 76.8 76.4 76.2 77.8 78.4 81.4 85 88 88.6 89 84.8 77.7 74.3 73.8 74.6 75.3 75.3 76.5 83.5 89.2 90.6 87 83.9 80.4 72.6 72.3 72.5 76.2 76.4 75.9 73.5 75.7 76.2 76.3 76.4 76.4 76.7 77 77.3 77.5 77.4 78 78.2 78.4 78.8 78.8 79.5 82 87.7 92.1 89.8 77.4 81.7 81.3 81.3 81.7 82 87.4 92.4 92.2 93.4 89.6 88.7 88.4 88.7 88.2 83.7 90.2 90.8 91.7 92.3 92.7 94.1 95.3 96.9 100.7 106 110.6 114.3 117.8 121.7 127.1 133 139 139.2 139.4 141 148.1 152.5 155.7 159.3 168 179.4 186.2 188.6 190.1 194.2 200.2 204.9 207.5 209.6 210.2 210.8 209.8 207.1 204.9 202.2 197.6 192.7 184.3 179.4 176.1 170.5 165.7 161.6 154.8 149.2 147.5 145.7
416.8 415.1 411.8 411.3 412.5 412.6 411.1 407.7 404.6 401.1 395.5 383.7 375 353.7 341.7 337.3 337.4 350.8 361.7 382 406.1 436.2 458.7 466.5 465.2 454.8 435.1 413.7 398.6 384 369.4 353.4 337.5 323 307.6 295.5 293.5 304.5 312.4 322.3 328.1 330.3 330.8 322 311.6 299.1 285 271.6 253.8 235.5 233.3 231.3 201.2 167.7 139.4 119.8 118.8 137.8 143.5 141.8 129.5 112.2 98.8 88.2 84.7 84.1 83.3 82.7 82 80.7 80.2 79.5 78.7 78.1 77.7 77.4 77.2 77 76.9 76.7 76.6 76.6 76.8 76.2 76 75.9 78.4 83.7 89.8 96.3 95.2 87 78.9 74.3 72.2 75.7 77.1 81.1 80.4 86.6 92.8 96 92.1 87.9 83.5 77.9 77.3 79.6 82.5 81.7 76.3 76.2 73.6 76.3 76.3 76.4 76.4 76.7 77 77.3 77.6 77.7 77.8 77.7 78.1 75.5 78.8 78.9 80.3 83.7 90.2 92.1 87.6 78 81.2 81.7 82.1 82.1 83.6 90.2 92.8 93.1 89.7 87.4 87.8 87.4 83.4 89.1 89.5 90.5 90.7 91.4 93.3 96.1 97.1 101.2 107.9 110.9 112.3 116.3 120.5 125.9 132.2 135.2 138.2 139.2 143.1 148.8 158.3 165.3 168.6 171.1 175.8 182.1 186.6 192.1 196.7 201 204.9 207.3 209.2 211.4 211.5 211.8 210.2 207.6 203.8 200.9 195.8 190.7 184 177.3 172.3 166.3 161.2 154.6 149.7 148.4 146.7 145.7
431.9 431.7 429.4 431.6 430.7 431.1 429.7 429.5 426.1 420.7 413.1 399.9 382.3 358 345.8 338.8 344.4 355.1 367.8 389 416.5 447.1 468.8 473.4 468.5 453.4 432.9 414.5 400.1 384.1 370 353.1 337.6 321.8 307.6 295.9 300 312.7 321.3 329.1 336.2 337.2 334.6 328.5 316 302.1 288.4 273.8 256.5 239.1 240.2 232.3 208.1 173.9 144.7 116.5 111.9 126.4 123 119.6 113.8 92 88.7 86.8 85.9 84.9 83.7 82.9 82 81.3 80.6 80.1 79.8 79.1 78 77.8 77.8 77.3 76.8 76.3 75.8 76 76.7 76.2 76 75.9 78 88.6 95.4 94.4 93.6 83.7 77.9 74.7 74.2 77.1 81.4 86.6 88.5 85.5 92.8 97.8 94.4 90.6 86 81.2 80.9 85.8 90.4 88 82.5 77.8 73.7 76.4 76.4 76.5 76.6 76.8 77.1 77.5 76.1 74.1 74.1 78.5 78.2 78.5 78.6 78.8 78.9 81.6 85.8 89.2 89.9 83.2 79.7 82 82.4 82.9 84.5 84 89.9 92.6 92.9 86.5 82.2 83.1 89.4 89.7 90.1 90.7 91.2 94.5 98.3 104.3 108 109.8 112.1 115.3 116.7 119.4 123.7 128.4 134.2 140.4 143.4 145.6 150.3 156.1 163.3 170.3 175.4 178.1 181.1 186.8 190.1 192.9 198.6 203.6 208 210.4 212.3 214.3 215 213.9 211.5 207.4 203.7 198.4 193.9 188.9 182.4 174.3 167.1 161.1 156.9 152.8 149 147.4 146.2 148.8
447.2 449.6 449.5 451.5 453.2 454.1 452.7 450.4 441.8 436.8 423.4 405 381.8 361.1 348.9 339.8 348.7 360.3 374.5 396 421.1 451.8 473.6 478.7 468.1 451.7 433.5 416.3 400.2 384.2 369.3 352.4 337.8 321.2 307.5 294.2 307.5 319.4 327.7 336.3 343.1 345 342.8 329.9 315.2 300.2 287.4 272 256.8 246.2 247.2 235.3 211.4 176.3 146.7 120.7 108.7 102.3 95.3 92.6 89.7 88.7 87.4 86.4 85.6 84.5 83.5 82.8 82.6 82.1 81.1 80.1 79.6 79.2 80.3 78.1 77.8 77.3 77.7 77.5 77 76.6 76.6 76.3 76 75.9 76.4 78.1 89 84.6 80.4 78 76.4 74.5 74.2 76.9 81.2 87.2 89.9 89.7 88.4 94.3 90.9 89.2 86.2 81.7 82.4 86.8 91.4 91.6 84.9 80 73.7 76.6 76.6 76.7 76.8 77 77.3 74.1 77.9 78.1 78.1 77.8 78.3 78.5 78.6 78.8 79 79.6 81.7 84.6 87 83.3 83.3 79.3 82.3 83 83.8 83.4 84.5 85.7 85 82.2 86.9 89.6 89.5 90.2 90.9 91.8 92.7 97.5 101.5 104.5 106.2 107.5 109.7 114.1 118.6 123.2 128.1 132.9 138.9 144.6 149.6 153.8 160 166.8 171.8 172 177.8 183.3 187.1 190.7 193.9 197.2 201.1 204.4 208.6 211.3 213.7 215.6 215.3 214.7 211.8 207.7 200 193.8 189.7 184.7 178.5 169.2 164.6 158.7 155.2 152.7 147.8 146.2 148.2 151
460.9 467 468.6 473.3 477.1 481 477.4 466.6 456 440.3 421.5 402 380.4 361.6 350.5 340.8 352 364.2 378.1 396.3 420.5 446.4 466.8 475.2 468.7 452.1 434.1 416.2 400.2 384.7 367.9 351.5 335.7 319.8 306.4 300.2 314.9 326.4 334.4 343.8 350.8 348.7 343.6 329.3 314.4 300.2 288.3 273.4 260.5 254.1 247.5 228.9 199.7 170.4 144.3 118.8 101.9 99 97.4 96.3 91.5 88.5 85.8 87.2 86.5 85.1 84.3 83.4 83.3 82.8 81.6 80.6 79.9 79.6 79 78.6 78.3 80.5 78.8 78.2 77.3 77.5 76.9 76.5 76.2 76 75.8 76.4 76.9 75.5 76.2 74.9 74.5 74.4 74.3 76.1 80.2 85.5 89.6 91 90.2 88.6 85.2 85.5 83.6 82.1 81 84.3 88 90.2 86.4 81.7 77.5 75.7 76.9 76.9 77.1 77.2 76.8 77.5 77.6 77.5 77.5 77.5 78.6 78.3 78.6 78.7 78.9 79.6 80.2 80.9 81.9 82.7 83.5 83.5 79.1 82.5 83.1 82.7 83.1 81.5 85.4 86.5 88.1 89.6 90 90.7 91.5 92.4 94.2 96.9 99.1 101.7 105.5 110.2 111.9 115.9 119.4 123.8 130.9 136.8 142.6 148.1 153.4 159.5 167.2 174.7 178.5 180.6 181.6 185.4 190.4 193.9 196.1 200.4 203.8 207 208.3 210.5 214.1 215.8 215.3 212.4 208.8 204.1 195.9 188.1 183.3 177.6 168.1 162.8 159.5 156.6 154.6 150.7 146.4 147.7 150.2 151.6
480.3 488 491.7 499 502 501.2 494 475.2 456.4 436 416.7 396.9 378.1 361.9 352 345.7 358.4 371.4 383.9 403.2 425.8 451.4 474.6 483.1 470.6 453.7 433.2 416.3 400.9 385.3 366.2 349.6 332.7 317.7 305.8 309.7 322.2 332.9 341.2 351.7 358.6 351.7 345.4 332.8 316.4 302 289.4 277.2 266.6 256.5 236.1 209.6 185 162 139.2 112.5 101.8 102.3 101.7 101.9 100.9 93 88.2 87.7 87 85.8 84 86.3 85.6 82.6 81.7 81.1 80.7 80.1 79.3 78.8 78 78.2 76.1 77.7 79.2 77 77.2 76.7 76.4 76.1 76.2 75.7 75.6 76.8 75.7 75.3 74.5 74.4 74.2 75.4 80.1 84.3 88.8 92.8 92.9 90 85.6 82.6 81.3 80.6 79.2 81.6 84.5 85 84.8 81.1 75.3 76.2 73.7 75.7 75.7 74.1 77.1 76.9 77.3 77.2 77 77.2 77.2 78.2 78.4 78.6 78.8 79.7 80.2 80.7 82.1 82.6 84 85.7 86.8 83.9 82.1 83.5 84.3 84.2 86 87.3 88.7 89.7 90.1 90.7 91.6 92.6 94.9 96.6 98.8 102.7 109 115.5 119.3 123.3 126.5 128.7 134.1 139.5 145.7 152.8 157.1 163.3 171.8 177 182.3 187.6 189.3 192.1 193.5 196.3 198.5 200.9 205.1 209 210.4 212 214.8 215.6 213.5 210.1 204.3 198.4 190.7 186.7 177.9 168.7 163.3 159.3 158.4 157.4 154.7 149.4 148.6 155 155 153.7
499.7 510.5 516.8 524.2 525.8 518.8 501.6 475.9 450.9 428.1 408.3 390.1 373.7 360.6 348.2 353.5 364.8 378.7 394.6 415.7 437.9 461.9 482.5 484.6 467.2 451.6 431.6 414.5 398.8 381.6 363.6 346.2 329.2 314.8 310.6 317.5 329.4 340.6 349.4 360.3 363.3 355.4 348.1 334.1 319.1 303.9 290 272.1 251.9 237.1 216.2 191.5 171.4 151.2 122.2 105.5 107 106.5 106.7 105.4 105.4 97.4 88.2 91.9 91.1 91.7 91.7 92.2 89.7 85.9 81.6 82.2 79.2 80.5 78.8 79 78.9 76.1 77.9 77.5 77 76.7 76.7 77.4 77.6 77.4 77.2 75.1 76 75.7 75.3 75.4 75.2 74.7 74.5 74.6 78.5 83.5 88 94 96.2 94.9 90.4 83.9 81.1 80 78.4 78.5 80.8 81.9 81.4 78.9 73.7 76.6 76.7 76.7 76.9 76.7 76.8 76.9 77.8 77.4 76.6 76.7 77.3 80.3 83.6 83.6 82.6 80.5 80.9 81.4 83 83.3 85.5 88.3 87.6 86.6 85.1 84.7 84.6 85 86.3 87.4 89 90.4 90.8 90.7 92.5 93.7 95.6 98.4 101.2 106.5 114.6 119.4 124.4 130.6 134.4 136.3 138.1 143.9 148.6 155.5 160.6 166.6 173.2 179.1 185.1 190.7 193.9 195.3 198.1 198.6 200 201.8 206.3 209.4 212.3 213.9 214.1 213.1 211.7 208.7 199.8 192.6 187.8 182.7 174.4 166.3 162.7 160.7 164.8 162.5 158.1 149.1 158.8 160.2 157.8 159.2
517.6 534.2 540.7 547.3 539.8 524.4 502.5 476.6 452.2 428.2 408.2 387.4 371.9 358.7 352.1 359 369.3 384.4 404.7 425.9 447.6 470.6 487.2 485.8 465.8 446.1 427.3 410.7 394.7 377.3 360.4 342.3 326.2 312.7 319.1 325.5 335.8 347.5 357.3 366.4 364.5 356.9 344.7 331.3 315.6 299.3 281.8 262.3 231.4 206.2 189.9 172.8 154 123.9 108.3 116.1 115.8 115.8 118.1 115.2 111 98.3 95.3 98.2 98 96.4 97.1 95.4 92.1 88 84.5 81 80.2 81 79 79.4 78.9 78.2 78 77.7 77.5 77.1 77 76.9 76.6 76.6 76.5 76.6 76.4 75.6 75.5 75.3 75.2 75 74.8 75 76.4 81.4 86.6 90.6 95.2 99.5 96.3 86.6 82.1 80.3 77.9 77 77.2 78.6 78.3 77.4 73.9 75.3 76.1 76.2 76.5 77.9 78.7 78.7 78.4 78.1 77.8 77.5 77.6 82.2 87.3 87.9 86.7 84.7 80.9 81.3 83.2 84.9 87.3 88.5 88.1 87.7 87 86.2 85.6 85.8 86.8 87.8 90.7 94.4 94.8 92.2 92.7 93.6 96.1 100.3 103.6 109.9 119.4 124.9 130.2 136 141 144.2 146.3 149.3 153.8 159.6 165.1 171 177.2 182.8 187.7 191.4 195.5 197.3 200.1 202.8 203.4 204.5 208 210.8 213 214.8 214.9 211.5 209.9 207.4 198.3 189.9 183.6 178.4 173.6 168.8 164.3 161.5 160.1 160.2 158 149.3 156.9 161.7 159.8 158.2
533.5 555.9 565.9 564.8 550.2 530.1 504.7 477.5 450.9 428 405.9 385.3 370.3 357.8 358.2 364.9 376.2 393.5 414.7 436.4 457.1 479.3 492.5 482.2 460.8 440.6 423.3 407.1 388.3 371.1 354.8 337.1 321.8 319.9 327.5 334 343.7 352 364.7 372.1 367.5 355.5 340.5 321.2 298 276.2 252.3 230 209 187.5 168.2 148.9 122.9 115.3 121.3 123.1 124.2 130 128 124.4 117.6 101.5 100.7 103.3 104.5 103.7 100.5 99.5 97.6 91.8 86.7 81.7 79.8 79.8 80.3 79.4 78.4 78.3 78.1 77.9 77.7 77.4 77.2 77 76.9 76.8 76.7 76.9 76.2 75.8 75.7 75.5 75.4 75.2 75.1 74.8 75 78.7 83.1 89.5 92.4 97.7 101.7 96.7 82.8 78.8 77.1 76.4 76.6 76.7 76.5 76 75.3 74.8 75.5 74.8 75.5 77.7 79 79 78.4 78.4 78.3 78 77.5 81.5 88.1 91.7 89.5 85.4 80.4 80.5 82.5 85 88.4 89.9 88.6 88.2 87.7 86.9 86.4 86.6 87.4 87.9 91.9 96.7 97.8 93.6 93.1 94.4 96.1 100.5 106.6 114.9 122.8 127.6 133.6 139.7 144.5 149.8 153.1 153.8 159.6 164.7 170.2 177.8 183.1 188.4 194 196.3 199.7 202.2 203.2 205.2 207.3 207.8 209.5 211.8 214.3 215.8 216.4 215.3 211 204.3 195.6 188.7 180.2 173.6 169.2 166.3 161.1 154.3 155.4 157.8 155.9 148.1 154.5 157.5 157.9 157.3
546.6 570.9 581.6 577.5 560.3 533.9 504.7 475.8 449.5 423.1 401.9 384 369.2 362.5 366.4 372.6 385.8 405.5 426.6 447.8 470.4 489.5 492.2 476.2 454.6 434.6 418.8 401.6 382.1 363.4 346.5 331.9 322 328 335.4 342 351.8 359.7 370.7 373.4 360.1 340.4 319.5 298.5 273.8 251.6 229.4 207.3 186.7 167.5 141.7 127.5 129.7 131.9 130.5 129.9 130.9 132.6 130.7 126.7 119.9 103.1 105.4 107.5 109 109.4 105.2 104.5 103.3 97.5 90.3 85.4 79.8 79.1 79.4 78.9 78.5 78.4 78.3 78.2 78 77.7 77.4 77.2 77.1 77 77 76.8 76.2 76 75.9 75.8 75.7 75.4 75 74.7 74.6 75.7 80 86 91.2 94.3 100.4 100.8 93.3 79 76.6 76.3 76.2 76.6 76 75.2 75.7 74.7 74.3 74.3 74.3 75.9 77.3 78.7 78.9 78.4 79 78.1 77.7 80.2 84.9 89.2 91.2 88 81.7 80.5 81.8 84.9 88.8 90.6 90.3 89 88.4 87.5 87.3 87.6 87.8 88 94.5 100.2 101.4 96.2 94.9 96.2 100.1 104.4 112.5 120.1 126 131.2 136.8 142.4 148.3 155.1 160.3 158.5 164.4 169.7 175.3 183.4 190.5 196.1 200 203.9 207.1 206.6 206.7 208 209.8 211.1 212.6 212.8 215.5 216.4 215.6 213.5 208.5 200.4 192.3 186.2 175.6 168.7 164.1 161.6 158.1 153 152.5 155.9 154 146.3 151.8 155.9 158 157.6
559.1 582 594.3 589 563.3 534.9 504.4 476.3 452.4 427.5 403.9 385.2 368.9 372.1 374.6 383.6 399.7 419.1 439.2 458.4 481.1 495.7 487 469.1 448.8 429.5 412.1 394 375 356.8 340.5 327.7 327.6 334.1 341 348.1 358.1 367.4 374.1 363.9 343.1 319.2 296.2 275.2 251.7 230 207.2 184.9 161.5 134.8 130.9 140.8 144 141 139.2 138.8 136.7 135.9 132.7 128.4 118.8 112 112.9 112.4 113.4 114.2 110.3 110.7 110.1 106.5 99.1 90.7 85.9 77.5 79.2 78.7 78.6 78.5 78.4 78.3 78.2 78 77.6 77.4 77.3 77.2 77.4 77.2 76.6 76.5 76.3 76 75.7 75.4 75 74.6 74.5 75.1 76 82.2 88.5 90.9 95.6 98 92.7 81 77.2 76.6 76.7 76.4 73.7 75.3 75.4 75.8 75.7 74.3 74.3 74.3 74.5 77.5 77.3 77.6 77.9 77.8 77.6 77.3 79.8 83.7 85.9 86.1 82.3 80 80.6 84.3 89.9 92.5 92 89.7 88.7 88 88.2 88.5 88.4 91.7 97.7 103.3 105.6 101.7 99 98.9 104.9 108.6 115.8 123.2 128.4 134.4 140.8 147.3 153.1 161.4 167.4 168.9 168 172.6 179 186.9 194.7 200.2 203.6 207.4 209.7 209 208.3 209.7 211.7 213 214.2 215.1 216.1 215.1 212.6 208.9 204.2 198.3 190.9 184.6 174.8 165.8 159.4 158.6 160.7 157.1 153.1 150.9 148.3 147.7 148.5 152.2 155 155.6
576.4 596.5 608.5 593.4 562.9 533.5 502.7 478.5 455.9 434.9 412 388.8 373.1 377.6 385.1 398.5 416.4 435.1 454.4 473.2 489.1 497.9 480.8 462.4 441.3 422.7 404.1 384.8 366.6 350.8 336.2 328 332.6 339.3 346.3 355.6 366.2 372.4 364.6 342.8 318.8 296.9 273.3 250.8 230.1 208.5 184.1 158 145.6 149.9 149.7 149.9 150.5 151.7 151.7 149.5 146.1 144.1 136 129 121 122.4 119.7 117.6 119.1 119.2 116.9 117.8 118.3 121 117.3 101.6 92.5 83.3 79.7 79 78.6 78.6 78.5 78.4 78.2 78 77.7 78 77.9 77.8 77.4 77.1 76.9 76.6 76.3 76.1 75.8 75.5 75 74.5 74.7 74.5 75.3 77 82.3 88 90.2 90.6 87.2 81.8 77.1 74.3 76.6 76.1 74.4 74.6 75.1 74 74.3 74.3 74.3 74.3 75.5 77.5 77.1 77.2 77.1 77.5 77.7 77.2 77.2 77.1 79.9 81.5 79.9 80 80.5 83.7 90.7 93.9 93.3 91 89 88.7 89.1 89.4 89.6 95.7 101.5 106.3 109.3 106.7 104 102.4 104.4 112.2 119 125.7 132.3 138.5 146.4 153.3 160.3 166.9 174.8 177.3 173.7 175.7 181.9 188.6 195.2 200.4 203 204.4 206.6 208.3 209.5 210.6 212.7 214.1 215 216 216.2 213.9 210.7 206.9 200.8 194.8 187.9 183.8 176.5 166.5 158.8 155.5 155.1 155 152.9 149.9 147.9 147.6 148.3 149 150.6 152.7
595 613.6 617.3 591.8 561.5 530 502 480.6 458.6 438.7 415 393.1 376.5 383.1 395.6 414.5 433.3 452 470.2 490.2 498.9 490.6 471.8 452.3 432 413.9 395.3 376.2 359.7 343.5 332.4 334.3 340.4 347.1 355.1 362.8 370.3 364.4 341 317.9 297.1 275.2 251.7 230 209.7 188.8 160.5 148.5 154.6 156.3 155.9 156.4 158.4 162 160.1 158.5 156 148.3 134.9 128.2 131.5 130 127 123.6 123.9 123.8 124.4 124.8 129.3 130.8 134.5 112.2 100.8 90.4 77.8 79.5 78.7 78.6 78.6 78.4 78.2 78.1 78 78.4 78.6 78 77.4 77.3 77.1 76.8 76.4 76.1 75.9 75.5 74.9 74.7 74.9 74.8 74.6 75.4 80.4 83.9 85.8 86.5 84.8 81 76.7 76.7 74.3 74.3 74.3 74.3 74.2 74.3 74.3 74.3 74.3 74.3 74.3 76.6 77.1 77.1 77.1 76.9 79.4 80.8 78.6 76.8 77 77.3 78.1 79.3 82.8 83.9 90.6 95.5 96.1 92.9 89.8 89.7 90 90.3 91.7 99.7 106.7 111.4 113.4 111.4 108.7 108.6 106.5 116.3 121.2 129.1 135.6 141.1 147.4 155.3 162.6 169.7 177.9 182.5 183.8 178.3 183.2 189.5 195.2 199.3 201.1 202.9 205.1 206.9 209.9 211.5 213.7 215.3 216 216.9 216.5 214.9 209.1 204.1 199.6 194 186.4 182.6 176 167 158.9 154.6 152.6 152.5 152 150.6 147.8 146.7 147.7 148.7 149.4 151
617.2 631.5 621.2 589 557.2 527.5 503.3 480.1 459.2 439.7 416.7 396.5 383.6 398.8 413.1 429.9 451.6 472.1 490.9 505.7 504.3 486 463.9 444.7 424.4 405.4 386.1 368.5 353.2 341.1 337 342.7 348.4 355.1 359 366.4 363.3 340.8 317.1 294.9 274 253.1 230.6 211.1 192.4 171.3 151.6 157.8 160.5 162.9 166.8 168.4 169.4 169 168.1 167.9 161.1 149.6 131.2 137.2 139.6 137 134.8 131.1 129.7 130.1 133.5 132.3 143.7 145.7 138.3 120.7 107.6 96.3 84.2 80.1 79.5 79.2 78.9 78.6 78.4 78.1 78.4 78.7 78.3 77.9 78 77.9 77.3 77 76.6 76.3 75.9 75.4 74.5 74.7 75 74.7 74.5 75 76.5 78.2 79.8 82.4 81.2 78.8 76.5 75.1 74.3 74.3 74.3 74.3 74.3 74.3 74.3 74.3 74.3 74.3 74.1 75.1 75.6 77.2 77.1 77.3 82.2 87.1 86.9 82.1 77.5 77.4 77.9 82.9 86 86.3 88.6 94 95.4 94 90.9 90.8 91 91.5 93.7 100.5 107.9 116.1 120.6 119.1 117.2 115.9 114.8 115 124.3 130.3 136.1 141.1 148 155.4 163.8 172.1 179.3 185.5 189.1 185.2 187.2 191.8 196.3 199.3 201.9 203.8 206.9 209.7 211.5 213.1 214.7 215.2 216.7 217 215.6 213.2 208.8 204.6 201.6 196.1 188.1 181.1 172.2 166.5 160.6 156 152.1 150.8 150.1 149.6 148.2 145.8 147.7 148.5 149 150.4
641 646.4 617.5 584.5 554.6 527.1 501.5 479.2 458.5 436 417.4 396.4 405.1 417.4 432.2 447.3 470.4 491.8 508.9 519 505.2 480.9 459.1 438.4 416.9 397.4 379.2 362.6 350 342.6 346.4 349.3 353.9 358.6 365.3 358.8 337.5 315.5 293.4 271.5 251.7 230.2 210.5 193 177.3 151 160.2 165.5 167.2 170.3 173.7 176.3 176.9 175.9 173.2 172.1 165.3 154.2 132.9 147.7 151.5 147.3 143.1 138.9 139.8 141.8 147.3 141.2 152.2 160 146.9 126.1 111.4 99.6 89.5 79.2 80 79.9 79.6 79.1 78.7 78.5 78.8 78.7 78.4 78 77.7 77.7 77.5 77.3 77.1 76.6 76.4 75 75.4 75.2 75.2 74.4 74.7 75 75 75.3 75.6 78.2 78.4 78 76.9 75.1 74.3 74.3 74.3 74.3 74.3 74.3 74.3 74.3 74.3 74.3 74.3 74.3 75 77.7 77.5 77.9 80.9 86.6 90.5 87.4 82.1 77.3 78.9 85.6 88.8 88.8 87.9 90.2 92.9 92.8 92.1 91.8 92.1 92.7 93.6 100.1 108.4 116.1 123.4 124.7 124.5 121.9 120.1 116.1 122.8 129.8 136.2 140.8 147.7 155.8 164.5 173.1 179.1 184.5 187 186.7 189.9 194.8 198 200 202.7 205.4 208.6 211.2 213.8 215.3 216.3 216.8 217.6 216.3 215.2 212.1 207.6 203.5 200.6 194.9 187.8 178.4 169.4 164.9 160.2 156.6 153.8 150.2 149.5 149.2 148.1 147.4 148.1 148.3 148.8 150.4
662.5 649 613.4 581.4 553 523.8 499.4 478.5 456.7 434.4 410.8 415.1 425.4 438.8 455.3 471.4 491.5 511.1 526.2 517.8 495.3 473 452 431.1 410.4 391.3 374.3 359.3 352.1 350.1 353.3 353.4 357.2 362.1 354.8 334.1 313.3 293 270.8 248.4 229.2 211.8 193.4 179 165.9 154.5 167.4 170.6 173.3 176.5 180.7 183.2 184.4 183.1 176.6 174.3 171.8 153.7 148.4 160.5 163.9 164.2 155.2 152.6 154 156.5 159.3 149.7 153.5 165.2 151.9 131 115.5 106.5 93.4 85.2 80.5 81.1 79.8 79 78.5 78.8 78.8 78.6 78.4 78.1 77.8 77.6 83.7 91.9 85.4 79.3 81.1 79.8 76 75.6 75.5 74.8 74.9 75.1 75.3 74.7 74.2 73.8 79.4 79.6 76.3 74.3 74.3 74.3 74.3 74.3 74.3 74.3 74.3 74.3 74.3 74.3 74.3 74.3 77.2 79.1 78.6 77.9 78.8 83.8 88.1 89.8 85.5 77.9 78.6 84.9 89.4 92.1 93.4 93.4 93.3 94.4 93.8 92.8 93 93.4 94.3 98.4 105.3 110.8 117.5 123.5 125.4 124.6 122.4 118.3 121.9 129.7 137.2 142.2 148.6 156.6 165.2 173 178.3 181.1 184 186.2 192 197.1 200.4 202.1 204.7 207.3 210.2 212.3 215.1 217.8 218.3 218 217.2 216.7 214.6 211.6 208.2 204.7 199.4 190.8 184.1 175.4 167.2 163.1 159.3 154.9 153.5 151 149.3 148.4 148 147.8 148.2 148.1 148.8 154.4
672.7 640.9 607.9 577.1 549.7 522.1 499.8 478.4 456 434.6 425.8 437.5 449.4 463.2 481.8 497.6 512.3 529.9 527 502.5 482.4 462.7 444 423.8 405.6 388.3 372.8 363.8 359.7 361 359.9 358.9 357 348.9 331 310.7 289.7 268.5 246.5 227.3 210.9 194.9 176.5 168 163.3 156.3 172.7 176 181.2 185.7 188.8 190.5 190.8 187.1 180.2 179.7 172.2 154.4 165.4 170.7 177.9 177.2 172.2 168.5 170.9 173.3 173.4 161 150.3 161.4 153 133.1 119.3 109.3 96.9 90.1 83.2 81.1 80.1 78.4 79.2 79 78.7 78.6 78.9 78.2 79.1 85 102.5 127.2 112.6 102.1 102.8 94.4 82 75.6 75.4 75.2 75.2 75.4 75.5 75.2 74.9 75.7 80.4 84.9 77.8 74.3 74.3 74.3 74.3 74.3 74.3 74.3 74.3 74.3 74.3 74.3 74.9 76.8 79.5 82.3 79.1 78.2 77.4 81.3 85.1 87.7 86.6 80.5 78.7 80.9 84.9 89.3 94.8 98.4 100.3 99.4 100.2 96.1 95.2 95.3 95.2 96.6 101.9 106.9 113.4 119.3 122.4 121.9 118.5 119 122 130 137.9 144.2 150 158.1 167.2 175 177.9 181.7 186.6 190.8 195.5 200.1 202.5 203.9 205.8 208.4 211.2 214.3 215.1 217.4 218.3 218.5 216.9 216 214.1 210.5 207.1 203.1 196.7 188.1 180.7 173.8 166.5 161.4 157.8 152.1 150.6 150.4 148.6 148.2 147.9 147.8 148 147.9 148.4 156.2
671.8 634.3 603.9 574.4 548.2 523.1 500.9 478 458.2 440.4 450.8 461.1 473.7 489 512.3 524.2 533.4 526.8 507.6 489.5 469.9 454.5 437.4 417.9 402 385.9 376.9 372.9 369.1 370 368.4 356.3 340.9 322.7 305.1 285.8 263.5 243.6 225.5 208.6 193.7 176.5 167.4 159.8 159.1 175.4 178.5 183 188.5 193 196 197.8 196.8 190.4 184.6 181.2 164.7 160.4 174.6 183.5 187.3 183 185.3 184.5 188.3 192.6 189.8 174.3 154.2 152.2 148.8 131.2 121.6 110.7 99.3 90.3 83.3 82.3 80.2 79.7 79.4 79.1 78.8 78.7 79.6 78.9 85.6 100.3 118 133.4 134.9 128.3 122.2 110.1 98.3 83.5 76.1 75.7 75.4 75.6 75.8 75.6 75.3 75.6 78.8 81.8 77.8 74.3 74.3 74.3 74.3 74.3 74.3 74.3 74.3 74.3 74.3 75.2 77.8 77.7 81 82.5 78.8 77.2 75.9 77.7 80.9 83.2 85.5 82 79.3 78.8 81 85.8 92.7 98.9 102.6 106.2 108.5 106.4 105.4 101.8 97.5 96.9 99 102.5 109.2 115.9 119.3 118.9 119 119.6 123 130.1 137.6 144.1 150.9 159.4 169 176.9 181.7 186.2 190.9 196.7 202.3 205.7 208.3 208.8 208.9 208.8 211.2 213.7 216.3 219.4 220.1 219.4 216 212.8 213.2 209.7 205.5 201 191.6 185.8 180.4 174.4 166.2 160.2 156.3 151.8 150.3 149.2 148.2 147.9 147.5 147.7 147.9 147.9 148.5 156
661.1 628.6 600.1 571.9 545.6 519.7 496.3 470.1 465.8 469.7 475.6 485.2 500.4 519.2 537.4 541.5 527.6 508.4 490.1 474 458.9 444 430 414.5 400.8 391.8 385.4 381.5 375.3 366.4 349 331.3 314.5 296.8 279.7 258.9 240.3 223.8 207 191.6 174 164 165.6 173.5 179.9 183 186.2 192 196.8 200.1 202.4 203.4 201.4 195.4 189.4 184.4 162.3 187.5 184.6 191.8 196.1 196.5 197.9 200 206.7 211.5 202.4 185.7 164.8 152.5 142.5 128.5 119.5 108.6 98.4 90.1 79.9 81.9 80.3 79.9 79.7 79.2 78.9 79.2 81.2 82.7 93.4 112.6 134.2 155.2 163.4 150.8 133.3 117.2 105 90.1 80.1 76.6 75.6 75.8 75.7 75.2 74.6 75.5 78.2 80.1 79 78.6 74.3 74.3 74.3 74.3 74.3 74.3 74.3 74.3 74.3 77 81.6 80 79.1 79.6 78.8 76.1 75.2 76.1 77 79.5 82.7 82.2 81.3 79.4 79.2 82.7 91.2 96.3 101.5 107.6 114.4 115 115.9 111.8 104.7 98.1 99.3 100.9 104.4 110.1 115.5 118.4 120.2 121 122.3 131.5 138.9 145.5 152.9 161.3 169.9 177.1 182.6 188.3 194.6 201.7 208.1 212 213.6 215.5 215.6 214.1 212.1 213.6 214.6 217.4 220.9 221.4 219.3 217.2 214.4 211.6 207.7 198.5 189.4 184.4 178.7 172.7 164.8 160.5 156.9 151.6 149.6 148.8 147.9 147.7 147.7 147.7 147.7 148.6 149.6 159.5
658.2 626 596.1 570.6 545.3 517.3 506.7 497.5 494.3 497.1 501.9 511.2 525.7 544.3 552.1 532.4 510.3 490.1 471.7 456.8 443.8 433.8 424 413 402.3 392.7 384 374.1 357.6 339.3 322 304.9 288 271.2 252.8 236.1 219.5 205.2 189.2 172 166 170.2 180.8 184 186.2 188.7 193.9 199.8 203.4 206.2 208.3 208.3 207.3 202.5 195.6 177.6 186.4 199.9 197 199.1 207.8 208.8 213.5 217.1 224.8 225.3 209.5 185 163.1 149.6 136.7 124.5 113.7 105.8 96.2 89.6 83 81.1 80.2 80 80.1 81.4 81 83.2 88.7 99.3 111.3 133.3 162.9 186.6 170.7 155.9 136.5 123.8 116.1 103.5 87.4 78.5 76.6 76.8 76.8 76.1 75.7 77.2 79.8 89.8 95.2 94 80.8 74.3 74.3 74.3 74.3 74.3 74.3 74.3 74.3 75.9 82.1 81.1 78.2 77.7 76.9 74.9 74.3 74.3 74.3 74.4 79.3 82.5 82.4 80 78.8 84.2 89.8 94 100.4 107.6 114.1 120.9 123 120.7 110.1 99.2 99.8 102.5 104.1 106.6 112.5 117.8 122.9 125.2 123.7 133.7 141.5 148.8 156.9 165.9 174.1 180.4 184.1 189.2 197.4 203 209.1 215 217.7 219.7 220.9 220.3 218.2 215.9 214.8 215.4 218.3 220.7 222.1 220.2 217.3 212.3 206.2 195.8 189.1 182.5 176.3 170.6 162.8 159.2 155.8 150.4 148.6 148.1 147.6 145.7 147.9 147.6 149.3 153.3 157.2 163
668.4 634.8 602.4 577 548.6 540.2 529.5 523.9 522.8 524.5 531.3 543.6 556.9 551.7 532.5 511 489.4 469.7 452.7 439 426.7 416.4 406.3 394.6 382.3 368.1 356.7 342.5 327.6 311.2 294.3 277.2 260.2 244 229.5 214.4 200.6 187.2 173 168.2 178.9 185.6 188.8 190.8 192.5 194.3 202.2 207 211.2 214.2 216.7 217.3 213.9 208.3 202.2 174 204.3 208.1 207.9 207.7 217.2 220.4 228.2 234.6 243.3 231 204 177.4 157.9 144 127.6 117 107.3 99.9 94.5 88.2 80.4 80.9 80.4 80.4 86.2 93.8 93.8 96.8 103.5 115.7 127.5 154.4 189.1 203.2 176.1 151.9 140.8 132.6 128.4 116.6 98.5 86.8 81.7 81.5 81.8 81.6 81.3 81.7 91.8 104.8 110.4 97 84.5 77.1 74.3 74.3 74.3 74.3 74.3 74.3 74.3 74.3 76.7 77.3 76.7 77.5 77.6 74.3 74.3 74.3 74.3 74.3 77.5 84.6 85.8 82.8 79.5 80.4 86.3 90.8 97 108.1 116.5 128.5 132.8 128.8 113.9 100.2 101.3 103.6 105.4 107 109.8 116.3 125 131.3 132 141.2 151.9 158 161.9 169.4 176.3 183.8 189.7 193.7 200 206.1 210.6 215.9 219.8 221.5 223.8 224.1 223.2 222 218.8 215.7 215.8 216.4 218.9 219.5 216 211.2 203.4 194.5 184.9 178.7 172.9 167.5 160.8 156.6 153.3 150.4 148.9 148.3 147.8 145.7 147.6 147.6 149.4 157.6 162.9 170.3
675.4 641 611.1 590.1 576.8 566.3 557.7 557.8 554.7 560 564.7 563 546.4 527 505.5 484.4 463.2 445.8 430.9 417.4 406.1 394.1 381.7 367.1 353.3 339.9 327.3 313.8 299.6 283.1 267.1 250.8 236.3 221.2 207.4 194.9 180.3 172.7 171 171.1 189.4 192.3 194.9 197.8 199.7 204.2 212.2 215.9 220.4 223 224.9 223 219.6 214.9 205.5 181.5 214 217.3 220 225.2 222.4 228.8 241.1 250.3 248.5 225.4 196.5 171.7 153.9 138.3 121.2 109.9 102.6 97.1 91.6 86.3 83.2 81.1 80.4 80.8 89.6 99.9 103.2 112.1 121.2 128.5 145 171.2 196.2 199.5 176.6 152.8 144.7 141.6 130.6 118.7 106.2 99.6 90.9 87.4 87.6 88.6 90 96.2 106.1 113.7 107.5 93.3 82.8 74.6 74.3 74.3 74.3 74.3 74.3 74.3 74.3 74.3 74.3 74.3 74.2 75.2 77.3 74.3 74.3 74.3 74.3 74.3 80.7 87.1 90.6 87.1 81.5 79.4 82.4 88 94 105.7 121 144 144.4 130.7 114.5 101.2 102.4 104.6 106.7 108.5 110.7 115.9 122.2 129.7 136.1 143.9 155.7 163 165.6 173.4 180.9 187.2 193.1 199 202.8 208.6 212.1 216.7 220.6 222.6 224.7 226.3 225.6 225 221.9 217.8 215.5 213.1 212.1 212.8 210.1 204.4 199.4 191.6 182.1 176 170.4 165.6 158.7 154.9 152.2 150.3 149.1 148.8 148 147.8 146.6 147.6 149.2 160.9 168.6 176.6
682.3 655.6 631.4 616.2 605.3 602.2 598.5 590.4 585 572.3 557.1 535.3 515.4 495.2 475.3 456.1 437.6 421.6 407.1 394.2 380.5 367.8 353.5 339.9 326.6 313.3 299.1 284.7 269.9 255.4 241.8 228.2 215.6 200.8 181.6 173 175.9 185.1 186.8 190.6 196.8 199.2 202.2 206.8 210.4 216.7 222.1 225 229.1 232.8 233.6 229.5 223.5 218.6 203.8 210.8 221.1 227.4 232.2 238.3 233.5 240.7 252.2 258.8 246.1 217.8 188.6 165.8 151.3 134.3 116 103.7 99.1 94.9 89.6 84.6 82.2 81.5 81.7 81.2 90.3 101.3 119.9 132.6 145.1 147.7 166.9 186 195.9 192.9 171.6 151 146.8 142.8 130.7 120 110.3 104.7 96.2 91.8 94.5 102.3 110 110.3 109.8 112.5 98.7 88 77 74.3 74.3 74.3 74.3 74.3 74.3 74.3 74.3 74.3 74.3 74.3 74.3 74.3 74.3 74.3 74.3 74.3 74.3 74.3 81.3 86.1 91.2 90.8 85.9 80.2 80.7 83.5 88.2 98.6 122 158.3 141 123.7 110.8 102.4 102.3 105.2 107.3 110 112.4 115.1 119.3 126.4 133.7 141.8 151.9 162.3 168 177.7 186.2 193.7 197.3 202.2 204.9 208.1 212.3 216.7 220.2 222.9 225.4 227.3 227.8 227.1 224.9 221.7 215.9 210.9 207 205.2 202.2 198.7 196.2 190.6 181.9 174.4 168.8 164.9 158.3 154 151.2 149.9 149.1 148.6 148.2 147.9 146.8 147.9 148.3 159.6 169.4 184.5
702.6 683.5 661.7 647.6 636 618.5 598.8 581.5 563.7 543.9 527.7 503.3 485.1 464.2 445.8 429.2 410.9 395.3 381.4 366.9 352.5 338.8 325.8 311.8 298.8 286.4 270.9 257.2 244.6 231.8 219.1 206.5 192.4 176.3 175.2 181.9 191.1 193.9 196.8 199.8 204 207.5 210.9 216.5 222.8 227.9 231.5 235.4 239 241.2 238.9 234 228.1 218.7 204.2 221.3 228.3 239.4 246.2 249.5 248.7 258.7 268.2 260.8 236.1 207.5 180.1 157.6 149.6 130.5 109.1 100.1 95.8 91.4 87.4 83 83.7 81.9 81.8 87.8 97.3 117.3 139.1 153.3 169.7 172.8 189.7 204 197.9 185.4 167.8 147.7 142.8 138.1 127.1 119.1 117 111.3 101.4 94.8 105.9 115.6 116.4 115 112.3 103.8 92.5 81.7 73.8 74.3 74.3 74.3 74.3 74.3 74.3 74.3 74.3 74.3 74.3 74.3 74.3 74.3 74.3 74.3 74.3 74.3 74.3 74.3 82 84.6 86.1 88.9 86.2 81.3 81 84.6 85.7 88.3 113.5 135.2 122.8 114.2 107.5 101.8 103.2 105.4 106.4 112.7 115.4 116.7 119.1 122.1 124.2 137.1 146.8 156.7 166.5 179.6 188.6 194.3 199.4 203.8 206.3 208.5 212.7 217 221.3 224.1 226.6 228.9 229.9 229.1 227.5 226 221.3 212.6 205.2 200.9 197.5 193.9 190.9 187.9 181.9 173.4 167.3 163.7 157.5 152.4 150.3 149.5 148.9 148.4 147.9 147.7 147.5 148.2 149.1 155.4 169.6 189.7
711.5 685.9 658.4 632.8 611.5 595.4 572.9 550.1 530 511 493 473.3 455.7 437.2 418.6 401.1 384.6 368.2 352.3 338.5 324.5 310.7 295.9 282.4 269.7 258 245.9 234 220.8 209.4 195 183.6 180.9 180.4 189.3 196.1 199.2 202 204.8 206.1 210.5 214.8 220.6 228.4 234.1 237.6 242 245 246.6 247 242.6 236.6 228.7 219.1 218.6 226.9 238.7 251.2 260.9 263 264 276.6 274.6 254.5 227.1 193.7 167.2 146.4 141.4 121.9 103.2 96.9 92.8 89.2 85.3 82.8 84.3 82.2 82.2 88.1 102.7 130.9 151.7 170.1 184.5 194.6 204.5 214.7 203.9 185 167 148.8 133.8 126.5 122.3 121.5 119.5 116.9 106.3 99.5 112 117.8 120.7 116.7 106 95.3 86.5 78.3 73.7 74.3 74.3 74.3 74.3 74.3 74.3 74.3 74.3 74.3 74.3 74.3 74.3 74.3 74.3 74.3 74.3 74.3 74.3 74.3 83.2 86.8 83 82.4 83.7 81.5 82.2 86.9 89 86 93.3 107.8 109.7 106 103.8 101.8 102.5 105.1 108 114.1 117.7 119.2 123.5 127.4 128.8 130.9 136.6 149.5 161.6 175.8 183.5 190.8 195.1 200.7 205.3 209.1 213.3 218.1 222.7 225.5 228.1 230.2 230.9 230.5 228.8 229.4 227.1 220.3 210.3 203.5 193.8 189.6 186.8 182.8 177.2 170.3 164.2 160.1 154.7 150.5 149.3 148.9 148.7 148.2 147.7 147.7 147.9 148.3 149.1 151.9 165.2 197.8
684.9 661.8 636.9 606.4 585.7 566.3 541.8 519.7 499.9 481.4 463.1 445.3 427.8 409.4 390 371.4 354.4 339.7 324.6 309.4 295 281.5 269 256.4 245.2 234.8 224.4 212.7 198.2 186 183.6 186.3 187.7 194.4 198.5 203.8 206.7 209.2 212.3 214.4 219.6 226 232 238 243.4 247.4 253 252.4 252.3 251.6 245.7 237.7 228.7 214.8 228.7 234.4 246.6 260.8 273.3 279.4 280.1 293.8 272.5 245.5 216.7 184.2 155.5 134.8 121.5 109.9 100.8 94.7 90.4 87.1 83.5 82.7 81.8 82.4 82.2 89.5 103.6 132.1 157 175.7 190 213.1 225 223 208.5 194.6 173.2 153.4 134.6 123.4 122.3 125.1 120.3 117.7 108.4 101.9 111.6 115.5 120.7 115.1 102.9 91.3 84.5 79 75 74.3 74.3 74.3 74.3 74.3 74.3 74.3 74.3 74.3 74.3 74.3 74.3 74.3 74.3 74.3 74.3 74.3 74.3 75.2 83.8 88.7 84.3 79.7 80.3 80.3 82.3 86.7 91 88.9 84.7 91.4 97.7 99.4 100 100.5 97.5 105 107.4 112.2 118.2 121.7 125 130.3 132.2 136.1 141.2 144.3 149.8 166.8 176.3 184.2 191 197.8 204.4 209.7 214.4 219.7 223.9 227.8 229.8 231.4 231.6 232.2 231.9 230.3 229.4 226.4 219.4 210.9 201 190.6 185.6 179.3 170.1 165.4 161.8 157.7 152.8 150.2 149.1 148.5 148.2 148 147.3 147.7 148.1 148.6 149.3 150.7 167.4 188.1
655.2 633.5 610.7 581.9 557.5 536.1 513.5 492.3 472.1 453.3 434.9 416.6 397.4 378.9 358.8 340.3 327.6 312.6 297.7 283.5 269.9 256.5 244.5 234.2 224.2 215.3 205.6 195.3 185 187.8 196.2 198.5 201.6 204.2 206.9 211.5 215.7 217.3 220.7 224 230.7 238.3 243.3 247.6 252.4 257.2 259.2 261.2 261.3 255.6 247 237.1 221 225.6 231.5 243.2 255 270.4 286.6 295.3 296.8 292.2 264.1 233 202.3 173.6 148 127.5 111.7 105.8 99.3 91.8 87.3 84.5 83.4 83.2 83.3 81.8 82.1 89 101.7 126.8 154 174.2 199 222.5 239.1 232 217.4 204.3 183.8 162.6 146.6 129.8 118.2 119.1 117.8 116.3 110.5 103.6 108.4 111.5 112.2 106.5 96.4 88.6 81.9 77.8 77.2 74.5 74.3 74.3 74.3 74.3 74.3 74.3 74.3 74.3 74.3 74.3 74.3 77.4 78 74.3 74.3 74.3 74.3 74 83.9 90 87.3 79 78.9 79 81.2 84.3 88.6 89 82.7 83.7 87.6 93.8 96 94.4 99.9 106 111.8 114.6 118.5 123.9 127.1 131.1 135.4 139.9 146 155.1 159.7 159 171.5 182.4 190.9 199.4 206.2 211.1 216 220.9 224.9 228.1 230 231.9 232.7 233.6 233.4 230.2 230.3 228.4 223 215.8 205 191.5 186.1 178.7 171.4 166.9 163.8 162.1 154 150.1 149 148.4 147.8 147.4 148.5 148.5 148.4 149 149.9 150.8 163.5 175.6
