ncols 200
nrows 86
xllcorner 330000
yllcorner 503700
cellsize 50
502.4 491.8 497 492.3 476 447.5 436.1 431.7 424.8 425.2 429 430.5 429.6 438 443.9 435.9 441.8 436.9 427.8 424.5 417 400.1 392.1 383.6 367 330.5 296.6 264.5 240.3 227.4 225.7 223.9 223.7 223.4 223.4 221 219.9 219.8 213.8 198.2 176.8 169.2 168.9 171.1 165.5 150.6 152.8 141.2 131.7 122.4 113 118.4 112.2 108.6 100.7 105.2 119.4 121.2 116.8 111.5 99.9 88.9 81.5 76.5 77.9 75.5 78.2 77.6 76.9 76.4 76 87.7 92 92.7 78.6 74 71.5 71.1 70.6 70.3 70.1 74.8 74.9 74.6 78.3 90 105.7 122.4 145.8 170.9 201.2 235.5 266.2 292.5 322.5 355.9 372.2 368.2 369.9 381.3 395 409.6 421.2 435.9 458.5 467.6 488.7 509.5 531.5 546.2 553.6 559.9 558.6 547.4 530.3 514.5 496.9 476.5 457.9 436.4 405 384.4 371.8 357.6 347.2 334 325.6 314.4 300.4 286.3 264.2 248.8 250.9 256.4 262.7 268.1 276.5 298.5 317.6 335.8 357.2 377.1 399.3 414.3 429.9 451.4 473.7 492.1 480.5 445.6 417.6 396 370.7 346.8 326.3 317.3 307.1 311.8 323.4 323.4 325.7 328.9 340.8 359.9 382.4 400.7 413.3 429.9 446.3 470 493.3 516.3 537.4 565.1 591.8 622.8 639.9 650.5 663 673.3 679.6 682.1 682 676.1 667.8 658.7 649.2 638.9 621.5 583.6 550.1 529.9 515 500.7 468.8 442.1 421.8 416.5 416.2 420.2
528.1 521.9 518.6 520.9 520.8 501.2 470.8 448.7 446 445.9 446.8 451.7 446.7 460 458.4 457.4 459 458.9 449.7 432 425.9 413.2 404 395.2 372.7 326.3 288.5 266.1 241.7 224.8 223.6 223.4 223.3 223 222.7 222 219.6 215.2 203.3 201.6 199.5 194.1 192.6 190.1 176.5 164.9 165.6 162.8 156.2 134.1 115.9 115.4 112.6 109.7 110.4 119 127 129.4 124 114.9 108.3 92 82.5 77.6 75.5 80 78.6 78.1 77.6 77.3 82.8 98.5 99.2 84.1 77.8 74.5 70.9 70.4 70.2 69.6 69.2 71.4 73.7 74.1 76.3 88.1 106 124.2 145.9 170.2 197.8 227.7 261.2 288.4 320.5 349.1 365.5 368.1 368.2 382 391.3 399.9 412.3 429.7 447.4 465.4 489.3 511.9 529.7 538 542.9 545.4 543.7 529.3 521.7 504.7 484.6 464.1 441.9 426 406.7 383.3 368.8 349.5 338.5 337.1 323.2 314.9 303.6 291.9 269.9 254.4 248.9 250.7 255.3 262.3 273.2 295.4 314.2 337.5 360.9 380.2 398.9 415.5 435.1 457.4 477.9 493.9 477.9 439.6 420.4 391.6 370.8 348.4 323.1 309.6 304.9 308.7 312.3 320.5 324.6 332.4 345.7 365.4 391.6 407.3 420.2 435.8 455 480.8 501.3 520.3 539.4 560.8 591.7 624.2 638.4 649.7 663.7 669.8 675.5 676.4 674.7 664.7 651.3 634.1 629.2 612.5 592.3 563.1 536.5 511.8 510.3 480.3 446.1 426.6 410 407.6 407.7 411.4
531.5 536.1 536.1 529.9 520.7 501.2 474.8 462.2 461 461.6 459.9 456.5 458.6 469.7 475.1 483.6 471.1 478.7 462.1 438.2 433.9 423.1 415.5 403.7 380.3 329.8 292.5 272.8 243.8 224.3 223.6 223.6 223.5 223.6 223.8 222.9 225.2 224.7 221.1 219.3 216.1 213.5 214.7 199.3 187.9 184.9 185.8 178.9 163.8 142.6 124.8 121.2 119.3 124 128.8 129.4 131.1 130.4 128.6 119.7 107.1 95.7 88 85.8 82.3 86.9 79.5 79.6 78.4 78.1 77.6 88.3 84.8 77.3 74.3 72.6 70.6 69.8 69.8 69.4 69.2 69.7 71.4 72.2 75.3 93.4 111.6 126.8 143.8 170.5 198.9 227.7 259.2 289.2 329.4 355.4 367.2 368.9 367.7 377.6 389.2 398.2 411.2 429.1 440.9 463.9 488.6 506.1 519.2 528.1 529.5 528.4 519.6 515 506.2 486.2 468 440.1 424.9 405.5 397 377.2 360.2 344.6 331.9 330.8 319.4 318.1 308 294.2 276.6 258.5 248.6 249.9 253.2 257 266.7 288.7 311.9 338.2 361.4 382 399.9 419.5 440.9 462.2 485.7 488.7 459.2 436.2 416 394.2 375 351.2 326.1 311.6 301 302.8 308.5 317.6 324.2 335.2 350 362.9 380.6 404.8 421.3 435.7 461.6 493.1 513.8 528.5 540.3 558 589.6 614.7 635.6 646.9 657.7 665.1 670.6 672.2 666.6 654.9 630.6 594.3 586.4 579.6 559 536.6 518 493.6 477.3 456.2 430.9 413.2 401.2 398 399.2 410
535.1 540.6 539.1 539.5 526.2 507.8 481.5 469.4 471 471.1 463 460.2 461.3 474 487.4 494.5 485 488.3 465.9 441 433.1 425.2 414.1 407.8 379.6 333.1 292.6 270 241.5 225.5 225.4 225.2 224.8 225.1 225.6 227.7 237.3 235.2 233.1 234 232.3 230.3 228.4 214.1 204.3 201.5 197.3 193.8 179.2 159.7 143.6 131.2 136.7 139.1 144.5 144.3 135 128.8 130.4 123.6 111.6 108.7 105.8 96.1 94.3 90.9 87.6 86.4 79.6 78.7 77.2 77.7 77 73.8 72 70.7 70.1 68.6 68.8 69.3 69.6 69.2 68.9 71.2 78.7 97 110.5 123.2 141.9 167.3 196.4 220.1 249.4 282.6 324 353.7 362.4 366.2 367.7 370.5 381.7 398.2 410.1 419.1 438.9 459.9 479 496.2 512.5 517.1 515.1 511.4 504.3 501.5 489.6 473.1 450.3 424.2 409.2 390.6 381.5 370.2 351.5 336.7 327.7 323.2 318.3 317.1 311.6 298.6 283 263.7 246.9 250.6 249.6 250.8 263.5 285.7 310.6 334.7 356.4 380.5 398.5 420.9 441.2 467.5 494.9 491 458.7 434.2 413.4 390.9 373.4 351.3 329.3 310.9 292.9 298.6 303.7 312.6 320.8 336.6 355.1 361.4 378.1 408.6 422.8 437.7 462.7 494 522.4 533.1 544.5 558 578.2 602.7 625.7 644 653.1 661.5 664 664.1 649.6 630.4 597.6 567.5 544 545.8 531 508.9 489.7 468.6 447.7 431.5 416.9 403.5 390.5 388.4 394.3 408.4
528.1 532.3 528.7 524.2 511.1 507.6 487 482.5 478.7 480.3 470.1 464.9 465.4 472.8 481.9 489.3 492 479 457.1 439.6 436.8 431.9 414.1 399.7 366.5 332.3 296 269.1 243.8 227.6 228.1 227.3 225.3 227.5 230.2 237.9 242.4 243.2 242.7 246.6 248.8 249.5 238.8 228.7 225.7 222.7 214.4 215.9 202 183.1 156.3 141.9 148.3 148.6 154.4 154.9 141.3 133.4 125.2 120.4 116.2 120.2 116.2 114.4 113.2 105 101.9 97.4 85.4 76.8 76 76.1 76 75.7 77.8 70.9 69.3 68 68.3 68.8 69.3 69.2 69.1 70.9 81.1 98.5 112.2 123.7 140.9 167.3 191.2 212.7 242.3 277 319.7 347.1 357.9 361.2 360.5 372.8 386.7 396.9 402.2 413.8 433 451.8 473.2 488.8 512 511.2 503.3 496.1 489.1 489.5 475.5 458.6 439.3 417.7 399 382.5 375.3 366.4 345.5 328.7 327.1 323.3 313.7 311.7 303.7 291.1 279.2 261.5 244.7 250.7 240.9 245.5 257.8 279.9 307.2 337.7 359.5 378.2 397.8 419.3 439.3 461.3 477.5 477.9 455.7 439.2 412 387.6 378.2 357.3 331.8 311.1 290.1 294.2 299.4 305.4 316.9 328.2 337.1 348.2 366.5 398.7 419.8 439.5 457.1 489.2 521.7 543 550.7 559 574.5 597.1 620.6 638.8 649.9 657.8 662 658.3 620.5 591.4 569.6 547 524.3 506.5 499.6 485.6 462.2 452.5 431.5 412.7 400.7 388.3 380.3 388.7 395.7 406.5
516.6 519.4 514.1 507.6 500.6 501.1 491.2 490.6 489.9 483.2 474 471.5 471.3 474 478.9 483.9 481.1 470.9 456.2 447.8 442.3 430.2 415.2 403.1 373.5 330.5 303 276.3 252.5 230.9 230.9 228.9 228.2 227.5 230.8 237.7 247.6 249.1 253.3 257 264.8 269.8 253.5 248.7 243.3 237 229.3 225.5 217.3 191.1 161.1 152 165.6 164.7 160.4 156.1 150.1 142.6 130.9 125.3 127.9 132.8 131.2 129.4 129.5 105.2 94.2 90.2 84.3 76.3 74.9 75 75 74.2 71.6 70.2 69.2 68 68.3 68.7 68.7 68.5 68.4 72.3 81 93.2 105.1 118.7 142.8 167.6 188.4 208.9 242.4 279.4 313.8 337.9 359.1 359.2 357.5 366 381.3 383.8 393.6 404.4 424.1 440.4 457.3 478.1 500.8 504.2 489.8 480.8 481.9 477.6 461.8 443.5 427.5 410.4 395.5 377.7 367.5 352.2 332.8 318.1 311.3 310.3 305.9 306.2 296.5 285 274.9 256.5 242 244.3 234.6 240.3 252.8 279.3 306.8 339.5 362.8 380.9 396.2 412.5 432.4 452.5 473 463.5 452.8 433.3 405.6 384.4 377.4 358.2 331.8 307.7 290.7 290.5 293.4 299.4 307.6 318 331.8 342.1 358.1 376.5 396.3 430.2 454.5 485.1 518.6 544.2 553.3 560 577.6 597.1 615 631.6 645.2 653.8 655 644.8 610.6 565.3 545.8 529.4 509.5 479.2 468.8 452.7 439.5 436.5 414.9 398.2 385.8 372.2 378.7 381.7 389.8 401.8
501.1 502.2 501.2 500.2 499.4 493.3 486.2 482.8 474 475.5 474.2 477.1 476.3 480 483.4 489.1 480.2 469 461 456.4 454 437.5 422.8 405.5 367.3 331.9 311.6 288.1 268.2 243.4 235.4 234.2 233.4 240.2 242.9 246 251.6 260.2 264.5 267.8 277.1 280.3 273.8 272.6 267.1 256.7 250.6 232.2 218.4 202.3 178.7 164.1 176.4 174.3 170.1 164.5 158.1 153.5 149 144.5 144.1 144.1 143 138.1 123.2 95.6 93.8 90.6 87.3 80.9 72.2 71.6 71.3 70.7 69.6 69.4 68.8 68.1 68.2 68.6 67.9 67.8 68 70.5 79 87.9 101 119.8 143 164.2 182.3 210.2 245.5 273.5 304.8 341.4 352.9 345.1 351.8 357.3 365.7 372 382.6 393.3 412.3 427.4 446.4 463.9 489.1 495.1 479.2 472.2 471.9 465.8 449.9 431.8 422.8 404.1 393.8 376.1 361.7 346.8 323.3 307.5 298.6 293.1 294.3 296.3 288.1 276.7 266.4 255.2 234.7 241.1 232.3 240.4 253.6 279 306.2 340 363.4 370.8 390.4 409.8 431.2 456.6 462.7 455.9 446.2 425 397.8 382 374.5 355.7 328.7 303.2 289.7 289.1 296.3 298.2 305.4 313.4 325.6 344.3 362.7 373 390.8 419.3 455.6 476.5 510.1 543.1 554.7 564.4 578.8 595.3 610.2 627.7 641.1 649.7 650.1 634.9 599.5 548 530.5 514.9 485.7 455.7 439 428.6 418.9 409.7 396.9 381.5 374 361.1 368.8 373.2 385.2 397.4
494.2 494.1 496.7 497.2 497.2 491.1 480.8 472.3 469.2 472.3 479 479.4 478 483.2 489.1 490.7 479.5 466.6 465.8 467.6 459.1 444.7 428.4 400.5 368.7 343.8 323.4 300.3 274.9 251 245.4 248.1 251.4 257.2 258.2 254.8 256 263 272.8 276.8 282.4 287.2 289.6 291.5 286.4 284.7 267.8 241.9 236.1 217.9 196.7 179.4 188.9 188.3 187.4 172.9 170.1 167.8 167.5 169.7 168.2 163.5 154.3 142 118.5 92.5 88.7 83.9 82.4 74 68.8 69.2 69.9 69.8 68.7 67.7 68.6 68.4 68.3 67.9 67.1 67.2 67.8 69.9 74.6 87.7 99.6 118.5 141.1 162.1 183.3 211 243.6 275.9 305.3 325.1 328.3 335.6 346 351.5 352.9 362.2 370 381.7 398.4 416.7 435.3 456.1 481.7 487.9 475.3 464.9 458.1 450.3 439.3 424.8 413.5 399.2 383.3 365.8 354.8 334.4 316.4 301.6 293.6 287.7 290.6 289.3 281.7 271.1 257.3 244.7 231.9 228.6 227.8 231.9 252 278.3 303.7 344.1 361.4 367.2 383 406.1 431.8 450.7 447.5 446.2 438 414 395.6 379.7 370.9 351.4 329.2 303.8 292.3 287.5 291.9 297.9 306.2 313.8 318 329.6 348.6 367.9 383.2 408 442.7 467.5 502.1 536 551.5 561.3 577.3 593.7 609.2 624.5 636.8 646.1 645.8 630.5 587.4 544.5 516.9 496 470.9 441.4 421.2 410.5 403.2 387.1 375.3 365.6 359.7 353.9 359.4 366.7 379 392.8
490.2 487.7 489.4 485.3 487.6 474.9 469.8 464.9 466.9 470.7 476.2 480.3 480 483.5 490.1 493.8 487 470.5 467.5 475.6 465.5 451.2 439.6 408.7 379.5 356.6 337.3 313.4 290 264.3 258.8 263.2 265.5 274.2 269.7 270.2 269 273.7 279.5 284.9 289.5 295.7 297.1 295.9 295.6 293.4 278.1 256.6 242.3 220.5 202 192 192.2 190.7 185 180.5 188.5 187.6 186.6 188.1 192.2 175.2 169.3 142.8 119.4 100.9 88.3 78.6 76 68.7 67.6 68 69.1 69.5 69.3 67.2 67.7 67.7 67.6 67.5 66.8 67.1 67.7 70.1 76.1 89.5 97.9 117.4 141.7 163.6 189.4 215.8 245.3 272.1 297.9 306 318.6 334.5 337.2 341.2 340.4 352.3 357.3 371.8 390.6 408.1 422.4 442.6 466.5 475 472 462.4 450.9 441.5 432.3 420.2 403.7 393.2 376.7 357.3 339 325.4 302.9 289.7 287.1 282.2 279.4 280.2 274 264.6 244.9 233.5 223.5 220.8 221.3 227.3 247.4 274.1 301.4 331.7 355.1 367.9 381.3 405.7 424.3 434.8 437.4 432.8 421.8 409.2 392.4 379.3 363 347.9 328.5 313.3 298.3 284.2 289.5 296.3 306.6 315.8 320.3 330.1 347.8 372.7 385.5 406.5 437.9 464.2 496.6 530.3 545.6 558.5 575.6 593.2 608.7 621.3 632.6 642.3 641.5 629.5 585.8 549.4 514.8 477.4 448.6 426.4 409.7 394.8 383.8 371.7 361.3 354.5 348.6 347.1 350.7 361 372.1 388
471.6 471.2 472.2 460.4 454.2 454.8 459.7 446.3 457.2 456.6 466.9 471.9 472.3 482.9 490.9 484.4 478 470.9 467.9 471.5 462.4 461.1 440.2 419.1 392.5 373.6 352.7 327.7 301.1 277 275.9 276.5 277.1 283.2 285.7 284.3 284.7 286.1 289.3 292.9 298.1 303.6 305.3 303.7 302.9 299.3 290.4 269.8 248 228.6 210 201.3 200.2 201.5 190.1 185.4 188.5 189 194.1 193.4 184.8 176.1 159.1 140.4 124.4 103.1 88.2 78.2 70.5 67.7 67.5 67.7 68.5 69.1 68.3 67.8 67.5 67.1 66.9 66.8 66.4 67 69.1 71.7 76.4 90.2 99.3 115.6 141.3 163.9 192.1 219.7 245.6 264 285.4 297.4 315.7 322.5 331.5 327.7 334.1 345.7 355.6 367.7 383.4 404.8 417.3 431.2 450.2 459 462.8 458.6 446.7 437.1 427.5 417 399.2 383.4 370.2 352.4 337.2 323.8 302 277.9 270.3 274.3 267.9 261.5 252.7 245.4 236.5 228.4 219 217.9 219 226 241.4 271.7 302.2 332.8 346.2 358.7 377.2 395.3 411 422.2 420.4 421.4 418.5 405 392 380.3 366.2 351 331.8 311.6 296.2 281.5 285.3 292.8 299.3 310.4 320.9 335.9 348.7 370.1 380.9 404.2 437.7 461.7 496.7 519.5 538.8 556 571.3 589.1 607 620.9 629.9 639.2 641.7 633.4 591.2 552.3 514.9 472.8 438.2 416.5 398.5 381.5 372.8 363.2 355.4 349.1 344.6 342.3 344.1 353 363.9 377.9
464.9 449.7 436.9 431 430.9 437.5 434.4 432.3 437.5 439.2 454.4 458.9 464.9 470.2 478.2 474.5 476.7 473.6 467.7 471.2 466.7 451.8 437 424 401.8 381.5 360.7 334.7 306.6 295.1 294.2 295.4 291.7 292.5 291.4 292.6 296.9 297.1 303.7 306.6 305.6 310.2 315.6 317.8 313.3 304.2 290.1 269.9 260 237.5 229.4 225.1 221.4 213.2 198.1 186.2 182.8 187.9 193.8 192.9 185.9 178.9 166.5 136.8 110 95.1 84.7 71.3 69.4 67 67.4 67.4 67.9 67.9 67.8 67.6 67.3 66.9 66.6 66.4 66.2 68 72.1 74 79.5 87.9 97.3 113.7 139.3 162.4 188.9 216 235.9 258.1 281.4 299.7 310.9 316.5 326.1 316.9 325.2 340.4 350 360.9 376.4 397.8 411.5 424.1 442.3 454.6 460.1 453.2 441.4 430.5 421.1 410.9 395.1 374.3 361.1 346.3 333.4 316.7 294.5 267 260.6 264.5 252.7 244.6 240.6 229.2 226 224.8 216.3 211.6 215.3 225.8 241.2 270.8 301.4 321.4 331.2 349 370.7 382 400.6 410 411.1 419.6 410.5 401.5 392.1 382 364.9 353.1 334.5 311.4 289.5 278.2 281.1 287.7 295.6 308.3 319.6 333.9 349.7 371.9 383.3 400.2 435.4 462.7 487.3 513.5 530.1 547.8 562.6 579.1 597.6 612 622.3 632.8 639.5 629.2 588 546.4 505.2 470.3 435.1 410.3 395.4 371.9 364.7 357.7 351.5 345.3 340.3 338.3 340.7 346.3 355.4 367.7
445.5 426.7 416.1 409.7 409.4 409.3 410 419.6 425.4 426.3 434.1 440.6 446.5 461.4 465.2 471.5 482.8 474.4 461.7 464.6 462.2 455.2 437.1 423.2 402.9 384.6 365.6 342.7 316.2 318.4 311.7 307.6 305.9 308.3 304.5 302.3 308.6 309.3 313.1 318.8 319.2 315.4 321 325.6 324.5 316.3 305 280.8 270.6 260.4 241.8 250.4 239 225.2 205.4 184 181 186.9 199.7 194.1 186.1 165.7 148.6 118.6 111.9 80.7 69.6 67 66.5 66.4 66.8 67.4 67.5 67.6 67.6 67.3 66.7 66.7 66.5 66.3 66.2 66.6 68.7 72.5 79.8 90.6 105 120.4 138.7 163.6 189.6 221.1 242 262 284.8 300.8 304.4 306.5 309.2 303.9 318.6 338.4 346.1 353.5 372.4 385.9 402.5 411.1 431 449.1 454 451.7 437.9 426.7 417.9 407.5 388.3 375.1 360.1 350.3 332.5 306.9 282.6 260.9 250.5 249.9 241.4 235.7 240.1 232.9 227.6 220.9 214.9 207.8 213.8 227.4 245.5 264.2 284.7 303.6 321.3 340.5 358.3 371.8 385.2 395.9 399.6 408.4 404.1 399.5 393.9 383.7 362.5 349.9 333 307.9 287.5 274.1 280.7 283.9 291.7 304 316.4 335.4 351.1 356.9 377.4 400.2 426.8 459.5 478.7 503.2 520.5 538.1 553.3 567.4 582.9 599.2 611 621.8 626.7 613.5 570.6 526.7 498.1 467.6 434.3 408.7 386.8 366.1 355.9 351.8 346.8 342.5 339.9 336.5 339.5 342.9 351 360.5
413.3 400.9 393.7 386.3 387.9 390.6 387.1 397.1 404.1 411.6 418.2 424.5 434.6 452.6 456.7 470.3 471.3 457.4 450.8 452.1 455.4 448.4 429.2 420.3 397.2 379.9 364 346.8 346.2 340.3 331.9 328.2 327.8 325.6 316 316.3 321.7 320.6 321.3 323.4 324.4 319.8 328 335.5 331.4 317.9 301.4 288.4 286.2 280.6 257.5 265.1 255.4 241.4 210.2 181.9 176.9 179.1 189.3 184.1 170.8 154.5 119.9 102.2 86.1 70.8 68.2 66.4 66.7 67 67.3 67.1 66.2 67.1 67.5 67 66.2 66.6 66.4 66.2 66.2 66.2 66.9 71.5 79.4 94 108.5 127 143.6 164.2 193 220.7 239.2 260.8 281.9 293.9 296.5 298.4 295.2 292 309 327.9 341.8 352.7 365.4 378.6 393.1 400.9 421.9 443.2 457.7 454.8 437.8 423.7 413.3 401.3 386.3 371.3 356.8 347 325.9 296.6 275.1 260.9 249.8 236.1 231.5 228.6 235.9 234.2 225.6 217.8 211.3 204.7 212.6 226.4 241.7 258.9 275.9 294.9 317.4 330.8 345.3 365.9 377.1 383.6 391.3 401.4 400.4 395.5 391.3 385 367.6 351.3 332.2 306.2 284.6 271.8 276.8 283.5 292.3 307 319.7 330.5 345.2 358.4 371.2 394.9 416.1 441.2 470 490.7 510.3 528.1 546 561.5 576.4 588.4 599.2 604.7 606.3 590.6 555.7 513.6 503.5 469.1 431.8 410.4 385.6 366.7 352.4 345.7 342.5 342.2 335.7 334.9 340.3 341.5 348.1 356.9
382.6 384.8 372.1 369.4 371.6 364.7 363 372.4 379.8 394 398.3 405.3 417.9 426.9 439.5 448.8 442 431.3 438.9 446.9 442.1 434.4 428.8 413.5 393.9 377.1 371.4 374.8 372.6 370.2 359 351.2 348 339.2 333.4 333.6 337.4 331.7 331.6 324.3 328.2 333.7 341.7 337.5 328.3 316.7 310.8 296 285.1 276 276 275.3 257.1 237.2 205.9 181.6 168.6 162.6 163.1 158 147.2 122.6 102.4 86.2 72.9 70.1 67 66.9 67.3 67.3 67 66.4 65.9 66.9 67.3 66.3 66 67 67.1 66.3 66.6 66.5 66.9 71.6 82.7 97.8 111.3 128.2 147 165.5 188.8 207.6 234 248.6 268.7 277.5 289.8 286.4 267.2 280.5 298.3 316.4 334.2 349.8 360.9 375.1 385.1 396 414.4 439.8 453.6 453.7 440.8 424.6 411 398.8 379.8 367 357.2 344.8 315.3 288.6 277.1 267.1 253.5 237.7 228.4 223.3 225.3 226 221.5 212.9 206.7 201.8 210.4 223.1 235.2 252.4 270.2 282.9 305.1 315 330.6 356.2 368.6 374 382.2 389.3 394.4 394.2 391.9 381.4 357.9 359.2 334.1 305.1 281 269.8 275.3 280.5 293.8 306.9 318.3 333 343.5 362.2 377.7 392.1 409.2 434.8 460.3 483.3 507.1 524.6 541.5 556.3 570.1 583.8 591.3 595.9 594 578.5 536.8 505 503.7 473.2 431.6 406.9 389.3 366.9 355 347.9 342.6 334.5 329.3 339.8 339 340.7 344.9 352.6
379.4 362.5 362.1 348.5 350.1 336.1 337.6 344.3 353.9 362.1 367.2 377.8 384 393.8 412 418.3 417.5 417.9 426.4 436.3 433.4 425.1 415.5 400.9 393.3 383.2 385.8 394.9 392.8 391.4 380.9 374.6 364.5 350.3 345.7 347.7 343 338.6 336.9 338.7 330.4 340.8 346.5 339.8 338.5 320.3 319.3 300.9 293.6 286.7 283.9 272 253.3 233.6 199.3 176.4 162.8 148.4 137.9 127.1 114.6 101.3 84.1 75.3 69.8 68.7 66.7 66.4 66.6 66.7 66.4 65.9 65.7 65.5 64.8 65.1 65.5 66.5 66.6 66.4 66.9 66.4 67.2 75.3 89.1 101.8 111.6 132.1 151.2 169.7 191.7 207.7 222.1 235.4 249.9 265.3 267.5 263.9 247.7 257.2 281.1 308.4 337.9 343.3 357.7 374.5 379.3 382.6 406.2 434.4 450.2 451 442.8 425.8 411.2 398.4 381.9 365.8 354.5 334.7 311.5 295.9 282 267.4 254.8 236.9 222.7 218.9 217.7 220.3 217.1 208 200.2 199.2 209.1 220.1 230 245.3 262.8 279.4 295.3 309.2 330.7 343.9 357.1 365.8 371.7 383 390.1 393 387.1 369.7 359.4 354.6 326.4 304.6 277.4 268.7 272.4 280.1 293 303.2 314.6 329.7 350 362.4 374.8 393.8 409.6 432.1 456.9 479.3 500.3 519.5 537.3 554 568.2 579.2 586.9 589.5 582.8 554.9 504.9 503.9 490.2 464 433.9 402.4 387.3 367.8 355.8 350.2 344.2 337.1 324.1 333.1 334.6 336.2 340.1 348.5
378.5 347.4 342.1 323.7 318 305.1 307 312.5 316.3 327.9 334.4 346.9 356.1 363.2 378.4 380.6 392.9 402.4 404.6 416.2 413.8 405.6 397.1 391 390.4 392 395.1 399 397.5 395.2 388.9 386.6 367.6 363 360.7 357.6 356 354.5 354.2 349.4 335.5 339.3 340.3 344.4 336.1 324.7 314.1 313.4 303 288.9 282.8 279.7 271.8 242.6 212.8 183.1 164.7 144.4 123.2 112.1 105 95 78.8 75 68.3 67.8 66.1 65.8 65.7 65.8 65.9 65.7 65.5 65 64.9 65.2 65.6 65.7 65.6 66 66.1 66.1 67.1 78.3 92.1 99.3 112.2 132.5 158.9 177.2 196.1 213.2 222.5 235.1 243 252.8 247.3 239.2 222.8 242.1 272.4 295.7 321.5 323.4 342.8 358.9 366.5 382.4 397.4 426.7 441.8 449.2 439.8 423.2 409.2 398.3 383.1 365.5 354.9 337.6 315 294.3 281.8 269.2 260.6 242.5 217.6 208.9 205.5 205.6 201.9 200.7 192.9 194.1 202.8 214.5 225.3 240.7 257.8 274.2 290.2 307.9 322.1 335.9 346 354.1 364.7 375.9 383.1 386.1 374.5 360.5 362.6 339.4 322 292.1 271.2 259.3 270.5 275.4 289.3 300.9 314.3 326.5 350.4 363.3 371.2 390.9 409 431.6 455.9 477.8 496 515.1 534.4 550.8 564.3 576.5 579.2 579.2 563.6 513.1 503.5 486.7 472.2 452.7 420.2 397.1 376.4 366.3 356.3 349.5 344.2 334.5 322.4 328.8 330 330.9 336.1 346.4
370 346.2 311.1 306.5 292 280.8 283.1 281.8 284.4 290.9 297.8 308.5 319.5 329.8 336.7 347.1 357 364.6 377 381.6 383.4 388.3 391.8 394.4 393.7 393.5 405.5 402.7 401.2 397.7 388 380 372.9 370.9 375.6 378.1 382.2 368.3 364.2 353.5 337.9 338.5 337.6 331.8 328.2 321.3 318.1 312.6 302.9 304.4 302.1 296.6 281.3 239.9 221.2 180.8 162.2 143 123.1 110 101.8 93.6 88.8 91.3 84.8 80.5 69.1 65.3 64.6 64.5 64.8 65 65.2 65.2 65.1 65.2 65.4 65 65.1 65.7 65.8 65.6 66.8 83.5 90.1 96.1 114 139.6 163.1 171.4 189.6 200.1 211.7 229.3 244 245.1 235.7 215.9 203.4 227.9 252.4 274.3 294 308.4 326.8 342.3 360.9 376.7 392.3 418.6 432.5 440.1 441.1 432.3 414.8 399.6 382.9 366.5 351.6 337.2 315.8 298.4 283.2 270.8 261 241.2 214.2 200.6 194.9 198.1 198.1 194.7 187.9 192.2 197.4 208.4 218.4 239.1 251.3 268.7 281 293.1 306.1 323.3 338.8 346.1 356.6 368.1 374.2 372 367.9 364.8 354.6 336.5 311.6 295.8 275.9 259.3 263.4 274.2 287 299.6 312.6 325.7 338.6 355.5 372.7 389.4 408.7 436.1 461.7 478.9 493.6 510.9 531.8 548.5 562.4 571.2 569.7 560.8 534.6 513.1 490.5 466.5 448.8 432.2 403.9 383.2 371.8 363.4 356.2 348.8 340.3 329.8 318.9 315.8 321 325.3 332.3 341.4
361.3 331.6 306 290.1 271.2 255.9 256.7 252.7 255 262.2 269.3 273.7 286.2 297.3 313.3 322.2 326.7 338.6 359.2 365.7 367.3 381.3 382.4 389.3 391 399 404.2 400.3 396.6 392.5 388.2 382.2 382.9 381.4 385.3 394.7 393.8 383.4 369.8 361.8 347.9 336.9 333.1 324.9 321.5 320.6 322.5 308.2 312.4 321.4 312.5 298.1 275.8 240.7 214.5 179.4 161.4 147.8 134.6 121 105.2 97.9 91.9 88.7 79.5 75 64.9 62.5 63.2 63.5 63.8 64 64.4 64.6 64.7 64.9 65 65.2 65.2 65.4 65.5 65.9 66.6 79.3 83.8 95.5 115.4 140.1 148.4 162.1 171.7 179.5 191.1 210.9 222.4 218.7 209.2 194.6 186.3 214.3 229.5 246.5 266.4 283.5 304.7 327.5 351.3 367.8 383.1 408.1 424.7 436.5 441.6 436.9 417.2 400.1 384.9 370.5 353.4 337.3 320.1 303.4 282.9 261.4 244.1 225.1 204.7 190.3 187.7 188.7 190.6 186.7 183.6 190.2 194.2 201.4 214.6 236.2 247.8 263.4 276 285.5 297.1 313.6 329.1 341.2 350.8 363.4 370 370.5 369.9 362.2 350.4 333.7 313.9 301 277.5 260.9 259.9 269.5 283.1 296.3 310.3 327.2 341 358 372.8 391.4 410.8 433 459.1 476.6 488.2 505.8 527 546 560.1 562.6 558.3 522.7 513.8 497.3 481.1 439.3 429.2 414.6 391 375.4 369.1 362.7 355.7 347.2 337.7 327.6 316.4 306.9 314 318.6 326.8 335.2
321.5 302.7 288.4 265.6 248.8 239.5 235.1 231.3 232.3 232.7 242.9 246.9 257.6 272.3 285.3 288.8 294 311.1 322.8 335.7 344.8 360.7 369.7 380.4 383.8 390.8 397.4 400.2 398.6 400.5 394.5 397.5 403.4 390.1 392.3 401.3 408.9 400.7 377 363.7 347 335.3 327.2 324.1 322.9 317.8 311.8 316.8 321.3 335.5 322.6 298.7 284 251.6 225.8 190.1 170 156.7 143.6 126.4 109.9 103 97.4 89.4 75.8 64.9 63.6 62.5 62.5 62.6 63.1 63.6 64.1 64 64.2 64.3 64.5 64.7 64.8 65 65.1 65.2 65.6 69.8 77 96.8 110.6 132.4 144 156.9 161.3 168.6 178.2 192.1 197.1 199.8 183.8 175 174.1 198.9 208.3 222.1 240.4 263.9 286.3 309.8 337 353.2 369.6 386.8 411.7 425.6 436 429.2 412.7 397.6 387.6 377.1 356.8 338 320.3 309.1 285.6 251.4 232.5 221.8 207.3 191.3 182.2 182.2 180.4 175.4 181.9 190.6 193.5 198.3 211.4 230.8 245.6 259.1 270.4 279.4 291.9 305.5 317.6 331.9 346.6 359.4 361.7 366.7 369.6 361.9 349.3 326.4 313.8 302.2 271.6 257.4 255.8 263.1 275.9 291.9 308 326 341 357.1 378.7 396.1 415.5 435.1 453.9 471.5 484.3 502.6 520 537.3 552.9 548.5 523.2 513.2 497.9 482.4 448.2 433.4 422.6 403.7 382.4 369.4 363.4 358.6 354.3 346.6 335.6 328 314.1 300.3 305.8 310.5 316.1 329.6
287.2 276.9 262 245.2 224.2 221.9 210.6 210.8 209.4 208.8 213.4 218.9 231.7 241.2 255.5 256.7 266 279 293.9 303.7 322 332.4 348.5 358.7 370.6 383.4 391.8 400 403.4 407 401.4 401.3 399.1 386.8 390.4 404 410.4 405.8 380.6 362.4 342 341.3 328.6 326.2 323.8 318.5 315.6 315.4 323.2 328 316 300.3 296.7 266.5 231.4 200.8 176.4 165.3 149.9 131.3 116.7 106.9 103 97.1 66 63.2 62.6 62.5 62.5 62.5 62.9 63.4 63.5 63.5 63.6 63.7 63.9 64.1 64.3 64.5 64.6 64.9 65.5 66.4 72.5 90.6 106 122.3 137.1 141.7 146.7 147.6 164 174.7 170.4 166.2 162.5 155.1 152.7 172.2 180.4 205.7 230.7 252.4 272.6 292.7 314.5 328.9 349.4 369.8 397.3 407.6 418.1 409.4 402.3 400.6 395.5 385.9 359.4 338.1 318.3 304 276.5 248.9 230.8 217.3 205.4 190.1 180.3 173.4 169.1 168.5 182.8 191.3 192.5 195.4 205.2 228.6 241.6 252.7 263.8 274.7 285.4 296.6 309.7 329.8 342.4 349.9 354.1 360.5 368.1 363 341.8 325.3 308.4 293 270.8 253.6 250 262.4 276.2 290.8 307 324.1 341.6 358.2 376.6 396.6 419.4 435.3 450.1 466.3 484.7 502.3 517.2 530.6 540.8 531.6 498.1 494.9 488.7 465.2 438.1 433.4 417.8 390.2 372.1 364.1 359.9 356.3 352.2 347.5 336.9 322.2 308.3 294.5 298 303.8 312.5 326.2
254.9 245.5 231.2 212.3 204.8 193.8 192.3 188.9 185.8 183.7 189.9 197.8 203.8 211.7 219.3 238.7 240.4 251.7 265.9 280.9 294.8 307.4 321.2 337.5 359 372.4 384.2 390.5 400.6 402.6 401.3 396.4 382.4 378.9 383.3 396.3 403.5 406.4 399.1 370.9 354.1 343.7 330.8 327 325 322 320.7 318.8 324.5 330.4 319.5 315.5 296.7 259.5 232.6 211.6 176.7 167.7 145.3 133.7 127.7 108.9 101.4 77.4 66.5 62.6 62.4 62.5 62.5 62.5 62.6 63 63 62.9 63 63.1 63.3 63.6 63.9 64 64 64.5 65 66 72 88.7 102.4 111.1 112 123.6 130 138.6 148.4 157.9 149.9 141.1 139.4 137.9 135.4 154.2 160.1 179.9 210.9 233.8 255.1 270 288.9 308.1 330.2 350.5 370.3 379.7 383.2 389.2 394.1 394.8 389.4 384.1 362 338.2 318 298.8 272.1 249.1 227.7 214.1 205.8 187.8 176.8 170.6 161.1 166.1 177.7 186.1 187.4 189.1 198 218.7 232.5 246.8 255.9 264.2 276 284.7 303.9 322.3 335.2 336.5 344.4 352.5 365.4 355.6 333.8 315.9 302.8 287.8 270.8 255.2 247.8 260.8 276.1 291.1 305.7 322.9 340.4 358.3 378.6 396.9 416.5 435.1 452.4 463.6 480.5 500.5 515.4 528.9 526.7 516.9 500.4 489.6 474.6 452.3 440.3 424.4 405.1 381.3 369.1 363.3 360.1 355.8 351.5 344.6 332.9 321.7 307.6 290.1 291.5 298.4 309.2 320.6
216.3 205.9 193.5 187.7 179.9 172.8 169.7 166 162.1 165.4 170.4 170.6 180.7 186.4 200.3 212.1 220.9 230.8 239.7 253.7 268.7 290.5 303.5 327.1 344.8 361.9 369.4 379.2 389.7 390.9 392 382.7 373.6 376.9 376.3 383.2 391.4 403.4 401.1 372.6 355.4 341.6 336.5 333.8 329.1 324.8 323.8 323.4 329 331.8 328.6 323.5 293.7 260.1 231.9 205.4 178 159.6 146 135.4 122.7 105 94.8 81.6 65.7 62.7 62.4 62.5 62.5 62.5 62.5 62.5 62.5 62.5 62.5 62.6 62.8 63.1 63.4 63.4 63.5 64 64.3 65.6 70.9 87.2 98.5 102.1 107.4 115.5 123.9 133.8 141.6 148.3 147.1 134.6 121.4 119.3 120.2 135.1 145 155.6 177.7 199.8 223 245.8 264.9 289 312 336.5 353.2 363 359.6 363 363 365.4 362 378.5 363.7 339.8 316.7 297.5 266.6 251.7 227.4 211.4 207.3 194.7 173.6 165.1 155.7 161.8 171.3 179.2 183.8 181.3 186.6 204 220.1 235.7 245.3 251.2 261.5 275 294.2 312.8 323 332.7 339.6 348.4 359.9 342.1 328.6 315.5 299.9 284.9 272.1 256.5 243.4 259.5 274.8 286.4 304 324.1 341.5 360.9 380.7 396.3 416.8 436.4 455.1 465.1 480.1 498.9 516.7 527.8 518.3 503.8 491.1 478.1 465.7 450.8 429.2 406.8 389.5 378.7 367.2 358.7 354.3 354.3 349.7 340.4 330.1 319.8 298.2 281.6 286.2 294 302.4 314.1
177.2 175.1 164.4 158.2 153.3 150.5 151.8 144.3 141.6 145 148.2 151.6 161.8 170.8 182.5 193 200.6 203.7 220.6 229.5 246.8 259.5 278.2 301.3 323.8 339.9 347.2 361.7 379.4 381.2 380.5 372.8 369.3 369.9 372 372 382.8 395 399.2 370.8 351.5 344.5 344.4 344.1 340.6 335 327.9 333.6 335.3 340.9 333.4 332.7 299.5 257.2 236.4 202.9 177 161.4 147.2 129.8 115.6 100.8 87.1 76.4 66 62.6 62.5 62.5 62.5 62.5 62.5 62.5 62.5 62.5 62.5 62.5 62.5 62.7 62.8 62.9 63 63.4 64.1 65.4 73.5 77 82.6 93.6 99.1 108.3 123.8 130.5 142.7 148.6 141.5 127.3 119.7 114.3 113.1 121.7 131.3 146.6 159 179.2 204.9 228.9 239.9 260.8 285.5 318.8 340.7 331.6 324.1 326.3 328.7 331.7 320.9 330.4 355.2 335.3 305.6 283 259.8 249.8 227.9 208.9 201.6 192.8 170.5 155.8 148.8 155 165.3 172.2 173.9 171.8 174.5 189.7 206.6 223.5 235.4 244.3 250.4 265.9 286.5 300.9 313.2 319.2 336.3 340 341.8 338 323.5 306.1 290.6 278.2 265.5 256.4 240.2 254.8 269.1 282.9 300.4 323.1 342.9 363.5 380.9 396.7 416.4 437.2 450.1 465.6 483.3 492.8 501.8 507.4 502.1 494.4 482 467.6 456.7 438.4 415.8 394.8 386.1 375.9 365.2 355.5 351.9 348.6 341.8 334.1 316.8 302.4 288.3 271.1 278.5 290.1 299.9 313.2
155.7 150.8 140.1 134 131 130.9 128.8 127.9 122.5 128.1 130.3 138.8 147.9 157.9 166.2 171.6 181 186.5 193.9 204.3 211.8 228.2 252.4 275.8 298.4 317.8 321.8 338 365 370.9 368.2 364.1 369.3 370.4 372 372 376.7 376.4 375.4 365.5 359.3 356.2 351.3 349.5 349.9 345.5 339.9 337.6 341.1 345.1 346.1 338.1 318.7 268.2 248.1 212.1 182.4 171 161.6 127.4 116 107.2 85.4 76.1 65.2 62.5 62.5 62.5 62.5 62.5 62.5 62.5 62.5 62.5 62.5 62.5 62.5 62.5 62.5 62.5 62.5 62.8 63.2 65.6 77.9 90.7 88.8 89.8 93.1 102.5 118 125 121 120.8 117.8 122.5 114.7 109.5 105.7 111.9 120 131.6 145 164 180.9 200.7 211.5 233.2 268.8 298.7 309.2 292.5 285 279.4 287 282.4 278.6 293.6 320.5 315.2 295.9 269.8 245.7 223.9 208.1 196.8 184.3 178.3 165.7 153.2 142.8 145 156.9 161.9 164.1 162.6 166.2 176 192.8 208.8 223 235.5 245.8 260 276.3 285.7 300.5 313.9 325.6 331.9 336.8 329.8 313.3 298.9 281.7 276.5 262.4 249.5 238.1 249.5 260.7 280 300.2 321.5 340.8 359.7 378.1 395 416.8 438.2 452.9 467.3 487.9 490.1 490.7 488.9 484.2 480.7 469.8 458.4 443.4 422 401.8 389.9 381.7 368.6 360.3 348.9 350.4 344.6 335.1 323 305.3 295.3 280.8 264.6 272.1 283.4 294.9 306.8
134.6 127.4 115.7 117 112.6 113.3 110 107.5 107.7 112.7 116.9 124.9 134.2 142.4 145.1 150.2 160.1 168.3 172.9 182.6 190.4 208 228 252.4 276.2 295.5 302.2 322.2 347.6 356 355.1 353.6 361.7 367.8 372.4 376.4 379.6 372.4 367.6 367.6 366.6 361.6 358.6 361.1 360.1 352.7 350.5 347.3 346.9 348.5 349.7 344.6 331.9 286.2 253.7 222.7 190.1 176.1 167.3 130.5 113.7 104.6 85.6 71.4 64.9 62.5 62.5 62.5 62.5 62.5 62.5 62.5 62.5 62.5 62.5 62.5 62.5 62.5 62.5 62.5 62.5 62.5 62.5 64.5 80.7 93.2 90.8 89 97.6 108.5 115.6 117.6 118 117.5 115.8 110 104.4 101.8 99 101.6 108.4 116.3 127.8 135.8 159 169.5 180.7 198.5 217 237.5 260 247.9 238.4 236 240 248.4 249.1 256 271.8 260.4 261.2 254.6 229 209.9 201.5 197.4 171.4 161.3 154.7 145.7 139 137.1 144.8 154.5 160.3 157.6 158 169.5 178.2 194.6 210.4 227 237.4 247.8 265.1 277.8 290.9 307.8 319 326.8 325.7 320.9 304.4 294.3 281.7 275.3 256.4 241.8 235.4 243.3 257.9 277.4 299.2 320.7 339.6 361.5 381.4 397 416.7 434.9 454 466.1 479.9 489.9 490.3 479.6 474.8 468.8 459.6 449.4 428.6 406.9 395.9 386.3 375.4 358.9 347.6 350.1 349.4 340.3 326.9 314.6 307.2 289.2 270.9 257.6 267.8 278.9 290 303.9
105.1 103.4 103.2 99.1 98.7 98.5 97.7 95.4 97.3 100.5 106.7 112.3 121.5 124.6 130.9 134.9 138.6 146 156.1 163.7 173 187.8 207.4 229.1 247.7 266.4 278.4 302.9 318.8 333.7 337.8 341.8 355.3 365.3 377.5 386.4 386.1 380.2 376.9 372.3 374 366.6 363.5 364.4 368.7 365.9 363.8 359.7 361.6 360 361.7 355.8 342.3 315 264.9 236.5 198.7 183.7 172.1 149.9 120.4 104.3 88.1 74 66.9 63.6 62.5 62.5 62.5 62.5 62.5 62.5 62.5 62.5 62.5 62.5 62.5 62.5 62.5 62.5 62.5 62.5 62.5 64.2 81.4 95 87.7 89.1 110.2 117.4 124.1 127.1 130 130.3 120 97.1 93.6 88.1 94.1 92.2 96.4 102.6 108.7 126.5 143.8 154.2 157.9 164.7 177.1 186.1 197.4 207.7 201.5 194.7 203.6 213 211.3 214.5 225 222.5 229.6 230.5 218.8 206.1 196.1 179.6 163 151.5 142.1 136.5 128 125 135.5 150.4 154.7 152 151.9 166.5 176.4 189.3 204.1 219.9 232.4 241.3 248.7 265.9 280.9 299.3 305.1 315.4 318.1 312.5 292.6 289.3 272.7 264.7 252.3 239.2 228.8 231.6 249.8 275.8 300.6 321.4 340.8 361.1 382.9 401.6 416.8 437.2 449.6 461.7 473.1 482.4 485.6 473.3 465.7 460.1 451.2 439.1 418.5 395.8 385.5 374.3 359 347.3 345.4 349.3 345.3 332.1 321.2 313.7 297.7 277.9 261.3 251.2 263.2 274.4 287.7 301.1
88.5 87.8 91.4 91.1 90.2 89.6 89.7 90.4 90.7 92.4 96.4 101.5 108 113.4 119.2 121.2 127.2 133 142.1 151.8 157.6 169.2 191.5 207.8 225.4 236.4 255.7 273.8 292.3 308.8 319.9 335.4 349.7 361.9 374.9 381.4 383.1 384.7 387.8 377.6 376.9 372.6 364.8 369.1 378 378.9 370.5 373.6 374.3 379.8 362.1 359.5 343.1 321.1 270.9 235.8 203.3 188.3 180.2 167.5 124.8 111 89 77.5 69.3 66.4 62.5 62.5 62.5 62.5 62.5 62.5 62.5 62.5 62.5 68 63.8 62.5 62.5 62.5 62.5 62.5 62.5 63 80.5 81.9 81.3 92.7 103.6 117.9 130.2 133.2 136.8 128.1 115.2 88.9 85.5 80.8 78.5 80.5 90 91.5 94.9 111.9 135.5 127 133.3 132.6 147 149.9 152.9 156.4 150 160.4 177.3 181.7 177.5 177.8 178.6 183.6 199.6 204.3 201.3 194.4 187.6 166.7 154.3 143 136.3 131.3 122 124.8 128 131.1 147.9 146.3 139.3 155.9 169.4 182.5 194.6 212.8 220.6 228 237.8 248.6 270.4 288.4 289.5 294.9 299.3 301.7 285.8 278.5 269.8 262.3 254.2 240.8 231.8 226.6 246.8 275.7 301.8 321.2 342.1 359.7 383.9 401.9 417.9 432.2 442.5 454.1 465.6 469.1 468.9 461.5 458.4 452.4 441.5 424.6 401.6 383.9 369.6 358.3 349.1 343.6 346.7 343 337.7 328.5 310.1 300.3 286 267.8 250.6 247.1 259.5 271.5 283.6 294.4
87.8 86.1 85.3 86 86.4 86.1 86.3 87.5 87.4 87.3 87.9 94.3 97.2 101.2 104.4 108.5 114.9 124.9 131.1 137.2 142.2 155.1 168.9 187.6 209.9 216.3 236.5 250.4 271.8 290.4 295.2 323.5 339.2 349.2 364 376.3 383.8 381.5 382.6 375.9 370.6 370.4 365.7 370.5 380.2 381.2 380.3 381.8 381.1 393.8 377.2 346.7 339 326.2 277.2 239.4 204 189.3 176.1 163.8 131.5 118.9 92.5 79.4 71.2 67.9 64.2 62.5 62.5 62.5 62.5 62.5 62.5 62.5 65.5 69.6 62.5 62.5 62.5 62.5 62.5 62.5 62.5 62.5 70.2 68.3 74.8 86.3 103.2 124.4 131.4 128.8 130.3 125.3 108.2 86.2 78.6 82.6 69.4 71.2 91.2 79.4 78.1 88.7 91.7 102 104.1 115.2 117.9 121.9 123.3 125.1 123.4 128.9 145.9 157 146.7 142.2 151.2 160 164.3 169.9 173.5 179.9 173.2 158.1 145.8 133 130.7 123.6 112.9 112.3 120.1 126.1 130.7 132 128 146.6 160.9 172.8 184.4 205.6 208.3 221.3 231.2 239.4 259.6 272.6 280.8 286.6 287.1 294.6 280.4 277.6 270.6 263.1 251.6 237.3 215.1 230.4 252.7 277.3 302.3 323.5 340 359.5 383.2 400.6 418 429.6 437 447.8 452.9 456.5 456.8 454.6 450.9 442.6 430.3 407.7 388.7 372.2 359.7 349.8 343.2 344.3 342.9 337.5 331.6 323.4 300.4 286.5 274.5 256.8 243 246.9 259.7 271.7 282.9 292.2
87.6 86.6 85.6 84.6 84.3 84.3 84.4 87.2 86.6 85.9 85.2 85.6 87 91.3 96.3 101.2 106.3 113.3 118.6 125.5 128.9 139.2 149.5 170 184.2 199.6 217.7 233.8 252.8 268.2 284.6 306 320.7 334.5 354.1 374.9 382.3 378.4 377.4 372.2 369.3 369.6 364.8 370.9 379.1 381.5 388.6 389.9 385.2 388.1 376.4 351.2 323.2 315.2 276.4 236.6 204.4 192.2 180.8 159.4 144 117.3 102.3 84.2 77.2 76.5 71 62.5 62.5 62.5 62.5 62.5 62.5 62.5 62.5 66.8 62.5 62.5 62.5 62.5 62.5 62.5 62.5 62.5 65.7 71.4 84.3 93.2 118.1 128.4 139.4 128.3 118.5 111.7 105.6 79.2 64.1 66.8 62.4 63.1 65.2 63.3 64.3 65.1 75.5 84.8 99.1 107.5 102.5 102.2 99.2 100.9 106.1 108.9 114.8 123.1 121.4 121.5 120.3 132.3 141.3 152.3 156.8 161.3 159.4 145.6 135.6 128.4 118.8 114.8 104.5 102.9 115.2 112.4 116.9 116.7 118.9 137.2 150.4 161.6 176 189.2 204.1 212.7 216.9 231.9 245.5 257.4 272.9 278.5 283.8 291.2 280.1 272.7 269.2 259.6 249.6 225.5 215 233.3 252.3 275.9 301.6 325.5 347.9 356.7 377.1 395.1 411.2 423.2 432.1 441.2 449.9 451.3 450.1 448.1 443.3 428.9 413.5 394 375.8 365.3 359.1 346.5 342.1 342.4 337.5 332.1 319.4 304 288.7 276.2 259.9 244.3 233.8 247 258.4 269.8 280.5 289.5
87.9 86.6 85.4 84.5 84.3 84.2 84 86.3 85.5 84.7 84.6 84.5 84.7 87 90.2 93.1 96.9 103.3 106 109.4 116.8 124.4 134.6 149.5 168.6 185.3 203.1 223.5 235.2 243.4 267.1 281.4 302.3 326.7 354.4 371.8 381.3 378.4 373.6 376.3 371.1 368.5 363.9 367 376.1 382.6 387.6 388.5 381.6 370.1 364.2 333.8 297.9 287.7 265.2 228.8 210.7 196.6 178.7 160.1 144.4 128.4 119.9 104.4 93.6 89.1 73.8 67.4 62.5 62.5 62.5 62.5 62.5 62.5 62.5 62.5 62.5 62.5 62.5 62.5 62.5 62.5 62.5 62.5 62.5 76.1 91.4 102.6 111 121 127.6 123.8 109.1 101.3 92.3 64.4 63.5 58.2 59.5 60.7 57.4 56.4 55.6 57.7 64 68.1 74.6 84.1 96.8 95.3 88.1 87.9 89.3 95.6 106.2 108.6 106.1 102.2 96.3 109.4 119.5 134.3 143.5 146.9 141.8 134.9 125.8 118.8 112.2 106.9 102.8 93.5 97.7 100.3 105.4 107.5 111.8 129.4 142.1 153.1 168.6 182 200.6 202.6 211.5 225.7 237.9 248.1 262.2 271.4 281.1 290.3 277.5 267.3 261.3 257.9 246.3 222.7 208.3 230.7 254.6 280.3 304.5 328.9 348.4 354.5 366.6 384.1 401.5 415.8 425.8 435.4 444.6 444.7 441.7 437.3 431.2 417.3 403.1 389.3 375.9 366.1 357.6 345.4 340 337.2 331.7 319.2 303.7 294 283.9 269.2 250.7 230.3 232.9 247 253.4 265.6 278.1 288.3
87.7 86.5 85.3 84.5 84.2 84.1 83.9 85 84.3 84.1 84 83.9 83.8 84.6 85.6 86.4 90.6 93.4 96.7 100.1 105.5 113.2 122.2 136.5 156.1 168.7 191.4 214.7 218.4 229.9 247.4 272.7 294.6 326.1 344.6 361.6 381.2 377.6 371.8 378 374.2 363.9 360.2 366.1 376.6 381.2 381.9 381.6 373.7 359.5 342.1 311.6 281.4 265.2 250.5 226.1 213.4 195.4 183.8 159.9 152.6 142.7 127.4 112 109.8 91.9 77.6 72.6 68.3 63.3 62.5 62.5 62.5 62.5 62.5 62.5 62.5 62.5 62.5 62.5 62.5 62.5 62.5 62.5 62.5 69.4 88.2 100.4 103.3 107.1 114.4 111.8 101 89.6 74 61.1 56.3 56.5 56.8 56.6 56.1 56.1 55.6 55.7 57.2 59.2 63.8 77.1 80.2 74.6 73.4 74.7 72.1 77.6 82.3 91.4 89.6 85.6 82.7 92.3 103.2 119 128.7 128.9 130.4 123.8 115.9 111.1 106.4 100.8 98.3 89.9 90.9 96.6 95.2 98.3 99.3 117.8 132.8 145.7 158.8 174.4 184.5 190.9 205.4 221 231.8 240.3 255.4 266.3 275.2 280.3 271.6 265.7 259.8 254.3 237.7 216.9 208.3 228.5 252.4 280.8 301.3 324.5 339.7 357.3 367.6 377.5 394.4 407.1 418.8 425.4 430.5 437.9 430.6 430.2 420.7 407.5 394.9 383.6 373.7 364.1 351.6 344.4 338 333.8 321 304.2 295.9 289.5 276.2 258.9 241 226.6 235 239.3 248.8 261.9 275.1 286.6
87.6 86.4 85.5 85.1 84.8 84.4 84 83.6 83.6 83.5 83.5 83.5 83.4 83.4 83.6 84.1 84.4 83.7 88.3 93.1 94.7 99.9 108.5 122.8 137.5 151.1 176.5 193 198.3 215.6 237.4 259.5 281.8 314.7 336 354.3 371 370.7 369.7 377.2 374.5 361.9 359.4 364.3 373 381 380.8 373.6 364.3 342.9 308.9 286.5 266.4 250.6 238.6 223.9 212.2 197.9 184.5 167.8 164.1 148.8 139.2 127.9 117.5 96.4 87.6 77.7 69.3 67.3 65.7 62.5 62.5 62.5 62.5 62.5 62.5 62.5 62.5 62.5 62.5 62.5 62.5 62.5 62.5 70.6 83.8 92.5 97.4 102.3 104.1 103.1 99.7 78.8 64.5 56.4 55.4 55.3 55.6 55.9 55.5 55.3 55.3 55.4 55.3 55.4 57 63.5 66.4 64.8 66.8 63.2 64.9 68 71.2 77.2 75.9 72.3 67.4 76.6 89.2 95.3 104.5 108.1 109.6 113.7 111.1 104.7 99.4 95 93 87.1 86.5 89.5 88.5 90.9 92.6 104.1 116.9 134.8 148.9 167.5 178 181.9 198.5 213.5 225.4 235.6 247.2 258.9 265.5 271.8 266.3 264.1 260.3 250.4 230.9 209.1 206.9 227.2 254.9 283.7 302.9 322.5 340.4 358.1 367.8 377.6 390.2 401.6 410.8 418.4 422.5 424.1 424.1 424.8 414.2 399.1 388.7 379 370.4 357.6 347 342.3 336.8 326.6 312.8 303.9 294 279 263.5 249 234.1 222.8 227.7 236.3 248.3 260 271.9 283.6
87.4 86.6 85.9 85.7 85.5 85.1 84.7 84 83.6 83.5 83.5 83.4 83.4 83.3 83.2 83.4 83.5 83.7 85.2 86.4 88.5 94.5 99 109.8 123.9 140.1 160.7 166.3 183.5 202.7 224.9 245.2 270.7 298.3 325.5 348.6 363.5 359.7 366.7 370.5 373.5 365.3 359.3 364.9 373 380.9 375.4 367.2 352.3 328.3 299.9 276 261.4 244.5 229.6 221.4 210.4 201.2 186.7 175.4 173.6 163.6 143.4 134.2 125.2 107.9 96.7 85.7 76.1 71.6 69.7 63.7 63.5 62.5 62.5 62.5 62.5 62.5 62.5 62.5 62.5 62.5 62.5 62.5 62.5 70 82.8 90 93.7 96.8 97.3 88.4 82.3 67.6 56.3 55.8 55.3 55.3 55.3 55.3 55.3 55.3 55.3 55.3 55.3 55.3 55.3 55.3 55.7 57.1 56.4 56.6 58.1 57.7 61.3 64.1 63.4 59.6 58.8 62.5 70.4 78.5 86 90.1 94.2 104.9 103.5 94.9 90 86.6 85.4 79.3 79.4 80.5 80.4 80.9 84.9 94.6 107.7 121.8 136.5 155.6 166.5 172.4 187.7 201.2 212.6 226.4 241.4 253.8 261.5 270 262.1 258.7 253.4 246.6 225 204.1 203.6 231.3 256.4 284.4 302.8 321.8 340.8 353.6 363.6 373.3 385.1 394.8 401.7 409.3 420.4 420.7 416.2 412.8 398.8 392.2 382.5 371.6 358.7 347.4 339.3 335 333 321.5 310.6 301.8 288.6 269.5 252.4 237.3 225.3 219.4 225.4 233.7 248 261.2 272.1 281.1
87.3 87 86.5 86.3 86.2 85.8 85.1 84.3 84.1 83.7 83.4 83.4 83.3 83.2 83.1 83 82.9 83 83.8 84.1 84.4 89 96.3 106 115.8 129.7 142.7 154.2 175.1 196.1 214.6 233.9 256.3 281.2 305.4 324 337.2 347.8 359.4 371.2 380.3 368.4 350.2 363.4 371.6 374.4 366.3 359.4 347.9 325.4 289.4 269.4 256.8 241.7 226.7 216.7 208.7 203.2 192.9 189.7 187.1 170.4 149.8 139.6 132.8 128.4 112.1 95.8 82.6 78.4 73.9 67.3 69.5 64.1 62.5 62.5 62.5 62.5 62.5 62.5 62.5 62.5 62.5 62.5 62.5 67.2 78 86.7 90.2 96.8 93.5 83.6 72.4 67.6 56 55.4 55 55.3 55.4 55.3 55.3 55.3 55.3 55.3 55.3 55.3 55.3 55.3 55.3 55.3 55.3 55.3 55.3 55.3 55.7 55.3 55.3 55.3 55.3 55.3 58.7 65.8 70.8 70 79.5 83.5 89.1 87.2 82.9 77.5 78.2 77.1 75.8 73.7 74 74.7 78.7 86.1 100 114.3 125.6 143.6 151.4 164.1 181.5 195.5 207.6 220.4 235.4 248.1 259.6 263.9 256.1 253.1 245.7 237.7 219.9 197.3 200.5 227.5 255.8 280.5 303.9 323.4 339.9 350.5 361.8 373.4 381.3 390.2 397 403.9 419.9 420.5 409.2 396.9 389.6 378.9 369.5 354.8 344.2 336.9 331.9 327.9 320 310 303.9 288.5 271.8 256.7 240.3 229.1 221.4 218.5 226.5 241 252.8 262.3 272.6 281.7
88.5 87.9 87.7 86.9 86.8 86.2 85.3 84.7 84.6 84.2 83.7 83.3 83.3 83.4 83.6 83 82.8 82.6 82.5 83 83.6 84.7 90.4 100.3 109.4 122 134.8 153.6 169.1 189.2 209.5 231.7 253.9 277.3 304.5 314.4 321.2 334 353.3 364.6 366.7 359.7 347.8 357.2 364.6 364.4 351.4 345.1 338.3 313.3 281.3 268.6 250.3 238.4 225.6 216.9 208.9 204.9 200.1 196.9 185.3 170.2 157 156.2 150 142.2 125.8 107.5 91.8 89.3 78.9 73.6 80.5 70.9 62.5 62.5 62.5 62.5 62.5 62.5 62.5 62.5 62.5 62.5 62.5 65.1 73.2 85.3 91.5 95.6 98.5 81.7 71.1 65 57.1 56.1 57.3 57.1 56.2 55.8 55.7 55.3 55.3 55.3 55.3 55.3 55.3 55.3 55.3 55.3 55.3 55.3 55.3 55.3 55.3 55.3 55.3 55.3 55.3 55.3 55.3 56.8 57.7 59.8 64 68.9 77 84.6 79.8 71.7 68.4 68.6 69.2 71.7 68.9 68.9 73.7 80.2 91.3 110.9 117.1 130.5 140.9 161.6 173.9 191.4 202.8 214.6 229.5 237.2 249.2 254.9 242.1 240.1 231.4 226.7 215.9 193.5 203.1 224.4 255.2 282.6 303.1 322.4 336.3 349.1 362.1 373.3 380.7 387.5 392.4 398.2 410.1 405.8 398 390.1 380.6 367.3 354.6 344.2 335.1 329.2 323.7 315.9 308.6 304.2 292.5 282.4 259.7 245.1 229.3 220.8 214.5 217.9 228.5 231.7 244 254.7 268.3 280.4
91.1 91.5 93 90.3 91.4 89.7 86.1 85 85 84.6 84.4 83.7 84 84.1 83.5 82.9 82.7 82.6 82.5 82.9 83.3 85.2 87.4 91.2 100.6 112.3 132.5 146.2 161 179.6 200.9 222.1 254.8 279.5 294.5 300.9 308.4 325.4 344.2 350 357.7 349.7 339.9 353 360 349.9 343.4 339.8 327.6 307.1 284.4 264.8 253.4 241.1 231.8 223.8 216.1 210.3 202.2 189.9 186.4 170.9 163.9 167.2 161.6 158.8 134.1 116.7 100.4 96.8 85.8 83.3 83.8 73.7 66.4 62.5 62.5 62.5 62.5 62.5 62.5 62.5 62.5 62.5 62.5 67.1 79.3 91.3 86.4 96.2 95.5 80.3 73.4 63.5 58.1 61.1 72.4 67.2 58.7 57.7 56.8 55.3 55.3 55.3 55.3 55.3 55.3 55.3 55.3 55.3 55.3 58.1 55.3 55.3 55.3 55.3 55.3 55.3 55.3 55.3 55.3 55.3 55.3 55.3 55.3 57.6 62.7 71 72.6 66.1 62.6 62.5 64.9 68.1 65.4 66 69.4 74.8 82.3 95.9 111.5 126.8 137.4 154 170.7 184.2 197.2 205.5 218 232.7 244.5 249.9 240.9 233.8 230.1 218 204.5 186.1 203.8 221.9 254.7 282.4 307.3 325.6 338.3 349.9 361.6 373.5 380.5 384 388.2 391.6 397.6 397.7 390.8 383.7 373.7 358.6 344.9 335.6 326 322.6 315.6 308.1 301.2 295.1 280.9 266.6 255.6 239.9 221.2 215.1 210.3 217.3 226.2 235.9 246.9 262.7 274.4 283.5
101.1 102.7 104.1 101.8 101.9 96.9 92.6 89.9 86.3 84.9 83.9 84.3 84.6 83.9 83.1 82.9 82.8 82.7 82.5 82.9 83 83.1 84.8 88.7 96.8 106.3 117.7 131.6 147.4 171.3 192 213.1 244.5 269.8 293.6 291.9 301.8 320.2 335.2 345.1 348.8 339.6 341 335.4 338.3 341.5 336.6 330.9 320.5 299.6 286.7 273.8 258.5 246.6 236.6 227.7 220.7 213.6 201.6 189.4 188.5 182.6 180.1 179 174.8 168.4 148.5 124 113.1 103.4 93.3 89.6 88.9 83 71.7 65.7 62.5 62.5 62.5 62.5 62.5 62.5 62.5 62.5 62.5 69.9 80.2 79.6 82 82.7 75.8 72.1 67.4 60.3 57.5 72.5 76.6 59.4 59.6 59.1 57.5 56.6 55.3 55.3 55.3 55.3 55.3 55.3 55.3 55.3 55.3 55.3 55.3 55.3 55.3 55.3 55.3 55.3 55.3 55.3 55.3 55.3 55.3 55.3 55.3 55.3 59.8 60.6 60.5 61.3 60.6 60.6 61.2 63 63.8 61.3 63.3 65.4 72.9 80.5 96.4 116.9 130.5 147.3 159.9 171.6 183.6 197.7 210.2 224.7 234.2 238.5 232.9 226.8 225.3 214.4 197.6 178.3 197.4 221.1 253.4 284.6 308.3 323.9 340.9 350.7 360 372 380.5 380.4 383.1 386.3 389.4 392.8 386.8 374.7 360.5 342.6 333.8 323.9 315.6 313.7 307.4 298.8 290 282.3 268.3 256.8 247.6 230.9 214.3 208.2 212.4 220 228.9 240.1 252.5 265.9 279.3 289.7
115.2 117.9 118 118.2 116.1 112.3 108.1 102.5 94.9 89.7 85.7 84.2 83.7 83.1 82.9 82.9 82.8 82.7 82.6 82.8 83 83.2 83.8 85.1 89.2 99.6 109.9 121.4 137 160.8 183.7 204.7 234.6 257 278.3 281.6 294.6 313.1 319.4 336.1 334.6 330.5 333 329.8 326.6 323.4 327.2 323.8 317.2 295.1 284.7 272.7 263.5 253.5 242.7 233.3 228.9 220.4 206.2 201.1 195.9 191.8 186.7 185.3 184 173.2 159.7 135.8 123.1 111.8 101.3 95.9 93.7 90.6 78.2 69.7 67.6 65.5 62.5 62.5 62.5 62.5 62.5 62.5 62.5 66.5 69 69.1 68.1 70.8 71.1 72 65.3 58.7 62.3 75.8 82.8 68 66 61.2 59.4 59.6 59.1 57.8 59.3 55.3 55.3 55.3 55.3 55.3 55.3 55.3 55.3 55.3 55.3 55.3 55.3 55.3 55.3 55.3 55.3 56.1 56.7 57.2 58.3 56.5 57.2 59.3 55.7 57.7 59.4 59.1 58.5 58.9 61.2 58.9 60.1 63 68.1 72.9 87.7 111.3 126.5 141.4 153.1 162.2 176 187.7 201.4 217.5 224.9 225.4 230.8 223.7 219.3 206.8 188.4 175 196.9 224.2 256.8 285.1 309 324.9 339 349 357 368.7 373.9 376.1 379.3 381.4 380.3 381.5 372.2 359.6 345.4 335.4 323.2 311.4 307.8 304.9 292.4 281.7 272.3 265.8 254.5 245 230.2 216.9 208.4 205.4 213.9 221.5 233.1 243.7 256.9 270.5 284.7 295.2
132.9 139.9 141.1 138.6 141.3 134.1 132.2 129.4 123.2 103.3 91.3 88.1 83.2 83 82.8 82.9 82.8 82.7 82.7 82.7 82.9 83.1 83.3 82.6 84.6 93.5 104.8 114.5 131.1 153.9 173.8 193.5 218.3 251.9 268.8 263.8 285.1 295.7 308.6 327.1 330.9 327.9 331 330.5 311.4 307.4 309.6 305.4 295.2 291.3 284.1 270.9 265.2 256.3 242.9 239.4 236.6 230.6 216.8 209.9 205.8 202.5 202.8 198.9 189.2 178.7 166.4 150 135.5 130.4 114.4 107.3 108.7 100.7 92.3 78.5 72.2 68.6 62.5 62.5 62.5 62.5 62.5 62.5 62.5 63.1 62.9 64.2 66.6 71.5 75.5 64 57.7 59.2 80.5 87.4 80.2 69 68.5 65.3 63.3 62.6 62.7 61.5 60.4 56.4 55.3 55.3 55.3 55.3 55.3 55.3 55.3 55.3 55.3 55.3 55.3 55.3 55.3 55.3 59.5 60.9 61.9 61.8 63.5 60.2 59.7 63.7 61.5 55.4 56.4 60.7 56.6 56.1 58.1 57.9 57.9 60.5 67.3 73.6 84.6 95.8 113.2 130.9 139.6 150.3 164.5 176.3 189.9 206 207.4 214.5 215.2 215.2 207.7 195.4 177 178.7 200.7 228.3 258.9 289.6 310.7 326 336.3 349.4 356.6 364 367 371 374.9 379.4 373.4 365 357.4 348.7 336.6 327.5 316.8 299.4 299.5 291.2 279.5 270.7 263.6 254.3 246.1 229.9 212.5 206.9 201.9 206.3 214 223.4 239.5 251.1 263.5 277 290.9 300.8
155.5 165.9 164.4 160.8 166.2 162.6 159.5 156.4 149.3 132.1 113.3 102.8 86.8 83 82.7 82.8 82.7 82.8 82.9 82.6 82.8 83 83.1 82.7 82.7 86.8 95.3 107 127.3 145.2 166.8 185.5 206.6 235.3 253.8 253.8 271.6 282.2 299.5 319.4 313.5 319 322.6 329 311.4 280.2 267.6 278.9 284.7 290.6 283 275.8 270.1 261.8 247.9 243.3 241.1 240.1 232.1 220.3 216 213.4 210.9 206.5 195.7 186.4 177.9 159.8 153.7 148.6 136.4 122.5 122.8 120 112.1 91.6 90.2 76.9 68.9 62.5 62.5 62.5 62.5 62.5 62.5 62.5 62.5 66.9 69.4 67.7 63.4 58.9 61 71.6 93 94.5 80.3 70 68.2 68 70.5 72.4 69.2 66.1 62 59.8 57.4 55.3 55.3 55.3 55.3 55.3 55.3 55.5 55.7 55.3 55.3 55.3 58.3 64.9 71 75 84.8 83.7 73.4 69.6 68.2 65.8 59.3 55.3 52.2 54.3 54.7 53.2 53.1 53.7 55.7 60.8 67.5 68.2 77.2 87.5 102.5 115.4 127.2 138.6 153.6 165.2 179.7 190.9 196.7 206.8 206 205.5 199.1 189.2 168.7 182.7 203.6 232.7 260.4 288.3 310.8 323.3 334.6 340.6 349.1 357.1 362.4 367 369.4 370.5 364.1 356.9 347.5 338.6 327.8 315.3 302.7 291.7 290.5 279.3 270.9 263.5 253 241.9 232.9 221.5 200.6 197.2 198.1 204.5 217.2 230.7 244.3 257.9 270.5 283.9 296.9 306.4
176 185.5 192.4 186 187 191.8 189.4 190.1 169.6 163.5 137.4 112.4 94.2 86.8 87.5 82.7 82.8 83 83.7 82.7 82.9 82.8 82.9 83.1 83.2 89.9 93.5 98.2 115.7 134.7 154.6 175.3 194.9 219 243.3 235.4 259 270 286.2 306 304.9 301 307.1 317.1 305.3 271.3 235.8 240.2 266.4 290.3 286.5 280.7 275.9 263.7 252.1 248.2 246.6 245.9 242.8 230.2 222.3 220.8 218.7 214.8 208.7 202.2 192.6 173.9 179.2 168.5 152.7 133.7 132.3 139.6 127.9 102.9 101.8 87.3 72 64.9 62.5 62.5 62.5 62.5 62.5 62.5 62.5 68.7 63.6 60.2 64.2 68 76.2 87.1 101.9 100.3 88.9 77.9 72.1 76.1 84.1 81.9 76.5 70.4 68.1 67.2 67.7 66.7 66.7 69.5 59.9 57.9 64 60.4 59 57.4 61 63.5 74.6 80.4 88.5 92 97.5 92.4 90.8 79.8 78.9 75.8 60.1 56.7 54.6 52.1 52.2 53.4 52.5 53.3 56.8 63.9 65.7 68.4 81 79.5 91.5 102 113.2 126.9 141 154.2 168.8 178.5 191.4 203 202.4 196 189.9 179.8 163.8 185.3 207.6 234.6 261.1 282.7 303.6 317.7 328 334.8 344.1 352.2 357.6 360.4 362.2 362.6 356.6 352.1 342.3 329 315.1 305.4 290.1 281.9 279.3 273.1 261 254 240.6 229.1 220.4 206.7 193.9 195.3 202.1 208.5 222.6 238 252.3 266.6 276.8 290.5 302 313.5
183 203.9 208.3 206.7 206.1 210.5 210.8 208.5 190.9 162.5 131.7 113.1 103.4 98.3 98.3 88.7 88.9 84.5 82.9 82.8 82.8 82.5 82.3 82.5 82.8 88.7 95.4 95.2 107.4 126.1 143 167.8 187.2 210.7 220.6 226.8 257 263.9 278.7 298.8 276.9 285.7 295.6 288.8 280.3 243.9 224.3 208.2 242 279 282.9 279.6 279.2 273 265.1 257.5 255.4 256.8 251.7 242.3 231.3 228.9 224.9 221.2 218.9 211.6 200 197.2 191.2 178.9 156.3 148.2 144.9 153.1 131.9 126.7 125.2 105.5 91.4 70.2 65.3 62.5 62.5 62.5 62.5 62.5 62.5 65.6 73.8 74.9 82.7 85 91.5 102.5 115.6 107.9 99.2 84 80.3 89.2 92 89.4 87.4 79.8 77 76.2 82.5 87.7 85.9 81.4 69.6 67.2 72.1 68.9 62.7 66.5 76.7 82.4 91.6 99.2 104.6 106 109.9 113.8 104.5 93.2 84.9 77.7 67.6 60 57.8 51.9 51.3 52.8 52.4 54.8 60.8 66.7 67.6 68.5 80.1 77.5 83.1 93.1 104.9 117.6 132.7 142.2 157.4 170.1 181.4 187.5 191.9 185.2 178.6 168.3 169.6 189.8 208.1 233.5 260.4 280.6 298.1 313.6 324.5 332 336.8 347.2 353.1 354.8 354.7 352.2 347.8 338.1 331.9 321.2 304.7 290.8 283.4 274.5 271.3 261.8 254.6 245.3 230 215.2 202.1 191.7 192.7 195.9 204.5 216.6 232.5 247.3 261.3 273.6 282.5 298.5 311.8 323.9
194.3 222.5 232.7 225.9 222.9 226.4 227.2 210.7 187.7 168 146.7 136.9 118.3 104.1 99.9 95 98.8 96.6 84.8 82.7 82.4 82.2 81.8 81.6 81.7 86.3 91.2 93.3 100.7 120.1 133 152.2 182.3 195.3 202.3 219.8 236.5 246 259.1 260.5 258.4 275.6 272.9 254.2 234.6 219.8 211.5 192.3 231.5 267.9 278.9 278.8 280.7 280 272.2 267.4 259.7 268.8 262.3 250.1 238.3 234.8 231.1 229.1 225.2 220.6 219 216.1 210.7 187 169.2 163.7 155 163.3 148.4 143.5 136.3 127.1 111.5 95.7 86 69.5 67.7 62.5 62.5 62.5 70.8 77.9 85.4 89.5 96.4 106.3 108.1 125.4 124.3 116.3 108.9 96.2 90 96.5 97.4 94.9 91.7 89.3 86.3 89.5 96.6 103.6 103.2 91.5 80.1 77.1 75.8 70.5 69.2 78.5 94.2 105 109.3 116.2 120.2 123.5 125.4 125.5 113.9 105.6 101.7 92.5 84.4 72.8 62.3 51.7 51.1 51.1 50.9 56.7 67.9 70.6 74 67.5 70.5 72.6 76.2 85.1 96.8 108.4 117.8 137.1 150.8 164.1 178.4 185.9 182.6 173.3 158.6 155.8 176.7 197.1 211.9 232.5 253.5 275.6 289 302.4 317.2 325.9 332.6 340.9 349.5 350.3 346.4 341.6 331 325.3 316.9 308.8 294.3 279.6 270.8 264.3 261.2 252.7 243.1 237.1 219.3 204.8 192.6 188.9 195.2 198 209.1 222.9 238.6 256.3 271.6 281.2 293 307 321.7 332.9
237.2 234.2 247.9 250.4 242 249 242.8 241 205.9 177.7 156.7 136.3 117.8 104.4 96.3 92.9 96.6 95.6 84.7 82.7 82.4 82 81.7 81.2 80.9 81.9 84.2 87.7 97.6 115.1 123.8 141.1 168.6 182.1 192.7 209.4 230.1 240.5 245.6 235 243.3 258.1 254.2 237.6 224.6 212.7 190.1 178.3 214 249.6 259.4 267.5 279.6 280.7 272.8 269.6 263 270.1 269.2 269.4 248.2 239.9 234.6 232.1 229.2 229 228 226.8 220.7 198.8 185.1 175.9 167.9 168.9 164.5 158.9 151.3 141.3 131.9 118.8 120.9 104 95.7 83.3 74.6 76.1 85.5 92 97.2 104.6 110.6 126.5 134.6 143.2 142.5 136.5 124.3 109 107.3 106 102 100 97.9 97.7 96.1 98.3 109.7 117.1 113.6 108.8 93.2 89.7 85.3 78 88.6 99.3 103.4 124.3 129.6 129.2 136.5 142.8 142.8 141.3 136.1 134.9 126.7 114 108.5 89.3 67 52 50.6 50.8 52.6 64.3 71.6 72.6 71.7 67.1 67.5 70.7 71.1 78.4 87.9 99.6 110.4 129.4 144 156.1 168 175.1 170.9 159.3 143.9 167 183.5 200.4 213.1 226.1 243.2 264.7 282.1 293.5 311.5 319.8 327.7 336 343.4 346.3 339.1 328.3 324.2 313.4 300.9 293 284.6 272.6 262.6 254.6 248.5 241.1 230.7 223.1 206.9 191.9 182.6 188.9 197.4 203.8 215.8 229.8 245.5 261.3 275 287.6 302.9 315.9 327.8 340.5
255.2 252.3 260.5 257.9 258.4 269.3 272.4 263.1 226.7 189.8 163.4 134.4 113.5 104.5 94.8 89.5 91.3 91 84.6 82.6 82.2 81.9 82 81.4 80.8 81.1 82.2 82.7 89.3 109.2 118 130.5 148.6 164.6 177.3 196.2 214.8 227.9 221.8 211.6 218.1 235 223.1 227 224.1 214.5 186.8 167.5 199.9 220.5 221.2 232.8 234.7 241.8 253.5 266 261.4 270.6 278.5 272 263 252.7 235.1 231.5 231 237.4 233.3 238 222.9 211.5 205.4 187 176 179.1 181.1 180.8 170.1 158.6 153.7 142 142.1 121.7 114.6 111.2 100.3 94.1 100.2 106.8 112.6 121.9 132.8 146.8 158.9 169.6 169.2 155.1 140.8 138.7 134.3 122.5 115.8 114.6 108.3 102.4 103 108.5 120.6 119.9 121.3 112.8 112 95.1 94.2 92.8 105.9 115.5 113.2 131 141.8 142.5 149.9 159.3 159.9 164.4 160.2 159.1 152.3 141.4 135.4 98.6 69.4 56.6 49.6 49.3 54.2 61.9 66.9 69.4 66.8 62.3 65.9 68.7 67.9 73.7 82.6 89.7 106 124.5 138.6 149.9 158.5 163.4 159.9 135.1 149.3 172.5 187.2 195.1 207.5 221.8 235.4 250.6 275.3 289.1 302.3 313.3 323 330.1 341 344.5 335.5 318.6 313.2 301.8 291.2 276.2 272.9 264.1 253 242.2 235.4 229 219.7 215.1 194.7 181.1 184.9 190.5 198.6 212.7 225.2 238 253.2 266 281.6 295.1 309.9 322.9 336.2 349.3
277.2 266.4 275.5 273.9 277.8 292.3 293.4 274.4 241.8 210.7 179.2 144.8 123.3 108.2 98 89.3 87.2 86.2 84.2 82.3 81.6 81.8 82.2 81.7 81.7 81.3 81.8 82.7 87.5 98.9 108.2 122.5 136.3 150.5 161.4 182.7 204.4 215.2 209.8 191.9 193.6 198.3 200.6 201.2 194.1 184.6 169 149.9 177.9 191.8 198.7 195.7 197.1 205.4 223.1 237.1 251.4 266.5 278.9 278.1 280.4 270.5 238.4 233.1 235.8 234.1 236.2 243.3 227 222 209.1 194.7 188.8 186.1 189.7 193.5 189.6 175 171.6 156.9 148.3 138 138.1 135.9 124 121.3 125.7 132 135.9 141.4 158.4 174.1 195 207.3 207.6 180.3 160 159.1 156.7 142.6 139.4 134.1 123.9 116.7 120.1 124.4 127.3 132 130.2 134.9 121.1 101.3 102.4 107.3 116.8 120.9 123.2 142 149.8 152.2 166.7 176.6 178.2 187.2 188 177.6 168.3 154 131.4 104.2 65.3 55 49.4 48.3 52.4 56.3 62.6 64.5 62 60.3 64 70.6 66.1 67.7 78.4 88.2 106 121 131.6 140.3 151.2 154 149.5 136 153.9 171.2 187.6 192.6 207.6 223.5 235.5 244.3 265.9 281 295.7 308.4 314.2 325.9 329.1 334.4 325.9 309.1 296.3 290.3 279.5 266.9 259.3 254.4 243.7 231.1 222.1 214.5 206.6 200 181.7 180.5 185.5 194.5 206.7 223.2 235.7 245.9 258.8 273 285.9 304.4 318.9 329.2 345 357.6
297.1 287.2 287.4 289.5 296.7 308.6 308.7 300.3 268.7 226 192.7 161.2 133.3 118.4 104.2 90.6 84.5 83.6 82.8 81.6 81.3 81.7 82.1 82.1 81.7 81.3 81.5 82.5 84.8 94.9 102.6 111.4 122.9 132.4 149.5 169.8 177.6 182.7 174 167.3 175.3 181.8 177.9 174.1 167.2 160.9 141.5 142 151.7 148.5 150.3 157.9 170.3 187.1 214.6 227.9 238.1 247.9 254.3 257.7 265.8 267.9 243.3 233.3 239.6 236.2 240 241.1 234.9 230.1 218.5 210.1 196.7 193.9 197.5 206 203.4 191.9 181.7 168.3 157 147 154.5 158.7 146.5 149.9 155.9 161.7 166.5 170.8 186.8 204.6 224.2 242.8 239.2 213.5 183.6 182.9 181.4 161.2 164.5 160.9 147.1 142.3 140.9 143.7 140.1 143.3 142.3 142.7 129.1 111.3 111.3 120.3 123.7 126.6 129 150.5 164 166.9 174 185.2 194.7 203 203.6 188.9 174.5 156.2 130.1 83.4 62.7 50.6 50.4 54.7 51.4 52.5 56.1 57.7 57.7 59.9 70 78.8 67 65.7 75 87.7 109.1 112.7 122.4 136.7 145.6 145 137.3 138.7 159 170.1 182.9 193.1 206.5 223.7 231.4 240.6 256.9 269.3 288.5 298.7 307.9 313.6 315.2 318.2 314.3 305 287.9 274.3 266.9 256.6 252.2 245.9 238.3 223.1 211.6 199.9 189.5 187.9 177.3 185.1 191 202.6 216.2 229.4 244 256.8 267.4 282 294.6 313.6 326.9 334.7 352.2 364.5
301.2 292.8 297.8 304.8 315.8 323.1 333.4 319.4 311.7 236.8 202.1 171.8 140.1 124.8 109.2 95.4 84.3 81 82.8 81.4 80.8 81.2 81.7 81.8 81.6 81.2 81 82 85.7 90.6 97.1 104.4 113.8 126.4 141.4 155.5 163.2 163.1 162 144 159.6 164.8 157.5 147.7 142.5 131.1 118.1 128.2 119.6 122.6 127.5 135.1 149.9 176.6 193.8 204.9 217.8 223.2 230.6 235.3 242.3 248.8 242.4 231.6 232.3 233.4 241 240.9 236.3 230.5 226.9 215.9 194.7 195 204.7 210.2 207.3 205.1 185.7 177.1 163 156.3 161.7 167.5 168.8 174.1 184.6 195.3 200.9 199.8 205.9 227.7 242.7 262.1 259.3 244.6 202.8 201.6 194.5 184 185.9 176.9 163.1 158.5 161.2 163.4 160.5 156.5 156.6 159.3 152.1 118.6 117.5 127.8 130.8 140.1 140.6 156.3 171.2 180.4 189.5 191.9 207.4 214.6 207.8 188.9 166.7 144.2 104.1 76.5 58.9 49 53.3 53.7 53.7 52.6 52.7 55.9 56.3 57.9 61.7 75.3 65.6 64.8 72.4 82.6 97.1 106.1 119.8 130.9 132.5 128.3 122.2 144.3 158.8 171.5 184.9 193 205.9 218.9 222.7 233.8 244.8 258.9 276.6 285.8 296.6 299.9 298.1 300.8 298.8 293.4 276.2 264.1 257.1 246.1 241.4 235 222.6 212.8 214 202.9 180.7 176.6 176.3 187.3 196.6 210.3 226.2 238.5 249.2 264.7 276.7 289.8 303.4 316.5 328.5 340 353.3 370
309.8 303.3 309.6 320.3 327.8 338.7 356.9 338.3 323.5 260.4 213.7 182.9 148.8 128.1 114.9 100 90.1 86.2 85.4 85.5 81.5 81.4 81.3 81.5 81.3 81.1 80.9 80.8 82.4 92.8 98.7 101.6 106.4 120.5 134.7 143.7 143 141.7 127.6 127.2 134.3 145.8 144.2 138.4 125.5 107 105.9 104.4 103.6 104.1 110.6 122.3 143.4 162.7 172.1 183.5 199.1 205.3 210.5 212.2 217.9 226.8 232 225.6 223.5 226.2 243.8 239.2 230.6 231.5 230.7 209 195.6 197.1 207.4 207.7 208.7 201.8 185.1 182.4 165 160.5 168.5 176.6 182.3 183.7 202.1 214.9 219.6 225.8 234.4 241.5 258.6 269.5 271.5 252.5 232.3 223.9 219.1 202.1 199.6 188.5 183.4 180 181.7 186.2 186 185 178.1 179.6 166 132.7 128.3 138.7 139.8 145.3 152.7 163 179.4 187.5 200.7 201 208.6 206.6 198.1 182.6 150.9 111.9 80.2 68.8 56.4 48.9 51.9 54.6 56.8 52.2 52.3 62.2 60.8 57.1 58.9 62.1 63.4 65.1 68.8 79.4 90.7 98.6 112.5 120.6 118.3 117.1 137 149 165.6 171.4 182.2 194.8 200.3 211.1 219.3 230.4 239.3 250 266.4 275.2 287.3 286.2 287.1 286.2 281.4 269.1 262.1 257 247.5 236.1 233.1 225.9 218.7 207.8 208.4 195.4 176.9 174.9 180.4 192.6 203 215.9 230.4 245.5 257.9 271.8 285.7 299 310.1 323.1 337.2 350.4 360.9 374.4
315.1 320 326.1 337.8 344.8 353.8 354.7 345.5 336.9 297.7 225.6 189.9 158.5 135.8 120.5 107.2 98.3 92 91.7 90.8 84.8 83.1 82 81.5 81.2 80.9 80.7 80.5 80.6 84.6 93.4 98.4 100.8 115.9 122.6 117.6 116.5 113.4 105.1 108.8 109 114.4 113.3 103.5 97.4 95.7 98 97.4 94 97.5 100.7 109.3 123.6 138.9 148.8 158.9 169.7 177.3 181.6 190.4 201.7 213.7 223.7 215.2 208.8 210.1 218.3 216.4 225 230.5 218.7 193.4 193.6 195.1 208.1 209.5 208.8 196.6 184.4 183.2 162.4 162 171.1 182.3 187.6 199 212 229.5 236.2 241.5 253.2 259.3 266.1 273.9 274.3 277.1 251.1 236.3 226.1 219.8 220.8 215.2 206.9 199.3 201.1 211.5 214.4 201.1 197.2 194.4 165.8 139.4 135.2 145.6 151.4 154.3 162.8 178.4 186.3 192.1 204.3 208.8 210.6 208.3 194.7 152.6 123.6 91.4 71.6 60.9 53.4 49.4 51.6 57.5 57.1 52.8 51.2 57.7 70.7 58 58.6 60.6 62.5 65.9 69.4 78.8 92.6 90.8 98.7 105.8 102.5 125.3 135.1 142.1 154.5 170 178.5 193.2 195.2 202.7 216.3 228.6 233.3 244.2 256 267.8 281.5 279.2 277 279.2 269.3 256.1 250.5 244.2 236.1 230.4 228.7 219.6 216.6 203.9 200.8 185 171.9 177.5 186.5 201.3 214.1 223.8 233.2 249.1 264.2 278.6 292.9 306.6 319.5 331.3 345.2 359.7 370.4 378.2
325.1 340.7 337 349.3 359.6 363 357.3 356.1 349.3 301.9 234.9 195.9 174.1 148.9 129 116.1 106.9 96.7 92.6 88.7 86.4 82.7 81.4 81.6 81.3 80.9 80.6 80.2 79.7 80.7 82.6 87.6 92.4 103.5 103.8 104.8 92.7 89.6 90.1 92.6 90.7 92 90.3 91.4 91.7 91.6 93 92.5 92.2 92.3 93.1 97.6 105.9 117.9 127.1 131.8 145.6 154.7 163.7 177.2 186.9 191.5 203.1 194.7 188 190.2 186.1 193.8 206.6 213.6 200.8 185.7 177.8 191.7 208.3 218.6 203.7 190.3 189.6 179.5 159.9 163.1 170.5 185.3 195.5 212.2 219.5 230.3 240.5 248.3 264.2 283.4 276.8 279.4 276.3 278.3 252.8 250 244.7 233.3 230.9 227.4 218.3 224.9 220.5 230 228.7 210 212.9 210 180.2 163.3 145.5 152.6 161 162.4 172.6 193.8 199.6 198.3 202.5 207.5 206 192.9 162 130 103.2 79.6 68 59 48.8 50.6 51.3 58.4 52.3 50.4 51.2 54.2 59.2 56.6 58.3 60 62.1 65.5 66.3 68.8 79.7 87.1 91.7 97.5 111.9 120.5 129.4 141.4 156.6 167.2 179.2 187 191.7 198.2 208.5 217.2 228.4 239.4 248.3 258.6 270 262.8 267.1 271.8 259.6 247.2 241.8 235 230.4 226.5 220.2 214.9 205.8 194.7 189.4 174.9 176.1 183.5 195.6 207.1 221.5 234.3 246.1 256.8 269 284.6 300.3 316.3 329.2 342 354.2 367.4 376.9 384.8
333.7 348.8 351.7 366.5 371.3 370.3 370.3 371.6 361.3 305.2 246.2 204.2 182.2 160 145.4 129.5 112.9 100.8 93 88.3 85.8 82.1 81.6 81.8 81.4 81.1 80.5 80.2 79.7 79.5 80 81.4 83.3 93.7 89.8 86.9 84.1 83.5 84.4 85.5 86 84.2 83.3 84.5 87.5 88.3 90.4 93 90.3 90.2 89.2 91 98.8 105.1 104.6 114.1 125.9 138.2 151.4 161.7 168.7 173.1 177.8 170.3 163 157.2 161.2 169.5 176.3 179.2 184.1 181 175.1 193.2 207.9 211.3 197.6 184.3 183.6 173.9 154 162.2 169.8 184 195.5 208.8 228.5 234.5 241.2 257.2 280.1 295.2 284.6 290.9 280.8 272.2 272.3 272.3 261.7 252.7 238.6 234.9 224.2 228.4 231.7 235.5 231.2 218.9 221.2 212.8 191.8 176.1 156.7 164.2 163.6 168.5 186.5 209.1 211.9 201.3 203.7 196.7 186.6 166.7 142.1 119.4 90.4 84.6 70.8 50.5 48 49.1 50.2 52.7 51.6 51.6 52.5 53.9 54.7 55.9 58 59.2 61.1 63.2 70.3 80.7 89.1 98.2 103.8 104 108.4 115.4 126.1 136.5 151.6 158.6 166 175.6 192.9 196.8 199.3 210 221.6 232.6 241.2 249.1 258.4 253.4 253.6 252.6 246 239.1 233.6 229.7 224.6 219.7 218.7 206.1 190.9 183.6 176.1 169.1 180.7 193.6 204.5 216.6 229 240.4 252.5 265.8 277.4 290.8 306.8 326.2 339.8 352 361.6 371.9 383 391.5
350 358.5 368.4 378.4 381.3 382.7 385.8 378 352.3 298.5 254.5 212.6 194.7 170.5 156 136.2 120.2 106.3 97.9 88.8 85.6 82.7 81.7 81.9 81.9 81.1 80.5 80.2 79.7 80.2 80.4 80.9 80.6 80.7 80.7 81.5 82.7 84 83.4 88.5 88 84.8 81.9 82.5 86.5 85.1 90.5 97.5 89.5 88.2 88.9 89.1 96.7 100.3 100.4 103.6 110.3 122.4 131.5 143.5 155.1 156.6 150.3 143 138.9 136.8 139.2 145.7 158.3 175.9 177.3 176.1 172.7 193.2 213.1 209.4 192.1 180.8 175 163.5 150.1 155 170.4 186.9 199.4 215.6 228.7 243.5 255.2 271.4 290.5 297 289.1 289 293.1 290.7 295.8 296.4 281.2 274.1 256.6 244.7 231.5 231.6 238.1 239.2 228.3 221.3 215.7 205.8 191.1 176.6 165.2 170.9 169 172 196.5 222 220.9 202.3 191.8 178.4 165.6 149.9 134.5 108.1 87.8 69.1 52.9 48.3 48.1 48.4 48.7 49.7 50.4 53.3 53.5 53.7 54.3 55.3 57.1 58.6 60.1 60.2 68.6 85.9 90.2 97.8 102.6 102.9 107.7 112.6 120 133.1 144.6 156.2 163 171.1 175.5 193.4 190.9 200.3 213.1 222.5 232 236.4 238.2 240.3 239.5 237.9 233.8 229.1 225.3 222.9 217.5 213.6 210.3 199.3 183.6 170.5 169.6 170 187 201.2 211 220.4 233 245.8 259.6 271.6 285.9 300.8 315.4 332.6 350.2 361.4 371.3 380.7 388.9 396.9
366.6 370 378.3 381.2 389 403.1 399.6 394.7 341.8 294.9 262.4 225 200.7 181.6 168.8 139.3 124.6 109.2 98 90.1 87.3 84.1 81.7 82.4 81.6 80.7 80.5 80.1 80.3 80.8 81 80.7 81 80.8 80.9 81 85.2 88.3 87 90.3 87.7 86 82.1 81.9 82.4 81.6 85.6 92.5 87.3 84.3 83.4 88.1 91.5 90.7 94 100.5 104.5 111.2 112 127.6 147.1 135.9 131.7 123.6 126.9 127.1 130.2 137.3 147.5 158.7 168.1 165.6 169.6 185.8 206.2 209.6 185.4 174.5 168.1 158.5 146.1 150.8 167.9 187.5 203.3 220.6 234.2 250.8 269.5 281.3 302.9 299.5 292.2 295.8 302.7 303.6 307 308.6 293 285.7 267.6 246.3 236.9 234.9 225.3 229.4 229.7 220.2 212.7 202 194.2 191.2 169.7 179 173.7 178.1 193.6 219.5 222.1 198.5 182.1 171.7 159.9 145 121.8 99.4 77.7 55.3 48.3 47.8 47.9 48 48.2 48.6 49.2 50.4 53.7 53.1 53.1 57.2 57.8 63.2 71.5 61.6 67.9 86.9 91.5 95.6 99.5 100.7 102.4 107 115.6 127.1 136.7 141.3 155.3 159.2 167.3 178.5 183.3 195.2 207.5 216.3 223.6 227.7 229.5 226.7 225.8 227.1 222.4 220.7 219.2 214.3 211.5 199.9 199.1 189.2 175.8 166.1 168 174.3 189.3 203.9 212 221.7 237.5 250.8 264.3 278.2 295.5 312.3 330.2 348.6 356.7 370.2 381 389.7 396.4 403.3
380.8 385 385 383.7 395.8 410.1 408.5 389.6 344.1 295.5 270.4 235.4 205.8 192.2 181.4 143.4 123 109.3 100.6 95.1 87.6 84 82.1 82.5 81.4 80.5 80.6 80.5 80.9 81.1 81.3 80.8 81.7 82 82.2 82.2 84.2 90.7 87.5 85.1 84.7 86 84.8 82.3 79.6 78.8 79.2 81.3 80.9 81.6 80.6 79.6 80.4 79.9 83.2 90 95.1 99.2 101.3 108.9 109.8 104.5 112.5 116 120.4 121 124 128.3 136.7 145.4 151.3 156.3 167.5 177.2 186.4 195.5 177 171.4 168.6 151.5 137.1 145.7 162.4 183.8 200.5 217.9 237.1 255.6 269.7 286.6 304 308.1 302.1 305.8 310.3 315.9 317.2 309.1 300.8 291.2 281.2 258.1 243.1 237.2 228.7 225.4 224.2 218.8 214.1 203.4 201.2 194.2 179.1 180.7 178.5 181.4 193.9 209.4 216.9 196.5 185.1 175.3 165.8 149 119.6 96.9 66.2 51.9 47.9 47.6 47.3 47.5 47.7 48.1 48.4 49.1 50.1 53.6 56.3 61.8 67.2 66 63.3 58.5 60.4 82.3 84.8 86.9 95 96.2 96.5 102.8 109.3 117 128.2 139.9 147.6 147.7 157.1 166.6 176.5 187.8 202.2 210.7 215 220.2 218.8 217.5 217.7 212.8 211.2 212.8 210 206.5 203.5 189.8 185.4 179 165.3 165.6 170.3 184.2 193.8 204.5 219.5 232.5 244.7 256.8 269.6 285.3 303.1 323.6 346.1 363.9 376 379.4 390 396.9 404 411
390.2 391.1 386.9 386.9 398.3 410.6 409.9 395.1 347 301.5 272.2 241.2 217.5 212.1 188.8 157.5 136.5 121.1 110 102.7 89.6 84.5 83.4 82.4 81.7 81.2 80.9 80.9 81.2 81.4 81.6 81 83 88 83.5 80.8 81.9 86 85.7 82.9 83.8 89.5 89.9 80.3 78.3 76.5 75.4 74.8 74.4 76.2 75.3 75.4 75.7 72.9 77.4 79.7 83.3 87.4 93.6 95.4 89.9 93.9 103.6 107.9 111.8 113.9 114.1 118 129.4 140.2 137.5 145 156 167.6 169.2 173.1 170.9 165.9 159.6 145.9 129.9 143.2 167.3 179.5 198.2 217.3 242.9 255.7 259.4 280 296.1 302.9 311.2 317.1 321.4 320.8 326.8 313.4 305 293.3 285.8 270.6 245.2 231.2 228.8 225.9 227.7 224.2 219.6 206.3 198.6 189.5 178.6 185.8 186.7 186.6 191.2 198 196.2 190.8 190.8 173.5 154.3 136.8 115.1 91.2 61.1 48 47.3 47.2 47.1 46.9 47.2 47.4 47.6 47.9 50.5 54.8 64.5 67.7 75.1 63 58.2 56.6 55.8 72.4 77.2 79.4 84.7 87 89.8 94.4 105.6 116.2 125.7 135.8 141.7 144.1 147.7 158.2 167.7 176.9 192.8 202.4 207.2 213.5 212.5 210.6 208.1 202.6 204.6 202 202 198.3 188.6 182.6 175.8 167.2 164.1 168.2 176.8 185.8 196.2 208.6 225.9 238 250.8 262.4 277 289.7 307.4 330 357.5 369.1 379.7 390.6 394.7 401.8 410.8 415.5
390 390.2 385 385.6 394.3 415 411.5 393.3 356.9 306.1 277.3 245.2 223.9 198.6 199.7 174 153.7 131.6 120.4 111 99.1 89.3 87.8 84.9 82.2 81.6 81.3 80.1 80.7 81.3 81.7 80.9 92.2 93.9 92.5 88.2 83.6 79.8 81.1 82.2 83.9 93.7 85 80.8 78.8 75.8 74.9 73.4 71.7 72.9 74.4 74.1 73.1 72.5 72.3 72.9 75.1 78.3 79.3 81.7 81.9 87 96.2 104.1 105.6 103.1 104.7 112.7 118.3 124.4 128.2 137 145.9 154.2 155.1 157 164.5 158.9 157.4 144.5 125.1 138 159.9 177.9 191.5 212.6 241.9 255.7 256 264.9 289.2 303.2 315.6 328 331 328.5 320.3 310.2 303.8 289.4 278.3 253.7 250 238.5 228.3 228.1 227.1 228.4 224.3 206 191.5 190.6 183.7 190.4 195.3 197.6 192.3 182.8 191.2 188.8 191.4 174.6 145.4 136 116.1 84.7 56.8 47.2 46.6 46.8 46.7 46.4 46.5 46.6 46.8 47 51.3 54.4 65 69.6 70.3 60.2 55.9 55.2 54.9 62.8 67.6 71.8 77.2 81.2 85.3 90.7 105.7 117.3 126.9 133.1 133.1 134.4 141.8 152 158 166.2 182.2 192.4 201.7 205.7 203.6 200.9 196.1 194.6 193.8 191.6 190.9 187.5 179.4 170.9 162.7 162.9 164.2 167.9 175.4 183.6 198.5 212.1 228.3 240.8 252.9 266.6 280 293.9 309.9 330.9 353 365.8 376.8 388.7 393.3 405 412.5 420.1
390.6 392.1 384.3 384.3 388.2 409.1 404.2 385.5 366.6 317.8 280.9 240.3 203.4 196.9 199 191.3 173.7 142.6 136.2 119.2 104.9 98.9 93.2 89.4 82.7 82 81.1 80.8 80.6 81.4 81.3 89.8 87.5 96.2 100.5 93.2 87.4 81.2 80.4 82.3 83 85.3 80.4 77.8 76.2 85.7 95.7 80.4 73.2 71.3 73.4 73.4 74.5 74.7 72 69.1 67 70.9 71.2 73.7 77.9 82.2 92.6 102.5 101.1 97.9 98.6 108.4 108.4 116.2 119 127.4 135.6 144.2 146.5 149.6 158.4 151.3 151.4 143.1 121.4 133.5 150.5 166.1 181.4 201 224 246.7 252.2 263.4 289.7 305.5 323.8 329.7 329.2 323.9 308.7 301.6 298.5 300.9 289.4 271.1 264.1 250.4 237.2 234.3 232 232.8 238.5 220.2 201.4 194.1 190.5 196.4 207.7 198.6 192.8 183.3 183.5 178.8 181 161.6 140.8 129.1 111.4 77.4 53 49.5 47.4 46.6 45.7 45.5 45.7 45.9 46.5 47.1 54.4 54.5 64.3 69.8 63.5 56.6 53.2 54.5 61.5 66.2 66.2 67.6 73.7 76.9 79.4 85.1 104.6 115.2 123.3 128.6 127.2 127.8 128 136.5 144.2 155.2 170.5 184.2 190.8 195 193.8 189.2 184.8 184.4 183.1 181.4 180.4 176.9 171 164.1 162.1 162.4 163.6 168.4 179 188.9 200.4 217.1 230.2 243.2 255.5 268.9 283.6 298.3 312.7 330.1 347.8 361.6 370.5 379.2 391.3 406 422.3 432.5
403.3 406.3 389.2 384.3 388.9 388.3 390 381.2 371.1 333.6 287.1 246.9 213.9 197.6 193.7 189.7 169.9 147.6 142.2 124.5 112.8 108.4 102.1 92.5 85.9 82.1 83.4 83.1 82.9 82.2 82.3 83 87.5 94.6 101.6 100.7 99.4 89.4 78.8 80.1 80.8 79 77.1 76.8 79.7 92 91.7 85.8 85.3 70 72.8 70.1 74.2 75.3 70.7 70.2 65.7 66.7 68.7 71.2 73.5 76.7 83.4 94.7 100.7 93.9 95.8 100 100.2 100.8 107.1 121.1 126 126.6 131.8 144.2 148.3 145.6 137.5 131.9 118.8 129 141 152.4 169.6 190 206.3 232.2 256.1 265.3 283.3 290.7 305.5 313.4 322.2 317.1 299.7 300.2 300.9 301.2 294.7 285.2 275.8 258.2 247 244.1 238.5 238.8 238 221.7 208.5 199 198.9 202.1 210.8 200.8 196.8 189.7 184.9 180.1 166 151.9 132.4 115.1 88.5 65.6 56.6 54.1 51.7 49.9 47.5 46.6 45.1 46 46.3 46.6 46.4 49.5 53 59.2 55.5 53.5 53.2 53.3 63.2 66.8 63.2 66.7 79.5 79.5 78.1 84.4 105.6 115.7 119.2 124.5 121.9 120 119.9 125.7 136.5 146.6 158.2 172.5 178.2 183 181 177 174.7 174.6 173.6 174.7 176.4 174.5 171.7 163.6 160.9 163.8 167.8 169.9 186.6 196.9 206.2 216.5 231.3 245.7 258.2 270.5 285.7 298 313.6 328.4 341.4 352.6 364 374.2 386.9 405.4 423.9 441.3
417.8 411.2 397.6 387.5 390.9 390 382.3 378.4 370.4 338 287.1 261 238.9 224.7 190.1 173.3 162.6 146.6 140.3 132.3 119.8 115.5 108.9 97 88.7 85.3 87.1 85.7 84.3 82.7 82.4 83 94.8 105.2 106.6 100.9 99.4 91.9 80.2 78.4 79.3 78.1 76.6 76 79.1 90.7 93.9 92.5 86.7 78 69.1 68.4 71.2 78.6 79.7 68.8 66.5 66 66.6 69.7 72.9 74.9 78.1 83.7 94.6 90.9 96.9 99.4 97.8 90.6 97.6 105.6 117.9 121.9 123.9 129.9 137.6 136.8 129.9 123.9 119.2 122.8 133.4 142.7 157.2 175.3 198.6 222.4 240.2 246.8 255.1 274 292.8 314.8 322.8 322.1 305.7 297.2 308.3 302.6 294.9 288.7 275.7 260.4 253.3 256.7 249.9 242.3 236.2 221.4 211.2 207.4 204.2 209 214.3 208.3 210.7 199.8 190.7 179.3 170.4 154.8 121.6 98.2 80.5 69.6 72.2 70 70.9 56.7 51.9 49.9 47 46 46.1 46.4 46 46 46.7 48.2 48.8 49.7 50.7 52.8 63.3 67.8 61.4 64 83.1 84.3 77.6 83.5 102.8 112.6 113.4 115.5 113.5 110.1 111.6 119.1 131 139.3 150.1 162.6 167.3 169.9 169 168 166 163.5 163.4 168.6 173.8 173.7 172.6 159.4 166.2 169.5 171.2 176.6 184.6 195.9 208.1 223.8 236.9 244.4 258.1 271.1 286.9 298.9 311.5 325.7 334.6 345.3 357.1 367.4 380.8 396.9 421.3 437.1
426.2 409.6 401 400 398.4 401.9 398.4 384.5 366.2 333.9 291.1 273.4 256.8 230.2 200.9 181.8 166 147.2 141.6 135.2 125 121.7 116.6 107.5 94.7 90.2 89.2 89.1 88.4 85.4 84.8 83.5 92.3 103.8 97.9 97.7 96.5 91.7 83.7 80.3 78.7 77 76.2 75.6 80.2 88.7 99.7 82.2 94.2 87.7 77.6 64.2 69.2 82 90.1 73.1 69.6 66.6 64.9 70.1 71.5 71.8 73.6 78.7 84.1 92 100.5 100.6 98.4 89.5 87.7 98 107.6 109.4 119.9 126.1 132.2 129.6 124.3 117.9 112.1 119.1 126.1 134.2 143.7 160.5 179.7 201.2 215.6 231.9 258.5 280 293.1 313.1 315.2 313.6 299.4 283.7 296 302.2 299.4 285.4 289.7 268.8 259.7 259.6 249.4 248.4 233.2 225.5 217.6 222.2 208.4 210.8 215.8 212.2 214.4 207 197.2 188.7 180.3 165.5 126.7 101.9 95.1 86 83 79.4 70.3 62.7 56 52.3 48.8 46 46 46.2 45.8 45.8 46.2 46.8 47.8 48.8 49.1 49.9 56.1 64.9 60.2 58.3 77.4 85.8 78.7 78.5 98 106.3 105.7 105.7 106.2 102.8 104.9 113.2 121.2 131.5 143.4 151.5 159.2 163.7 161.7 163.3 155.8 158 161.4 168.8 171.8 173.4 167 158.9 170.6 172.1 175.7 184.1 191.8 203.5 217.4 229.7 241 250.7 262.4 269.9 285.3 298.1 307.2 320.2 328.7 340.1 349.7 360.3 372.2 388.7 414.6 430.4
424.7 415.5 413.2 409.1 408 408.1 415.1 393.3 379.8 358.5 327.7 285.6 264.2 239 207.9 186.7 170.6 161 148.1 144.2 138.4 134.2 132.9 119 103.7 97.4 95.7 94 90.5 87.5 85.6 83.8 88.4 92.3 90.6 92.5 95.9 92.8 89.8 81.6 76.9 79 89.5 105.1 103.3 96.8 98.7 66.3 69.1 92 83.2 75.5 65.6 75.3 80.8 72.7 71.5 67 66.5 69.5 70.4 69 70.9 74.6 82.5 92.9 100.9 101 98.2 89.2 87.4 88 96.9 102.4 106.5 112.6 118 121 117.3 109.4 109 116.5 123.5 126.1 132.2 144.7 156.1 180 200.8 217.2 247.3 268.1 282.4 303.6 300.8 298.9 281.9 281.6 284.2 298.9 290.3 284.2 279.8 270.3 270.3 260.8 249.3 250.6 237.7 220.8 216.7 219.6 204.7 207 211.4 219.3 226.7 219.4 205.8 193.1 176.4 158.5 127.4 112.7 105.7 102.1 95 87 77.1 65 56.8 54.9 49.8 46.1 45.7 45.9 45.5 45.5 45.9 46.5 47.3 48.2 48.5 48.8 54.5 58.6 56.2 52.2 65.6 78.1 74.6 73 87.4 95.5 95.8 98.1 99 98.2 99.7 103.1 114.2 124.3 134.6 142 150.1 152.4 152.9 150.3 144 157.8 161 167 171 171.4 156 161.8 171.1 175.4 182.2 192.3 202.9 211.6 223.2 236.8 248.2 260.3 268 279.2 287.6 290.3 303.4 314.2 324.3 335.6 347.5 357.5 374.4 399.9 412.5 426.5
431 421.1 420.6 420.5 419.1 413.5 420.5 402.6 385.4 361.2 344.8 298.7 275.9 251.9 229.2 199.6 179.9 171.7 164.1 160 153.6 149 146.6 127.4 116.2 110 100.8 102.9 96.3 91.4 87 88.6 89.1 87.7 87.7 90.6 93.9 93.7 86.1 78 88 106.1 106.1 108 109.2 109.1 105.8 113.6 71 79.9 90.5 78.8 64.1 70.5 71.2 70.6 70.3 67.1 65.3 63.9 68.2 67.2 69.5 71.8 79.3 94.3 99.6 100.4 99.3 90.8 88 87.6 92.5 97.5 99.2 103.3 107.1 107.7 106.3 105.5 112.7 118.2 121.3 121.1 122.8 132.5 146.4 164 182.1 198.2 216.4 244 265.1 269.1 272 263.4 257.1 274.2 276.6 286.5 282.2 281.3 276.1 274.9 277.7 267.1 259.5 250.4 230.8 218.9 205.3 199.4 211.3 214.6 218.8 233.7 237 218.2 195.8 181.4 164 147.2 129.6 125.6 117.5 112.6 109.1 97.8 82.9 71.7 65.3 63.7 54.3 49 44.6 44.8 45.4 45.4 45.5 46 46.8 47.5 47.4 47.4 47.7 51.2 52.7 51.8 57.6 68.3 67.9 66.8 77 86.9 90.6 94.6 95 94 94.8 101.9 113.5 121.1 129 134.5 141.6 144.5 142.4 139.5 145.3 152.2 160.3 165.4 169.1 162.3 155.3 166.2 173.5 181.1 190.4 199.1 209.5 222.8 231.6 239.5 252.2 265.3 276.2 283.9 293.1 300.1 309.2 316.4 323 329.7 342.2 357.2 376.7 399.6 418.1 431.5
442.4 433.4 434.8 431 426.5 420.1 420.8 408.1 384.4 371.8 340.8 307.2 290.4 264.6 251.4 221 198.9 189.3 182 174.3 170.3 169.7 151.4 134.8 128.8 117.2 115.1 111.6 103.7 96.4 93.7 95.1 89.8 87.7 87.7 88.9 93.1 91 84.2 78.7 102.1 105.6 106.3 104.1 109.1 110 108 92.5 70.8 93 99.3 80.3 74.1 62.9 67 68.3 66 66.4 64.6 62.9 64.2 64.7 65.6 69.7 73.2 82 90.9 98.2 97.6 91.3 86.5 85.5 89.8 94.6 99.2 101.1 100.2 99.2 100.4 104.2 113 119.5 121 118.8 117 127.3 138.3 149.2 163.2 179 201 221 233.2 244.7 246.6 235.9 239 251.5 264.3 270.2 276.8 271.6 276 279.2 279.8 268.2 252.3 243.7 230.4 221.4 197.9 199.8 218.3 213 223.3 240.3 236.6 216.2 192.6 175.4 158.3 141 134 132.7 123.3 125.3 118.4 107.4 98.4 87.1 76.3 74 66.5 59.2 49.4 44.8 45.5 44.8 45.2 45.7 46.4 47 47 46.8 47.3 48.4 53 51.4 52.1 55.6 61.1 60.4 68.8 80.5 88.5 93.1 90.5 89.2 91.5 99.1 111.4 116.3 127.1 128.8 131.3 132.4 130.7 132.8 144.2 151.4 160.5 166.2 161.2 151.1 159.9 171.6 181.3 190.8 199.9 208.5 218.6 229.6 240.8 250.8 259.4 270.7 282.3 291.3 301.6 309.1 314.6 324.6 333.5 342.7 352 363.2 377 393.8 413.8 429.5
438.7 448.2 451 437.9 431.2 419.7 418.8 403.4 387.4 384.7 351.5 320.7 305.6 278.6 266.5 241.8 215.8 204.6 190.8 188.4 183 172.4 158.1 147.9 135.8 126.4 128.1 124 113.2 106.1 102.6 98.4 93.8 92.1 90.2 89.9 88.8 85.6 94.7 101.2 108.4 108.1 107.7 108.8 113.1 117.3 110.1 93.8 80.7 108.6 109.7 77 73 73 60.4 62.8 62.6 63.3 62.5 60.5 61.6 61.7 66.5 67.2 69.5 79 85.8 91.9 91.2 90.5 83.4 81.6 88.9 94.6 97.5 97.9 96.8 96.9 99.8 105.7 112.6 118.2 120.6 117.6 113.1 121.1 127.5 140.2 152.4 167.9 180.9 202.8 211 217.4 217.6 207.1 214.3 232.1 250.4 260.4 264.4 270.3 275.2 274.2 270.5 266.9 263.8 260 227.1 218.4 193.1 199.3 208.7 208.8 228.1 239.4 227.3 207.2 193.5 172.3 151 143.8 142 138.5 132.2 146.1 132.1 121.4 113.2 100.7 89.2 87.7 83.2 77.4 57.2 47.7 45.2 44.4 44.9 45.4 46 46 46.2 46.7 47.3 48.3 49 49.7 50.6 51.8 54.3 53.2 60.6 74.5 82.4 85.1 85.4 84.5 88.2 97.2 110.1 114.9 121.9 121.4 123.6 123.9 127.1 137.5 146.7 152.4 159.6 156.1 148.1 161.2 170.4 178.8 188.1 198 208.5 217.4 226.8 236.8 246.9 257.1 267.7 279 288.9 299.8 309.2 317.5 325.7 332.3 340.4 349.6 361 372.8 387 401.5 421.7 435.9
422.8 451.3 458.2 446.2 442.6 426 418.7 406.2 406.9 382 362.4 327.4 309.8 293.9 283.5 258.8 233.7 224.3 202.5 202.3 200.2 193.5 178.7 154.7 143.2 139.2 140.1 139.4 128.5 117.7 114.6 107.5 102.5 98.6 95.2 91.5 87.7 84.1 103.8 114.5 114.3 107.4 103.2 111.7 121.6 136.4 121.9 102.5 93.8 122.8 107.3 81 84.4 87.6 68.9 62.7 61.6 61.2 60.5 60.2 60 59.2 60.1 64.4 73.2 78.1 81.3 87.5 85.4 85.5 80 80.1 89.9 93.4 94.1 94.8 95.5 97.4 100.6 107.7 114.1 115.6 117.6 116.1 110.6 111.6 120.1 129.5 142 150.8 160.2 180.6 186.2 191.8 191.9 189 192.1 205.1 225 244.9 260.8 271.8 279 272 270.2 269.8 269.7 255.9 219.1 198.5 193.1 199.8 201.6 203.8 225.9 222.3 210.5 205.2 191 164 151.4 153.9 146.9 139.4 139.4 151.2 147 129.8 122.4 111.6 101.8 99 95 92.6 68.1 59.3 51.5 44.1 44.6 45.1 45.5 45.8 46.5 46.8 47.4 48.2 49.1 49.7 50.1 50.6 51.5 52.7 54.7 65.1 76.9 80 81.7 81.7 87.3 96 106.3 111.6 116.9 115.5 116.8 118.6 127.7 141.6 151.1 151.7 145.5 148.5 160.2 170 177.1 185.7 194.7 204.9 214.7 223.4 233.6 243.5 254.2 265.2 277.8 289.2 298.7 310.8 319 328.6 335 340.4 348.7 358.7 370.3 382.6 398.1 413 431.9 447
414.4 441.5 455.2 458.5 455.4 443.8 430.9 428.1 420.6 390.4 363 342.1 325.8 310 298.3 269.8 248.8 238.9 217.2 212.3 208.2 195.8 180.1 163.5 159.2 155.1 154.1 151.4 141.7 134.1 128.5 121.2 113.3 109.3 104.2 99.5 93.4 88.4 99.4 104.8 104.8 95.7 105.5 116.3 128.5 139.3 122.8 129.4 119.3 120.7 96.6 86 92.5 88.1 70.6 62.2 58.2 60.3 59.8 59.6 59.3 59 59.5 62.7 70 75 78.5 79.7 79.9 79.3 76 78.2 85.8 91.1 91.9 93.2 96.6 98.9 103.8 109.1 112.7 112.4 112.8 111.9 108 107.8 111.5 123.4 131.7 134.1 140.6 152.9 162.3 170.4 170.6 164.8 166.5 194.5 221.1 237.4 262.6 273 279.8 271.9 273.8 272.8 270.9 249.2 222.5 195.7 193.3 197.4 199.8 199 216 209 202.8 195.8 181.5 157.1 157.8 159.5 150.6 142.2 142.4 142.1 143.9 140.6 136.8 121.9 104.8 104.5 103.3 96.6 81.3 69.2 60.8 51.4 44.4 45.1 45.1 45.6 48.4 46.7 47.6 48.4 49 49.5 50 50.8 52.1 52.8 56.8 63.9 73.4 79 78.7 79.5 86.5 95.4 102.6 105 109.7 110.2 110.7 118.7 128.5 144.8 152 143.4 149.5 158.4 170.1 178.7 184.6 192 200.9 209.6 219.5 230.4 241 253.5 265.7 281.2 292 301.7 311.7 323.2 336.3 342.5 347.8 350.2 357.7 368.6 380.3 394.4 410.1 426.6 437.8 452.7
404.6 425.6 445.9 456.2 462.5 457.6 450.6 444.3 436 396.2 375.3 361.7 350 335.5 320.8 287.4 267.9 246.4 231.6 223 210.5 207.6 195.3 181.3 177 172.6 170.5 165.3 160.4 153 145.5 139.1 130.6 123.9 115.6 107.1 103.6 100 95.6 102.8 104.2 100 109.2 118.4 125.3 131.7 122.5 120.1 125.7 114.5 95.5 87 92.9 86 70.6 63 59.2 59.3 59.1 59.1 58.9 59.1 59.3 61.2 69.4 73 74.4 74.2 73.4 74.2 73.5 78.4 84.2 89 90.1 90.3 94.6 100.8 101.2 108.1 111.3 113.2 113.6 110.3 110.4 105 103.9 112 120.8 121.4 124 135.1 150.7 149.3 145.9 146.7 156.2 176.1 209.2 224.9 246.3 261.3 271.8 270.6 284.6 266.8 259.8 246.7 223.1 199.7 195.7 190.1 189.9 203.9 204.3 199.4 200.3 187.8 167.2 161.2 160.5 164.2 158.7 150.1 148.8 146.2 148.1 147.7 137 124.7 108.9 111.6 112.6 106.2 92.4 76.7 67.8 58.3 50.5 44 44.7 45.7 46.2 46.7 47.7 48 48.6 49.1 50.6 51.9 53 55 58.3 63.5 71.4 73.4 77.3 79.5 85.3 90.5 95.4 99.5 104.3 104.5 107.9 117.4 127.3 143.8 151.4 141.7 152.7 162.7 177.5 184.2 190 197.1 205 213.9 224.1 237.7 251.4 267.4 279.2 296.2 304.7 316.2 325.1 334.8 344.7 353.5 358.2 362 368.5 378.4 390.7 404.1 419.4 438.4 448.1 456.8
396.3 419.3 431.8 436.8 456.4 463.8 459.9 457.7 449.9 411.2 393 382.5 373.1 358.9 343.1 312.7 287.8 264.1 258.2 235.6 228.1 221.8 208.4 203 201.7 195.2 185.4 188.2 179.4 170 160.8 153.8 147.9 140 129.2 120.4 117.1 113 108.3 105.3 106.3 110.8 115.9 121.8 122.6 120.6 116.7 114.1 112.5 107.5 94.3 83.2 86.1 85.4 73.5 64.7 60.1 59.3 61.1 59 58.9 58.9 59.2 59.8 72.1 75.7 72.9 69.8 68.6 70.3 69.9 73 80.2 85.3 87.9 89.1 94.5 97 99.2 103.7 110.2 111.3 112.1 110.3 110 104.4 97.6 99.6 104.1 113.1 116.5 121.7 133.4 134 129.1 139 145.1 166.1 186.3 210.9 233.7 245 259.1 264.4 267.9 259.9 243.5 239.5 216.8 200 195.3 190.2 190 200 199.6 194.2 189.7 171.4 166.5 166.9 167 167.7 161.8 156.3 154 148.7 149.3 146.8 133.9 131.5 118.3 119.5 120.4 109.4 95.7 85.4 75.5 71.4 58.1 49.2 44.1 45.1 45.9 46.6 47.2 47.6 48.2 48.7 51.6 55.8 57.9 55.5 56.3 59.4 61.6 66.9 66.7 76 80.9 85.8 94 95.7 87.9 92.2 93.8 102 110.8 130.3 138.7 143.9 157.6 165.7 175.5 183.9 191.8 198.1 209 219.6 233.4 247.9 264.1 279 291.5 305.6 318.3 329.7 339.2 347.7 356.9 364.5 369.1 375.3 381.6 391.5 402.5 414.4 430.6 447.2 461 470.2
386 408.6 416.6 430.1 440.1 452.9 452.2 454.3 446.1 420.6 404.6 395.7 389.6 374.8 365.5 331.9 303.9 281.3 263.6 249.4 240.6 235 226.3 219.1 216.8 208.4 199.7 208.4 197.3 189.2 182.5 176.8 165.2 153.2 142.3 133.6 129.8 126.1 121.7 119.8 119.6 122.9 125.4 127.8 129.8 118 114 107.6 103.8 96.2 91.1 82.3 88.2 84 74.6 65.8 59.6 58.9 60 58.7 58.4 58.6 59.2 59.5 64 72.5 70.8 69.2 62.5 64.4 63.7 68.2 75.4 77.3 77.4 83.3 90.6 92.6 98.1 106.7 111.5 110.6 108.9 105.8 105.1 100.1 96.6 94.8 95.6 104.9 109.6 109.9 113.6 116.1 115.8 120.1 134.3 159 180.4 202.3 225.4 238.3 251.2 258.1 266.3 249.4 244.6 233.8 215.6 205.2 198.1 190.1 190.2 195.5 194 189.1 181.9 171.4 169.7 171.3 173 176.5 164.5 159.9 159.2 151.1 146.1 141.4 131.8 128.4 126 127.6 130.3 116.2 101.4 90.5 81.9 78.8 64.6 52.9 47.5 43 45.2 45.9 46.9 46.5 47.1 48.2 50.4 55.9 56.2 54.8 58.2 60.2 64.4 74.6 83.6 73.4 71.6 76.1 82 85.9 98.3 98.2 105.2 113.9 121.1 132.5 143 154.3 166.6 170.5 178.3 186.1 194.2 203.6 217.9 230.9 244.3 259.2 277.8 290.6 302 315.4 331.1 343.8 352.8 360.6 369.3 376.4 381.5 388.5 396 405.3 416.8 434 450.1 462.8 470 462.6
397.3 400 405.1 415.8 422.3 428.6 432.2 432.4 431.5 420.6 413.4 406.4 400.3 391.3 390.6 363.8 323.1 295.4 279.5 263.2 254.7 252.4 243 238.2 233.5 227.3 219.9 226.9 215.6 208.1 204.1 200.5 189.6 174.8 159.1 143.4 139.4 135.3 132.3 132.7 132.3 134.7 138.2 137.5 135 129.3 120.1 110.5 105.5 100.1 96.1 84.6 80.8 79.2 73.8 65.4 58.3 58 58.1 58.1 58.4 58.7 58.6 57.7 58.6 60.2 61.1 60.4 61 61 60.2 67.2 71 67.5 73.2 78.7 86.1 95 104.1 112.1 114.7 113 110.3 106.4 101 97.5 95.2 93.5 93.5 93.5 93.5 97.1 98.2 103.1 107 115.5 128.4 152.5 182.6 208 233.5 245.7 250.7 250.5 263.7 256.1 250.7 241 232.6 213.9 202.3 192.2 189.6 191.1 193.1 189.7 182.2 179.4 177.8 176.3 174.8 172.4 165.1 160.9 159.9 154.7 149.2 143.9 136.8 134.4 132.5 137.1 136.9 121.4 106.7 95.1 85.8 79.1 71.5 55.4 53.9 44.3 44.2 45.2 45.9 46.4 47 47.7 56.3 60.5 55.9 53 55 59.7 63.1 80.5 94.7 93.8 92.9 91.8 93.4 106.8 103.1 104 108.2 119.5 129.2 139.4 148 158.4 166.5 174.8 186 192.8 200.5 215 226.7 240.8 254 269.5 285.3 299.8 312.4 328.5 345.7 356.2 364.3 370.8 381.4 385.4 392.3 405.6 413.2 423 442.7 456.4 464.6 463.3 469.7 455.7
398.3 408.4 408.8 401 410.3 417.3 418.7 420 424.1 424.9 425.7 421.6 415 405.4 405.6 382 355.6 325.2 299.4 284.7 277.8 269.5 263.8 250.8 251.7 243.2 239.6 244 238.1 229.9 228.8 222.4 207.1 189 171.6 153.4 147.1 142.9 143.9 145.4 146.9 146.5 149.8 148.9 146.3 145.6 131.5 119 111.9 111 97.5 85.1 82.5 76.1 70.3 63.7 57.1 57.3 57.5 57.7 58 58.4 58.6 58.1 57.3 57.8 58.3 58.2 59.2 60.9 59 58.7 59.1 62.9 70.1 77.7 87.3 100.9 109.7 116.5 119.1 118 115.7 108.5 101 95.4 93.6 93.5 93.5 93.5 93.5 93.5 95.2 100.1 104.6 110.1 122.4 150.5 181.5 207.7 235.7 243.3 244.4 245.3 262.8 259.3 258.5 252.7 235.5 205.1 200.6 194.7 189 191.6 200.8 189.8 187.3 185.7 184.4 181 178.4 169.3 167.9 165.2 164.7 159.8 156 151.6 151.5 145.9 144 146.6 141.9 127.1 111 99.4 87.6 82.3 81.3 65.4 51.5 43.9 43.5 44.4 44.9 45.9 46 46.8 49 54.4 51.6 51.9 53.5 57 64.4 86 96.4 101.1 102.6 97.2 104 109.5 107.6 106.9 114.3 129.7 132.9 139.5 149.8 165.6 169.6 179.2 193 202.7 211.9 220.3 235.2 250.2 264.6 281.4 293.5 306.9 323.1 341.9 359.2 368.2 374.9 387.5 395.4 403.1 419.1 429.4 436.4 444.3 455 458.2 460.6 456.3 452 437.8
392.2 406.1 409.6 404.8 398.1 402.1 410.9 412.6 414 418.6 427 432.6 433.4 422.1 413.1 406.3 385.7 351.6 327.6 307.6 297.5 288.9 280.6 266 265.8 262 253.5 269.8 260.7 255.2 249.9 244 222.7 203.1 183.9 159.6 156 155.6 155.7 156.4 158.8 160.5 167.4 165.7 157.7 148.1 146.2 132.1 114.5 107.6 101 89.9 89.6 74.4 67.8 61.5 57 56.7 56.9 57.1 57.4 57.7 57.8 57.9 57.9 57.7 57.4 57.3 57.9 58.5 58 57.8 57.8 61.5 67.1 75.5 91.4 105.3 117.3 123.7 123.2 122.6 118.2 110.8 101.9 95.3 93.5 93.5 93.5 93.5 93.5 93.5 93.5 98.5 105.8 112.5 117 142.7 166.8 195.7 219.6 222.8 233.3 235.9 259.5 259.5 258.1 248.5 225.8 203.3 196.6 190 181.5 186.6 198.7 194.5 193.6 197.1 192.1 187.7 181.6 170 168.9 170.9 172 168.8 165.5 162.6 157.4 158.9 154.9 147.3 141.4 128 114.9 104.6 92.1 88.1 79.7 62.6 50 43.9 43 44.2 44.3 44.4 44.8 50.9 50.6 50 50.3 51 53.2 56.6 78.4 86.2 96.5 103.8 102 96.3 106 109 111.1 108.1 118.9 134.5 135.2 141.9 155.5 165.1 174.9 190.5 201.9 212.9 220.2 233.8 243.6 258.2 275.5 290.5 304.7 319.2 336.4 353.2 370.2 382.5 391 405.3 417.2 426.1 446.2 457.2 457.3 454.4 458.9 452.6 445.8 438.5 430.5 421.7
384.1 395.9 402.5 406.5 404.9 401.6 400.6 399.2 403.5 408.8 412.8 425.9 429 414 413.7 412.3 412.5 384.6 361.1 332.5 324.6 308.9 304.5 291.2 285.1 282.5 270.2 281.3 282.8 275.5 266.8 255.3 238.8 215.1 185.6 172.3 167.7 165.4 165.9 166.8 168 174.6 182.8 172.3 158.6 149 143.2 136 119.6 109.3 104.4 100.5 89.2 72.3 66.2 60.1 56.8 56.3 56.3 56.5 56.8 57 57.2 57.2 57 56.7 56.7 56.5 56.8 57.1 57.2 57 57.8 60 60.4 74.2 93.3 108.4 124.4 130.1 128.8 130.2 118.7 110.3 100 94.3 93.5 93.5 93.5 93.5 93.5 93.5 93.5 95.6 106.5 111.3 115.3 138.6 152.5 180.3 205.7 211.7 213.2 224.1 250 258.5 255.6 237.8 221.3 191.6 185.2 181.4 178.2 189.1 196.7 201.4 204.5 209.7 201.5 192.1 182.8 171.7 176.4 181.4 180.9 176.4 173.4 170.1 168.2 161.3 155.9 148.4 147.6 143.9 127.2 111.7 99.6 83.8 66.6 56.8 48.2 44.8 43.3 44.3 44 43.8 44.9 46.2 47.1 48.1 49.1 50.3 51.4 54.9 78.9 86.2 97.9 105.5 99.8 93.2 98.2 104.5 108.7 110.4 123.1 134.8 137.4 145 160.4 170.8 183.5 197.7 210.1 221.4 231.6 241.1 255.6 269.7 284.2 299.2 313 329.3 350.1 363.4 379.9 396.8 407.3 418.5 432.4 445.7 458.7 469.7 469.8 457.4 447.8 438.6 427.1 421.1 412.2 407.2
375.9 380.3 388.6 393.1 387.7 390.6 391 386.1 387.1 396.7 401.9 410.1 411.1 408.1 412.9 422.8 422.2 402.2 384.9 356.1 347.9 340.6 332.3 323.5 310.5 303.2 290.2 295.2 295.5 289.6 281.4 264.6 255.3 239.2 205.1 190.3 184 182 180.2 178.1 174.7 180.2 188.6 180 162.8 144.5 135.2 129.3 121.2 113.4 105.1 99.7 86.3 71.8 65.8 58.7 56.9 56.2 56.2 56.2 56.2 56.3 56.5 56.4 56.2 56.2 56.2 56.2 56.3 56.6 56.5 56.2 57.3 57.9 60.7 74.1 89.7 106 121.1 131.8 130.7 131.1 120.8 108.8 99.4 94.7 93.5 93.5 93.5 93.5 93.5 93.5 93.5 97.9 105.8 108.1 111.4 125 139.9 170.8 193.6 195.4 197.2 216.2 250.2 258.8 255.5 215.2 201.8 182 177.5 181.1 177.8 194.1 200.6 210.3 214.4 220.3 208 193.9 184.6 181.5 184.9 187.9 187.1 182.2 179.6 176.8 170.7 165.7 163.3 159.8 158.3 159.1 137.2 117.4 106.1 84.5 66.1 59.6 51.2 46.4 43.8 44.1 43.8 43.6 44.6 46.1 46.9 47.3 48.2 49.1 50.9 55.1 77.1 84.1 97.4 102.7 91.3 92 100.5 112.9 104.2 113.4 126.8 136.8 138.3 150.7 166.3 177.2 193.6 207.1 219.4 230.3 241.8 252.9 268.2 280.9 292.9 308.1 325.9 343.1 358.5 378.4 397.8 414.4 428.2 443.5 454.4 458.6 464.1 464.8 457.6 448.8 429.8 421.8 414.2 406.6 397.9 399.5
369.5 381 382.5 389.1 383.9 385.6 379.3 378.5 381.6 387.6 392.7 400.2 409 410.2 417.4 423.3 429.7 427.7 412.4 391.2 388.7 375.9 348.3 346.2 333.9 314.7 303.4 316.6 307.4 300.8 294.7 284.5 278.5 260.1 226.4 202.1 205.3 205 199 186 180.8 173.6 174.2 163.8 156.6 133.6 122.8 122.4 120.7 114.9 99.3 94 85.3 74.4 66 58.8 56.9 56.2 56.2 56.2 56.2 56.2 56.2 56.2 56.2 56.2 56.2 56.2 56.2 56.2 56.2 56.2 56.2 56.5 57.7 66.8 84.7 103.5 121.6 128.6 132.9 132.3 122.2 115 107.6 100.5 96.5 93.5 93.5 93.5 93.5 95.9 102.2 101.5 104.1 101.2 106.4 119.3 129.6 149.1 167.2 184.9 182.8 206.9 232.9 247.3 230.1 201.2 186.1 171.2 169.8 176.7 174.2 188.9 201.7 212 217.5 212.1 204.2 194.8 189.2 190.7 189.5 190.7 190.8 187.2 185.7 187 185.7 183 178.6 173.4 168 159.6 145.1 134 120.3 99.5 83.1 70.7 59.8 48.9 43.9 43.7 43.3 43.3 43.6 45 46.6 46.7 47.2 48.5 52 56.4 70.9 86.5 92.5 100.8 90.1 91.6 102.7 105.9 100 114.8 129.3 137.2 143.8 158.6 171.6 187.8 206.7 219 231.2 243.7 256.4 269.5 282 292.5 303.5 319.4 334.9 356 370.6 386.5 405.3 423.3 443.6 460.8 474 471.8 464.3 457.9 443.9 434.9 419.6 403.7 404.5 393.6 387.4 387.3
370.7 380.3 377.9 383.5 389.2 378 373.9 372.2 380.5 383.3 387.3 396 405.2 410.5 414.1 417.3 419.1 413.9 410.3 406.3 394 384.6 366.7 357.5 346.4 318.7 313.3 319.7 310.2 303.9 298.5 294.6 288.5 262.4 226.3 220.3 224.1 225.1 213.7 191.4 186.5 172.7 159 150.1 136.5 123.5 112.1 105.2 108.4 108.7 96.1 88.6 83.4 73.6 66.5 59 56.9 56.2 56.2 56.2 56.2 56.2 56.2 56.2 56.2 56.2 56.2 56.2 56.2 56.2 56.2 56.2 56.2 56.2 56.3 58.1 79.5 98.5 122.2 122.8 127.4 140 132.4 122.3 118.9 113 105.8 100.6 95.4 94.8 93.4 93.4 99.8 101.5 103.3 100.2 101 110.2 122.7 132.5 144.5 166 172.6 192.5 213.1 230.1 213.9 188.1 173.9 159 163.7 162.9 178.7 174.6 189.1 199.3 204 199.9 197.4 193.7 192.1 195.2 192.6 194.2 196.3 194.4 192.2 196.5 197.7 192.4 186.3 183.8 177.8 166.9 158.6 154.9 133.8 110.7 90.1 73 61 48.3 42.4 43.2 43.2 43.6 43.8 43.9 45.9 46.2 52 50.6 52.3 58.5 67.3 88.3 91.8 93.1 90.6 92.3 95.9 97.2 100.3 117.4 129.6 139.4 150.8 165.6 183 202.5 221.3 234.1 245.6 258.9 273.8 288.3 297.3 306.5 319.7 336.1 352.8 364.2 380.3 395.2 412.4 431 451 475.7 484.3 475.9 465.6 451.7 435.6 422 410.1 399.9 397.1 385.1 380.4 375.7
355.5 368.5 368.9 370.9 377.8 365.5 360.2 364.2 375.3 378.8 388.9 389 396.8 399.2 404.7 410.1 410 407.5 402.3 391.8 382.4 373.9 360.1 347.1 340.5 328 320.7 318 310.5 310.8 303.4 300 292.6 265.7 221.8 224.9 231.3 227.9 211.2 193.7 183.4 165.4 151.8 138.4 128.2 119.7 107.1 100.8 97 97.1 93.3 84.3 78.9 70.1 63.7 58.2 57.5 56.5 56.2 56.2 56.2 56.2 56.2 56.2 56.2 56.2 56.2 56.2 56.2 56.2 56.2 56.2 56.2 56.2 56.2 58.7 71.7 90.1 108.5 117.7 122.8 142.3 139.4 131.2 127.6 123.6 118.4 108.4 104.7 98 93 93.9 97 99.6 100.4 100.9 99.5 105.6 110.3 122.7 133.4 139.2 154 168.9 196 205 192.8 172 158.8 152 155.3 163.9 165.6 167 180.7 186.3 189.6 188.5 189.5 191.6 196.6 199.9 199.5 206 205.6 199.7 198.9 200.5 200.9 199.4 195.8 196.3 188.7 176.1 170.9 155.6 134.1 112.6 90 71.2 52.2 43.8 43.1 43.2 43.7 43.2 42.8 47.5 45.8 48 56.8 54.4 53.1 55.3 67 81.9 85.9 86.8 92.3 93 91.6 90.8 101.2 121.5 134.9 145.3 159 176.6 193.3 213.3 233.4 247.6 263.3 277.5 294.4 307.2 314.5 326.4 338.8 354.1 371.2 380.9 394.4 410.3 426.4 440.9 452.2 459.2 466.2 462.1 453.5 444.8 432.9 419.9 408 396.4 381.7 382 373.1 369.2
325.2 331.8 340.4 346.7 348.1 345.5 352 350.2 364.2 370.3 394 397.2 395.2 391.6 399.4 401.8 402 397.5 389.3 377.8 369.9 362 352.1 347.4 340.6 334 319.1 313.2 305.6 312.7 303.6 301.9 292 265.9 221.6 221.7 222.3 227.8 209.2 186.6 173.1 157.9 152.2 143.8 131.3 123.2 114.3 108.9 103.8 96.6 87.1 82.3 75.2 68.5 60.7 58.6 58 57.4 56.8 56.4 56.2 56.6 56.2 56.2 56.4 56.2 56.2 56.2 56.2 56.2 56.2 56.2 56.2 56.2 56.2 60.4 72.2 80.4 96.2 112.7 120.4 132 142.5 134 142.9 138.2 130.9 125.5 111.4 101.8 93.9 94 96.6 98.3 99.1 94.5 99 107.1 111.8 117.8 121.1 128.3 135.2 149.5 160.4 180.5 181.3 155.4 151.7 149.2 150.4 157.9 158.8 156 164.4 170.5 176.2 174.3 180.6 191.1 200.8 207 210.2 205.1 200.2 202.3 202.6 200.8 199.7 200.9 199 199.8 192.5 188.3 172.7 157.6 140.2 117.1 79.6 57.8 47.4 42.5 48.8 44.9 43 42.8 43.3 45.5 46.9 49.4 53.7 56.4 55.3 55.3 65.7 78.4 81.6 83.8 86.9 89.7 86.3 89.8 102.6 121.8 138 151.1 167.9 186.8 207.2 228.6 245.2 264.2 281.2 301.6 318.7 328.9 336 345.1 355.7 369.3 382.9 395.8 410.7 426.5 438.3 448 450.8 450.8 446.2 441 432.6 426.2 419.6 410.3 400.9 391.4 378.3 367.5 364.4 361.4
310.6 309.1 317.6 318.7 324.7 333.8 343.5 337.9 346.6 364.1 382.3 393.8 409 398.2 372.1 381.8 382.3 376.7 370.2 361.5 355.7 354.1 349.1 343.3 339.7 333.9 309 303.5 288.8 294.7 286.1 281.9 262.3 242.8 218.9 219.9 216.3 211.4 195.9 178 166.9 161.6 156.6 149.2 136.1 128.3 121.7 118.9 114.7 108.5 98.4 88.2 77.5 69.6 62.7 60 60.2 59.5 57.9 61.4 61.8 60.3 67.5 62.1 57.7 56.5 55.6 55.9 56.2 56.2 56.2 56.2 56.2 56.2 56.2 57.5 68.7 72.8 90.5 105.4 111.9 125 134.8 132.6 144.7 141.3 139.1 138.8 125.6 113.4 98.2 93.3 99.5 98.4 98.3 92.1 92 103.8 111.4 110.5 111.1 117.1 125.9 136.4 141.9 154.5 152.4 146.3 143.4 140.2 146.5 151.7 149.3 145 150 161.5 166.7 161.1 180.2 190.6 200 208.7 206.6 201.5 200.7 207 208.1 201.8 198.9 200.9 200 195.4 190.5 189.1 178.8 168.7 151.4 114.8 76.1 54.4 47.1 41.2 47.1 46.5 42.5 43.1 43.6 44 44.3 44.8 47.8 59.3 59.3 54.9 62.8 74 77.8 89.9 87.2 88.7 86 92.3 107.3 125.8 143 159.1 179 198.6 218.7 240.2 260.6 275.2 295.3 315.5 328.4 342.8 346.4 355 367.1 386.6 398.9 411.1 423.4 439 444.1 450.1 450.8 441.8 432.9 424.1 416.1 414.5 410.6 403.9 391.8 381.7 371.8 360.1 354.5 357.4
289.6 297.6 309 304.7 315.4 330.6 332.6 327.4 321.2 353.6 366.3 378.3 386 385.1 364.1 348.5 352.3 346.6 354.3 347 341.7 346.8 341.2 335.7 332.9 311.3 296 287.2 266.2 255.1 252.6 249 237.6 215.6 207.6 206.1 199.2 190.7 178.7 168.5 166.1 162.9 156.9 149.2 141.6 133.6 133.7 131.1 125.9 119.2 110.2 100.4 87.6 77 67.8 66.1 67.3 63.1 62 68.7 70.9 71.8 76.8 64.1 57 56.7 55.3 56 56.2 56.2 56.2 56.2 56.2 56.2 56.2 57.1 61 63.4 88.3 93.7 101.4 118.9 130.6 128 133.6 139.9 139.2 150.3 138.2 116.7 101.9 90.4 92.8 93 95.1 90.5 86.3 94.3 109 109.4 107.2 110.9 119 130.2 131.3 138.7 138.1 139.1 130.9 132.8 142.7 149.4 148.4 135.9 135.8 141.8 140.4 159.5 169.4 183.1 202 209.9 207 203.4 199.5 202.8 213.4 203.2 199.3 200.9 200.3 193.1 195.1 200.3 183.1 173.3 154.9 107.5 79.9 57.3 49.4 41.9 46.4 44.3 43.1 43.8 43.9 43.7 43.8 43.7 47.5 51.7 54.5 54.3 59.5 68.1 73.3 83.5 83.3 82.9 84.9 95.4 112.5 131.4 147.6 165.2 187.8 210.3 226.7 249.1 264.8 276.1 300.1 313.9 329.3 345.3 349.3 363.2 378 392.7 410 425.3 432.6 438 440.9 439.6 442.8 433.6 430 419.7 409.2 402.9 397.5 390.9 383.1 371.6 365.8 351.6 348.1 350
274.8 285.6 300.5 291 302.4 313.5 318.5 307.4 311.8 333.3 345.3 357.2 365.1 364.1 360.7 333.6 311.8 312.9 328.8 333.5 333.9 336.5 317.8 330.4 300.3 281.2 269.4 268.3 246.5 231 235.1 229.2 212.4 193.5 188.9 186.6 175.3 171.1 165.6 165.7 166.5 164.3 158.9 151.9 146 145.3 147.6 145 139.9 132.9 125.8 112.5 102.2 91.4 82.2 73.4 71.2 68.6 68.1 79.5 78.9 91 82.5 66.8 58.2 56 54.9 56 56.1 56.2 56.2 56.2 56.2 56.5 56.4 56.2 56.4 62.9 80.8 87 93.5 106.1 117.5 121.6 123.6 126.1 134.7 150.2 135.8 114.2 100.5 87.6 90.2 92.9 90.5 86.8 79.5 86.3 95.9 99.4 100.7 105.5 112.1 119 123.4 131.2 132.1 130.1 123.9 122.4 129 137.5 138.8 129.3 121 118.8 133.9 146.1 157.8 175.3 189.6 197.4 206.3 198.5 197.2 199.8 198.6 197.1 192.7 195.8 197.1 203.7 200.8 192.7 177.8 163.3 142.9 92.1 75.4 69.3 56.8 43.7 42.1 41.9 42 45.4 43.4 43.4 43.4 43.6 47.1 50.7 52.7 53.3 56.2 63.4 68.7 73.7 80.9 85 88.2 101.9 117.2 135.5 151.4 169.4 192.2 212.2 228.3 251.7 267.1 281.2 297.9 320.1 338.1 339.7 351.1 369.5 386 396.7 414.8 428.3 432.2 429.7 427.6 420.4 416.9 415.2 416.7 411.7 402.3 389 382.1 380 372.1 361.5 355.1 348.6 344.2 346
263.3 274.7 285.1 281 278.9 296.6 284.5 288.5 298.2 307.9 328.7 338.2 339.3 345.4 341.9 317.4 277.7 280 295.7 298.8 294.6 295.7 291.7 281.6 264.6 240.9 241 226.4 218.6 212.3 209.3 202.5 187.9 174.4 172.1 167.3 165.5 162.2 163.1 165.2 165.9 164.4 162.1 160 160.7 167.3 169.8 167.3 160.6 146.4 140.2 129 122.5 105.7 97.2 81.8 72.3 71.2 75.8 85.8 86.5 95.6 82.6 68.5 69.7 57 56.3 55.6 55.9 56.5 58.2 56.2 56.2 58 57.5 56.7 56.2 56.4 63.3 75.4 84.7 93.3 107.7 108.6 112.2 119.1 133.8 142.7 132.7 110.4 95.5 84 84.3 88.3 86.1 81.2 78.5 78.9 82.8 86.6 92.6 100.5 109.7 115.9 126.3 130 131.3 130 117.9 111 126.4 127.8 126.7 118.8 107.8 100.7 117.8 134.5 142.9 156.9 169.3 172.6 177.5 186.9 188.7 191.2 191.6 189.8 188.8 188.8 194.3 206.8 185.8 176 159.5 146.3 123.4 85.9 74.4 64.1 58 49.4 41.7 42.5 42.9 44.4 43.4 43.2 43.4 43.4 50.2 51 48.6 51.4 55.4 57.3 76.8 83.1 84.9 88.5 92.8 106.3 119 137.5 156.6 171.8 193.3 216.6 231.8 247.4 262 277 300.6 323 334.2 335.5 349.9 366.7 380.2 396.8 413.5 423.2 424.9 417.8 408.9 403.4 400.4 396.7 397.6 400.9 390.2 383.7 379.6 366.6 358.7 350.6 344.2 340.7 341 342.2
242.7 256.2 268.7 265.4 254 257.4 257.4 270.1 265 280.1 298.2 308.6 315.6 316.8 306.8 281.4 252.6 247.9 260.2 266.4 255.8 250.5 239.9 227.1 213.8 211.3 210.5 202.8 200.3 194 190.3 183 169.6 165.5 162.6 163.1 162.3 162 163.2 164.1 165.5 167.2 168.6 170.7 174.9 179.5 189.6 188 176 159.8 150.9 142.3 128 119.4 106.9 86.5 79.2 75.3 83.1 86.6 91.9 93.8 81.5 80.2 76.1 58.9 56.5 55.8 56 57.8 64 55.7 57.2 58 59 60.7 57.9 56.2 57.5 65.9 76.1 91.5 100.8 100.6 101.6 115.5 128 134.1 121.9 100.5 86.9 78.6 75.9 80.1 80.9 75.9 75 74.4 75.3 79.9 89.8 99 107 116.6 131.1 127.9 126.6 122.2 110.5 98.8 116.1 115.9 115.5 104.3 81.9 95.9 110.7 114.4 120.5 136 133.4 136.2 145.4 158.6 170.2 176.9 174.5 179.6 184.7 187.5 184.5 181.8 161.3 148.7 137.7 128.1 99.2 81.1 78.5 64.1 56.6 52.8 43.8 42 41.9 42.8 43.4 43.1 45.2 47.7 54.8 50.5 49.6 51.5 53.5 62.3 83.8 89.3 88.8 91.4 99 113.9 128 143.4 159.1 174.2 189.7 209.5 229.4 242.5 257 274 297.5 316.5 327.6 332.5 343.9 358.7 373.3 392.3 401.3 413.6 415.8 403.7 392.8 388.8 385 381.6 382.6 383.5 382.4 375.3 366.1 354.8 349.8 344.3 338.5 337.8 337.7 338.2
231.7 244.2 247.9 254.2 248.9 227.6 228 232.4 232.3 245.3 257.5 276.9 288 290.5 283.9 253.8 236.2 219 228.9 231.9 228.4 217.8 199.6 195.2 188.6 188.9 187.4 185.8 187.3 179.4 173.8 164.1 158.4 157.3 161 166 164.6 161.7 161.7 161.8 161.9 170.1 172.2 175.2 180.1 187.7 195.5 197.9 183.8 168.3 155.8 145.9 134.6 126 115.2 90 86.1 83.4 89.3 88.4 91.9 93.5 87.7 81.2 72.5 59.5 56.2 56.1 56.1 58.5 58.2 59.7 59 57.5 58.5 59.6 57.6 56.2 57.1 60 70.1 85.3 88.5 86.1 89.3 97.6 113.8 111.7 100.5 88.9 83.3 78.5 69.6 65.9 70 71 70.6 66.3 67.3 71.4 82.9 93.3 101.7 119.4 123.5 119.5 115.7 112.7 102 93.7 106.5 102.6 93.6 77.4 78 88.1 88.5 99.7 111.3 107.1 104.8 115.2 124.5 137.8 146.6 152.7 163.8 175.3 177.6 180.1 157.2 144.2 135.1 124.2 112 105.2 89.4 81.9 77.5 66.5 60.3 51.9 42.4 41.4 41.6 42.4 43 43.1 46.6 48.7 45.9 49 49.5 51.2 53.3 68.2 87.8 91.5 90.2 93 101.3 120.1 133.8 149.2 165.9 179.5 194.4 207.8 223.6 238.2 255.3 271.3 293.2 315 319.3 325.8 336.7 350.9 367.4 383 393.2 404.2 397.3 391.2 385.4 381.7 375.1 375.4 377.4 375.1 371.3 363.5 353.5 341.6 337.8 334.6 334.4 333.1 332.6 335.5
219 227.8 230.7 235.5 226.8 211.9 200.6 202.8 207.3 214.8 224.5 245.8 245 249.2 244.3 236 219.1 193.3 197.5 198.3 200.4 188.5 167.9 164 162.3 168.6 174.7 174.7 173.7 167.4 160.2 154.8 149.9 151.8 158 167.4 163.2 159.5 156.5 153.4 157.8 168.6 172.9 177 186.1 194.6 199.8 198.7 187.6 173.6 160.7 157.3 144.9 135.6 117.9 93.7 91.4 89.2 87.9 86.9 88.5 89 84.7 76.6 71.2 59.9 56 56.1 57.7 60.8 60 61.8 59 57.3 57.7 57.4 56.7 56.2 57.1 58.4 62.1 67.5 71.1 75.6 88.5 91.2 89.6 87.7 80.2 78.1 78.7 73.9 62.5 60.2 59.3 61.9 62.4 59.9 60 61.4 70.1 85.1 99.8 113.5 117.9 121.5 111.5 103.8 91.5 91 90 83.3 69.4 62.9 68.7 71.6 76.3 87.5 85.4 87 91.5 100.3 110.8 119.9 132.6 137.5 155.4 149.6 155.7 149.6 126.8 112.9 106 100.4 93.8 86.4 78.2 76 76.8 76.7 55.6 43.5 41 41 41.6 42.5 43.1 43.3 45.3 44.5 48.6 51.5 51.3 50.5 52.7 69.5 88.8 90.4 89.8 96.5 104.7 124.1 137.5 153.1 170.1 186.9 201.9 212.8 221.5 240.2 256.6 270.4 289.1 305 312.1 319.7 335.3 350.6 363.3 376.8 385.6 387 386.5 381 376.6 378.4 366.9 368 367.3 361.9 360.1 351.1 344.6 335.9 330.2 331 331.5 330.4 329.3 331.9
