ncols 200
nrows 82
xllcorner 330000
yllcorner 524400
cellsize 50
453.8 466.5 481 497.9 512.6 524.9 534.5 539.6 542.1 541.6 540.8 539.5 540.4 547.9 554.6 561.4 567.2 573.2 580.6 587.7 593.8 598.4 600.9 601.6 600.7 599.2 599.2 602.1 605.7 610.5 614.6 619.8 622.4 624.7 625.4 627.5 630 639.9 650.8 664.3 679.6 694.4 708.9 722.5 737.1 752.7 766.1 775.7 751.2 719.8 696.1 673.8 656.3 647.9 643 638.1 634.4 621.2 605.8 589.2 570.9 548.6 529.3 512.4 500 490.4 480.5 495.4 515 532.3 547.6 560.7 570.3 578.4 582.4 594.3 608.2 613 616 609.2 597.3 579.9 562.4 546.9 530.6 513.4 493.9 471 449.5 428.2 405.5 384.2 361 356.1 385 411.6 441.3 467.1 482.9 493.4 500.3 503.1 502.3 496.6 484.4 470.6 455.3 437.8 420.3 401.6 384.1 367.3 350.3 333.7 317.3 302.5 291.6 275.9 261.9 250.3 238.4 227.5 217.4 210.4 206.8 200.7 191.5 195.1 204.4 209.5 210.1 210.4 210.9 213 214.3 212.4 211 212.9 214.2 213.5 212.7 213 214.7 217.6 222.9 226 232.7 239.6 249.6 258.5 265.6 269.6 273.6 277.4 278.4 274.9 269.9 267.9 264.3 259.9 254.7 250.3 245.9 242.8 241.3 241.6 242.5 244.6 247.6 250.2 252.7 255.6 258.6 262.4 264.7 266.8 268.4 268.8 270.5 272.9 274.4 273.6 273.1 275.7 277.8 279.6 280.8 281.7 279.1 280 284.5 290.9 299.2 295.9 292.5 291 289.4 287.9 287.2 285.8
451.5 461.9 477.7 493.2 508.5 521 528.8 533 534 533.9 532.5 530.8 541.7 548.7 555.5 561.9 567.7 576.4 584.1 591.5 597.2 600.5 600.3 598 595.2 592.4 591.7 594.2 597.6 601.3 603.9 606.7 608.8 611.1 613.2 614.7 619 630.3 646.6 662.5 678.9 694.4 709.8 725.4 741.8 758.3 773.2 786.6 774.9 743.5 713.8 689.9 662.1 652 655 659.8 659.3 639.4 614 603.7 580.9 557.1 537 515.8 503.4 494.1 483.4 476.8 489 503.2 515 525.9 536.6 545.8 553.8 569.1 585.2 595.7 609 602.7 590.9 572.7 555.4 540.4 525.4 509.6 491 469.3 450 428.8 404.6 380.4 359.2 362 387.7 414.7 442.7 468.2 484 495.7 501.9 505 505.2 494.6 480.4 464.1 446.3 427.2 408.4 390.1 370.7 351.6 333.8 318.4 300.9 290.4 277.9 263.5 252.6 241.2 231.7 218.8 209.3 206.5 204.9 196.3 190.9 196.2 210.3 210.1 209.1 208.7 208.7 210 210.7 209.9 210.5 212.3 212 211.6 211 211.8 213.2 216.2 221.9 225.2 228.9 234.1 243.2 251.8 259.9 266 271.6 275.4 274.8 268.9 265 265.4 262.9 259.7 255.5 250.7 246.2 243.4 241.7 242.2 243.4 245.7 249.9 252.1 255.4 258.6 261.7 265 267.4 270 272.1 273 273.7 275.7 277.6 277.4 276.6 277.1 280.3 282.1 283.6 282.4 279.9 280.3 283.8 292.2 300 295.7 291.3 289.6 288.5 286.4 285.3 285.4
448.2 458.4 472.2 488.1 504.1 514.3 521.2 523.9 524.5 522.2 521.7 534.2 542.4 549.5 556.4 562.6 572.1 580.5 588.1 594.7 598.8 599.1 596.9 593.3 589.3 585.3 582.3 584 587.3 588.7 590.2 591.1 594.2 596.6 597.7 608.8 624.4 637.9 652.3 666.5 681.7 698 714.4 730.7 747.2 765.8 783.7 801.3 805.5 784.1 755.6 716.8 693.3 693.3 710.6 705.5 685.9 649.2 632.4 620.5 601.3 572.3 548.7 526.3 508.1 498.3 487.6 478.3 470.5 477.8 486.8 495.9 505.9 514.9 526.1 543 558.7 575.8 592.4 592.7 584.2 566 548.6 534.4 520.1 503.7 485.7 466.7 449.7 430.1 405 381.1 360.3 368.5 393.3 421.5 448.7 471.6 488.3 499.6 506.3 507.8 499.4 486.5 472.1 455.8 438 418.1 398.2 378.5 358.2 339.6 320.2 298.9 283.9 273.9 258.4 244.5 240.5 232 224.3 214.4 209 205.2 198.5 191.5 190.9 203.2 207.6 207.9 207.8 206.8 206.1 206.8 208 208.4 209.4 209.5 209.1 208.2 208.2 209.9 211.6 215.7 222.5 224.5 228.2 232.4 237.6 242.1 249.9 257.7 263.9 267 263.8 260.3 260.6 261.7 260.8 258.8 256 251.1 246.5 244.3 242.2 242.8 244.6 248 251.3 255.8 259.7 263.3 265.6 268.2 270.8 273.2 275.9 276.8 277.7 279.1 280.9 281.1 279.6 278.5 282.6 284.5 283.5 282.3 280.4 280.7 281.4 286.4 301.3 292.6 289.1 287.8 286.2 285.4 285 287.6
444.8 454.2 465.8 483 497.3 506.6 511.4 511.8 508.4 514.2 527.6 535.9 543.4 549.7 557 565.7 577.6 586.2 592.9 597.4 596.8 594.5 590.8 585.8 580.9 576.7 571.5 573.1 574.3 574.9 572.9 571.4 583.3 590.6 600.3 608.9 629.3 642.3 656 671.4 687.5 703.6 720.8 737.5 755.6 775.4 795.8 815.9 834 839.4 824.7 802.1 759.9 737.5 704.2 686.2 669.4 659.8 652.7 642.1 629.2 601.6 574.8 534.8 514.4 503.2 496.4 484.7 473.8 465.5 468.6 472.6 480.6 491.1 501.2 518.1 533.3 554.4 568.6 578 570.5 557.2 542.5 529.7 515.2 499.8 482 465.1 449.2 430.6 407.1 379.3 359.9 374.2 399.4 426.9 454.8 477.8 493.1 503.2 507.6 501.7 492.1 479.5 466 448.9 430.4 409.5 386.3 365.1 343.9 323.5 302.4 281.3 268.9 266.3 258.6 248.6 237 224.6 215.9 210.7 207 203.2 194.4 190.3 189.2 199.2 204.9 205.3 205.7 204.3 203.6 204.9 205.7 206 207.3 207.7 206.7 205.8 206 207.6 209.8 214.8 220.2 222.7 226.5 230 233.2 237.7 241.4 245.4 250.4 253.1 253.1 255.2 258.1 259.2 259.1 257.8 254.8 251.5 247.1 245.1 243 242.5 245.5 249.6 253 257 261.9 265.3 268.1 271.2 274.7 278.1 279.6 281 281.9 282.7 284.1 284.1 281.9 280.6 282.8 284.4 283.4 282.2 280.5 280.8 280.8 281 285.5 285.2 285.1 286.1 285.6 284.5 286 288.9
441 449.9 460.5 475.3 488.5 496 498.4 496.1 509.9 522 529.9 535.9 542.1 549.1 559.5 572.7 583.3 590.7 593.3 592.3 589.4 585.9 580.2 575.5 570.9 567.7 561.9 561.5 559.4 561.3 576.6 588.2 597.4 606.8 616.1 621.3 626.8 644.2 660.3 675.7 692.3 710.3 727.9 746.7 766.2 787.7 808.8 829.7 844.1 834.2 820.3 786.4 739.8 692 665.3 647.8 637.1 637.7 645.2 643.2 641 617.7 585.7 551.9 525.1 509.1 497.9 495 483.5 474.5 466.8 460.1 462.7 470.7 478.8 495.2 509.4 527.7 543.9 559.4 557.2 550.4 539.9 526.2 511.5 497.1 478.5 465.3 451.5 435.1 412.9 386.3 366.3 379.5 402.1 429.7 457.8 479.2 492.1 498.1 497.8 493.1 485 472.3 457.4 439.4 419.6 395.6 371.5 350.2 328.1 303.5 286.3 293.2 283.5 271.9 259.7 246 234.9 223.9 213.2 207 201 197.7 191.8 188.6 187.9 193.2 202.2 202.5 202.5 201 202.1 205.8 205.2 204.1 205 206.1 205.6 204.6 204.2 205.1 208.1 213.3 218.4 219.6 225 227.6 230.5 233.9 238.2 241.4 244.1 247 249 252.5 256.2 257.1 257.7 255.3 253 249.5 247.6 245.6 243.8 243.2 245.7 250 254.3 261.3 265.1 268.7 270.3 273.7 277.3 280.6 283.3 285.2 285.6 285.8 287.1 286 283.2 281.5 283 283.9 283.2 282.2 281 281.4 281.4 281.4 281.1 282.7 285.2 286.3 285.3 284.3 286.7 289.6
437.6 446.2 455.5 467.2 478.2 484.9 486.7 501.9 516.8 523.9 526.8 532.7 539 547.5 561.4 572.6 581.9 585.7 585.8 583.5 579.6 574.7 569.7 564.1 561.2 558.1 551.7 548.4 559.5 570.8 581.3 592.4 602.3 613.5 624 633.8 639.3 643.1 664.1 681.6 699.1 717.7 736.7 756.2 775.7 795.7 816.4 835.7 839.7 830.7 806.3 758.3 713.1 673.7 644.2 620.2 608.7 606.8 617.1 624.9 622.7 610.9 588 558.9 532.8 515.4 518.4 507.2 497.3 485.4 478.8 468.6 458.9 455.2 461 471.8 485.9 502.8 518.9 535.1 540.5 542.3 534.1 522.6 511.2 494.6 478.2 466.2 454.7 439.1 418.4 392 369.8 378.9 400.6 429 457.6 476.4 487.3 493.3 493.5 490 482.2 470.5 455.3 434.7 411.8 387.5 363.5 335.7 310 314.3 313.6 304.1 292 277.5 262.8 248.1 235.2 224.5 215.8 207.9 201.2 194.9 190.6 188.2 187.2 192.5 199.2 198.4 198.4 198.8 202.2 204.1 203.4 201.5 202.6 203.7 202.7 202.4 202.5 203 206.4 211.9 215.2 218.7 222.5 225.8 229.1 232.1 235.9 239 241.9 244 246.1 249.3 254.1 255 254.2 253.4 252 250.7 247.8 245.9 244.8 243.9 246.5 250.7 257.4 263.8 267.4 270.6 273 276.1 278.7 282.3 285.8 288.8 289.1 288.9 289.9 287.5 284 282.1 283.4 283.3 282.9 281.9 282 282.8 283.2 283.2 282.1 282.6 283.8 284.9 284.6 284.4 287.4 290.3
433.5 442 450.6 459.9 470.8 479.2 497 514.2 517.9 520 522.4 526.6 533 545.1 557.8 567.9 574.7 577.7 576.5 573.6 568.7 563.3 557.8 554.7 551.8 547.7 542.8 553.8 563.8 574.1 585.2 596.3 608.1 619.5 631.4 643 653.8 662.8 668.4 686 705.7 725.6 744 762.8 781.5 801.5 822.5 836.7 836.7 828.2 804.1 746.6 698.9 662.3 628.8 606.4 597.6 597.6 597.8 602 599.7 589.2 573.6 561.2 548.1 539.1 530.9 523.1 514 504.1 492.3 482.7 474.2 459.3 449.9 452 463 478.3 493.2 508.4 518.9 528.2 526.2 517.1 508.6 490.8 476.7 466.9 453.9 438.6 419.7 394.2 374.1 377 399.9 429.4 454.8 473.3 483.7 490.7 492 488.5 482.8 471.4 454.8 432 408.1 384.5 362.6 333.6 341.2 335.9 326.7 314.6 299.4 282.1 264 247.4 233.2 223.2 215.8 207.5 200.3 192.9 190 187.7 186.6 192.8 196.2 194.6 196.1 197.8 199.8 200.8 199.2 198.4 199.5 200.5 199.1 200.5 201.2 201.3 205 210 212.5 214.6 219.8 224.1 227.9 231.2 233.5 236.7 239.5 241.7 243.8 245.9 250.3 252 252.6 252.7 251.9 250.5 248 246.9 245.8 246 247.9 253.1 257.7 263.6 268.9 271.8 274.8 277.9 281.1 283.8 287.5 292.3 291.8 292.2 291.9 288.2 284.9 282.4 283 282.8 282.6 282.6 282.7 283 283 283 282.6 282.2 282.9 283.9 283.7 284.7 287.6 290.7
426.5 438.2 448.5 459.1 471.9 492.6 508.4 511.9 511.2 511.5 513.1 517.9 526.1 538.5 551.1 560.5 566 566.8 565.4 561.4 556.3 552.2 548.2 546.1 543.2 537.7 546 555.8 566.2 578 589.2 601.3 614.4 627.2 640.9 653.6 667.2 679.4 691.1 702.3 715.8 733.2 751.9 769.4 787.3 807 827 836.9 836.4 826.4 795 750 711.1 671.4 625.2 598.7 597.6 597.6 597.6 592.9 592.8 592.9 589.9 584.9 577.7 567.7 555.7 545.1 533.9 519.1 515 499.9 490.1 479.6 467.1 451.7 444.9 455.2 469 482.2 495.3 505.9 510 504.9 495 481.3 470 463.3 453.2 438.2 419.9 395.8 378.3 378.8 402.4 430.2 455.6 472.1 481.6 489.7 491.5 488.9 484.8 472.9 453 430.2 407 384 363.5 359 358.3 349.3 339.1 325.5 304.6 283.6 263.3 246.2 231.8 222 213.8 203.1 195.6 190.7 188.9 187.2 185.2 190.5 192.4 192.9 194.1 195.9 197 197.4 196.7 196 195.9 196.3 198 200.1 200.3 200.8 205.2 208.8 210.2 212.6 216.3 222.6 226.6 228.7 230.4 234.5 237.5 239.4 241.5 243 245.4 249.3 251.3 251.9 251.8 250.6 248.4 247.7 247.2 248.3 252.1 255.9 260.5 264.9 268.6 274.8 277.8 280.1 283.2 285.6 289.3 294.1 294.1 294.4 292 288.4 285.4 282.7 282.7 282.7 282.7 282.6 282.8 283 282.8 283 283.6 282.4 282.7 283.2 284.1 285.3 288.2 291.3
427.1 436.9 449.2 463.4 481.7 498.7 502.8 502.5 501.1 500.6 502.4 506.9 519.3 531.7 542.4 548.8 552.1 552.9 552.4 549 545.3 542.6 540.4 536.9 530 537.8 545.6 558.4 569.6 582 595.3 608.5 621.9 636.2 651.3 665.7 680.2 693.1 707.9 720.9 733.8 745.7 760.1 776.8 793.5 811.6 828.3 837.1 833.3 824.1 782.7 749.6 721.6 682.9 646.5 609.9 599.5 596.9 599.1 606.8 611.1 614.6 613.8 613.2 607.9 598.2 585.9 572.9 561.3 549.1 535.9 522.3 510.6 497.8 485 471.9 453.8 438.2 445.8 457.9 470.6 479.6 484.3 482.6 476.3 466.9 455.9 447 435.9 425.5 409.6 393 378.2 388.1 410.6 437.9 457.7 470.3 479.9 488.2 493.7 494.4 487.6 473.3 454.7 431.8 405.5 383 365.9 374.9 366.5 354.8 342.8 322.9 302.4 281.6 262.5 245.9 230.8 221.9 212.1 202.2 194.9 190 188.3 186.7 184.9 189.4 190.9 193.1 193.7 194 195.1 196.4 196 194.8 194.1 196 197 197.6 198.8 200.3 204.3 208.1 208.8 211.7 215.3 221.4 225.2 226.6 227.8 232.9 235.4 237.1 238.7 241.4 243.4 247 249.5 251 251.6 250.4 248.9 248.8 249 251.5 256.2 259.5 264.2 269.7 272.8 276.2 279.1 281.4 284.3 287.1 290.8 295.4 296.3 295.6 291.6 288.3 285.5 282.8 282.8 282.8 282.8 282.8 282.7 283 283.1 283.6 283.6 282.8 283 283.4 283.9 285.8 288.8 290.8
424.1 434.2 448.9 463.6 480.5 488.7 490.1 487.6 486.7 486.5 488.3 498.8 510.8 522.2 530.8 534.9 537.4 539.7 539.2 538.4 537.1 534.4 529.7 524.6 535 541.7 551.1 560 574.1 587.8 601.5 615.7 630.7 646.8 662.8 677.8 693 708.8 723.3 737.3 750.1 761.9 772.3 787.1 800.9 814.6 828.4 833.1 830 816.4 777.7 748.7 727.6 708.3 664 628.2 611.9 615.7 622.6 631 639.9 641.7 641.2 639.3 634.9 626.8 616.3 602.7 590 576.1 561.9 548 533.4 518.7 502.8 486.6 468.7 457.7 438.4 434.6 447.2 453.9 458.7 459.4 455.4 446.5 436.5 425.7 413.1 400.6 389.1 384.3 388.2 407.9 427.8 445.1 456.8 466.3 475.2 482.9 486.9 486.7 481 465.1 444.5 428.5 405.7 379.6 380.8 374.7 364.9 351.5 336.1 319.5 300.1 280.2 260.7 244.3 228.7 218.3 207.6 199.4 193.4 191.1 187.8 186.3 183.8 187 191 193.4 192.6 191.3 192.2 193.6 193.3 191.8 192.5 194.6 194.7 196.2 198.3 199.8 204 206 206.9 210.4 215.4 220.3 223.9 224.9 226.1 231.1 232.9 233.3 236.5 239.5 242 245 247.6 251.1 252 250.6 249.5 249.5 250.6 255.9 259.7 261.7 266.2 269.6 273.1 276.5 279.7 282.2 286.1 289.6 293.3 297 298 295.5 291 288.2 285.8 282.9 282.8 283 283 283 283.2 283.8 284 284.2 283.5 283.4 283.5 283.8 284.9 286.2 288.8 290.9
418 430.4 444.4 458.7 470.3 473.3 474 472.8 470.7 470.1 475.4 488.1 499.3 508.1 514.2 519.5 524.2 527.7 529.2 528.6 526.6 522.1 523.9 535.7 544.7 552.8 562.1 567.2 576.8 593.3 608.1 624.3 641.1 657.3 673.3 690.3 707.2 723.3 739.4 753.4 765.8 777.9 788.2 800.1 810.7 821.1 829.2 831.5 828.6 809.2 772.6 746.4 725.3 701.9 675.8 649.2 639.1 644.6 647.7 655 657.3 657.6 658.5 656.9 652.3 645.9 637.5 627 614.6 601 588.3 573.6 558.1 541.2 524.6 506.4 490.1 476.1 456.3 439.8 424.4 430.8 434 436 433.2 424.8 414.7 404.9 391.7 392.7 400.6 406.2 414.8 425.8 436.6 445.6 453.5 461.3 467.4 473.3 476 476 468.9 456.8 438.6 421.1 399.8 380.9 376 367 357.7 346.2 331.3 313.8 296.3 275.5 255.3 238.4 224.1 214.7 203.6 195.9 193.7 192.2 190.4 188 183.8 183.5 191.7 192 189.9 188.6 189.7 189.9 189.2 188.7 190.5 191 193.9 195.3 197.8 200.4 203.8 204.8 205.2 206.5 216.1 219.9 223 224.1 224.6 227.5 230.8 231.1 234.7 237.8 240.8 243.4 247.1 250.8 251.7 250.7 250.3 250.8 252 256.7 260.9 263.3 266.3 270.7 274.7 277.7 280.4 283.7 289 294.4 296.6 299.4 299.3 295.7 291 288.1 285.5 284 283 283.2 283.4 283.4 284.3 285.4 285.8 284.6 284.6 284.2 284.4 284.9 286.5 286.5 288.4 288.9
409.4 421.9 435.8 447 454.6 456.1 455.2 453.9 454.3 451.4 465 476.6 483.8 488.2 492.6 497.5 504.8 513.2 516.9 515.4 514.2 522.1 533.8 543 552.6 562.2 572.4 582.2 591.1 595.5 614.2 632.7 650.1 666.4 684.7 701.1 719 735.9 752.1 767.3 781 791.8 802.7 811.4 821.6 829.6 831.9 833.5 832.7 827 791 764.3 739.4 712.4 690.1 670.9 665.3 666.6 670.6 671.7 670.2 670 671.4 670.2 666.2 660.2 652.3 642.3 631.9 620.6 609 597.1 580.8 563 545.2 529.5 512.1 493.6 477.2 458.3 441.1 427.3 417.4 413.5 415.6 404.8 398.6 403.7 410.8 418 422.8 429.4 435.4 436.7 436.3 441.7 448.5 454.7 460.3 466.6 467.5 463.8 456.6 442.3 427.9 414.5 396.5 379.5 373.5 360.9 347.4 335.4 323.8 309.2 291.2 269.6 251.6 236.1 222 207.7 202 197.8 196.3 192.3 190.7 189.3 184.3 182.8 185.5 189.7 188.2 186.9 188.3 187.7 187 189.1 190.7 190.1 192.3 194.4 198.1 205.2 205.4 205.2 206.9 211.5 215.7 219.2 222.1 223.4 223.9 226.7 227.9 230.2 233.5 236.7 239.7 242.8 246.3 249.6 251.4 250.9 251 252 253 256.1 259.9 263.9 266.9 271.2 275.1 278.9 281.6 288.7 295.2 299.9 301.5 302.2 300.3 295 291 288.9 286.2 284.2 283.6 283.5 283.7 284.1 285.7 287.4 287.7 286.6 287.5 286 285.4 286.9 287 285.5 287.4 286.1
401.1 412.1 422.5 431.2 436.4 437.6 436.6 435.9 434.5 437.4 452.1 459.4 461.2 463.6 463.3 467.9 477.3 489.2 506.1 516.2 523.9 531.6 542 551.1 560.6 570.5 581.8 593.2 604.7 616.7 622 638.7 657.1 675.9 693.7 711.9 730 747.1 764.3 781.2 794.7 805.3 815.8 823.8 831.5 838.6 841.6 842 840.5 832.5 805.4 782.3 751.1 726.2 709.1 697.3 690 689.4 688.1 684.2 678.8 677.6 680 682.8 679.6 673 662.5 651.8 641.2 629.1 619.1 608.7 596.3 582.2 566.4 549.5 532.1 515.2 497.9 480 466 449 439.2 428.8 421.4 421.8 426.2 429.2 432.3 437.6 444 443.7 440.2 436.3 428.1 431.3 438 447.5 453.8 457.4 458.5 453.8 444.8 432 417.4 405 384.6 375.5 370.9 359.2 344.3 328.1 315.7 304.2 284.3 260.4 243.4 231.8 217 206.6 201.8 198.9 198.7 194 192.3 188.9 183.7 182.2 179 187.4 185.5 185.7 185.7 186.2 187.3 189.3 191.4 192.1 193.7 196 199.6 205.4 206.5 206.9 208.3 211 213.8 215.9 220.8 221.9 223.8 227.2 228.7 229.7 233.3 236.1 239.7 243.5 247.2 248.5 249.9 251.3 252.1 252.8 254.1 256.8 260.7 264.6 268 272 276.2 280.7 289.4 299 303.5 306.7 306.4 304.1 299.4 294.4 293.1 290.2 287 284.9 284.4 284.3 284.3 286.2 288.1 289.9 289.7 290.1 289.6 286.6 286.9 287.7 286 284.8 285.6 284
392.8 401.2 408.5 414.8 417.4 416.9 416.4 412.9 411.3 420.8 434.5 438.9 446.6 462.2 475.5 490.1 500.8 509.5 518.5 526.4 534.3 540.7 549.7 559.2 570.3 580.7 594.6 608.2 621.7 632.3 642.3 647.3 664.6 683.1 701.9 720.1 739.7 757.7 774.8 791.4 805 818.4 828 836 841.5 847.3 850.9 850.8 846.3 831 807 785.9 765.6 746.7 732.4 722 714.2 707.8 703 698.2 691.4 672.5 658.5 655.8 661.3 663.9 657.2 657.5 645.8 638.3 631 619 606.8 597.3 584.8 570.5 554.5 538.6 521.2 502.6 484.2 470.5 460.8 454.1 450.4 446.8 447.4 448.5 451.4 453.4 449.4 441.1 432.3 422 401.2 404.1 423.6 436.3 444.7 447 448.4 442.6 431 417.7 405.1 390.8 373.9 365 363.1 351.3 339 325.6 311.9 295.3 272.8 264.3 253.2 233.4 218 207.4 200.5 197.7 197.6 194.4 191.8 188.7 184.6 181.4 180.6 182.5 181.9 181.5 183.1 186.3 188.4 190.5 192 193.7 195.6 198.7 202 206.9 207.2 206.9 208.1 214.7 217.6 220.1 219.3 221.3 224.1 228 229.6 230.9 234 236.9 240.2 243.7 246.9 247.3 248.5 250.6 252.2 253.5 256.3 259.2 262.7 266.5 270.1 272.6 276.6 283.4 297.8 306.5 310.3 310 306.8 303 298.1 296.1 294.8 291.5 288.3 285.7 285.5 285.1 287.2 288.7 290.4 292 292 292 290.2 286.9 287.7 286.1 283.9 283.7 283.9 282.3
382 386.9 392 391.2 392 394.7 404.1 408.8 415.5 426.4 438.4 452.8 466 481.9 494.2 507.1 514.4 521.6 529.5 535.9 542.8 550.2 557.1 569 580.2 593.6 607.2 622.1 635.6 649.6 660.6 669.5 677.2 692.5 711.2 729.5 748.9 766.9 784.4 800.2 815.2 828.8 838.7 845.7 851.1 855.4 858.8 859.3 845.2 826.6 803.4 789.8 777.6 764.6 752.8 743.5 733.9 723.7 714 702.3 673 644 629.6 623.1 626.8 634.4 626.4 633.1 625 624.9 637.7 628.5 619.4 610 598.4 587 573.6 561 545 527.8 506.7 493.1 482.1 475 469.6 465.9 463.9 463.4 459.8 450.6 438 423.7 408.1 388.3 370.6 379.1 405.5 422.2 430.5 438.4 438.3 430.1 416.4 400.9 385.8 371.7 355.4 347.9 353.6 346 329.7 315.8 302 283.5 279 270.5 251.4 234.1 218.2 210.5 201.2 195.1 199.5 193.4 189.3 187.5 184.8 180.9 179.8 178.9 180.7 181.5 182.9 185.1 187.5 189.9 193.3 195 196.8 200.2 203.6 209.5 207.5 207.6 212.9 216.4 219 221.7 221.7 221.8 224.8 229.1 230.3 232.1 234.6 237.6 240.7 243.9 246.2 246.1 247.6 249.7 252.2 254.6 256.9 260.7 263.9 267.6 271.5 274.2 276.8 287.3 300.6 309 309.7 308.6 305.5 302.9 300.1 298.6 296.6 293.2 290.5 290.1 289.1 288.3 290.1 291 292.7 294 293.7 292.9 289.8 286.7 286 284.1 281.9 281.1 281.2 279.5
364.4 365.7 375.7 393 405.4 412.7 421.2 430.2 438.9 452.4 461.4 473.3 484.8 496.6 506.6 515.1 523.1 531.5 538.2 544.8 552.1 561 570.4 579.3 592.8 606.3 620.7 636.8 650.8 664 677.7 689.1 698.3 707.3 722.6 740.7 758.6 776.4 793.4 808.4 825.2 839.2 848.1 854 857.9 856.1 864.3 852.9 821.5 802.2 779.2 750.4 749.4 748.8 742.5 741.5 745.2 740.1 714.5 683.1 651.8 622.5 598.3 588.7 595.6 601 591.2 604.9 597.9 594 606.7 626.1 632.5 618.9 607.5 597.3 587.1 575.6 562.6 546.7 529.1 515.1 503.1 494.4 486.6 479.7 473.5 465.5 445.2 430.3 416.1 396.9 376.6 353 340.8 360 389.8 408.5 421.1 426.6 428.6 424 411.6 392.1 371.6 347.3 337.8 325.2 331.4 327.7 318.7 308.6 298.1 289 276.1 263.4 246 231 220.6 211.7 203 195.1 194.2 190.7 186.7 184.9 182.8 180 179.1 176.4 180.3 180.3 181.5 184.3 187.2 190.7 194.2 195.7 198.4 202.4 207 210.8 208.5 210.4 214.5 217.5 220.1 222.8 222.8 223.7 226.9 229.5 230.9 233 235.5 238.2 241.1 243.5 244.4 245.3 247.6 249.9 252.6 255.4 258.8 261.8 265.2 268.8 273.5 275.5 278.2 290.4 299.2 302.3 303 305.5 304.5 302.6 300.1 298.7 296.9 293.8 293.1 293.6 293.3 292.4 293.7 294.8 296.5 296.1 295.7 293 288.3 285.5 282.9 281 278.9 279.2 278.8 277
368.5 378.5 390.9 404.5 416.3 426.1 436.4 447 458.7 470.9 480.9 489.5 500.2 509.5 518.3 525.5 532.7 540.7 547.5 556.1 566.6 575.6 584.9 593 604.4 620 635.9 650 666.1 679.8 693.2 704.9 715.8 725.3 735.8 752.9 769.3 786.2 802.8 817.9 833.6 847.3 854.7 839.3 834.3 835 846.6 840.7 797.9 768.6 758.9 721.6 709.2 709.7 702.9 700.1 712.2 711.9 701 665.3 633.7 605.7 575.3 552.2 565.9 565.2 556.9 576.4 573.1 564.1 578.9 598.8 617 622.6 612.4 602.7 593.8 583.8 570.3 557 543.9 531.4 519.6 509.1 498.8 487.7 477 454.8 430.7 409.6 390.1 370.2 348.7 327.4 320.6 348.4 374.2 393.5 410.1 414.1 414.6 409.1 398.6 382.4 357.4 333.5 317.5 299.6 310.5 323.9 320.2 314.6 301.7 284.5 269.6 256.3 240.6 230.3 222.9 212.3 200.2 191.8 190 185.7 184.8 185 185.2 180.9 177.3 177 179.2 179.9 181.7 184.3 188.6 192.4 194.6 198.2 201.7 205.4 209.3 210.9 210.7 211.6 216 218.8 221.4 223.1 223.4 225.4 228.7 229.9 231.6 233.8 236.6 239.3 241.1 242.6 243.2 245 247.9 250.5 253.3 256.4 259.7 262.7 266.2 269.8 274.2 277.5 280.1 288.6 295.4 297.9 300.3 301.9 302.7 301.8 300.7 298.9 297.2 295.7 295.4 296 296.6 297.1 299 299.7 298.8 298.2 295.8 291.7 287.6 283.7 280.5 277.4 276.3 277 276.2 272.9
369.2 379.4 395.2 410.6 422.9 434.8 445.5 458.1 473.1 485.5 495.7 504.2 512.1 521.4 530.3 538.3 545.8 556.1 566.8 576.7 583.9 592.7 602.7 610.6 619.5 632.6 648.8 664.7 679.4 693.4 707.5 719.7 731.9 742.6 751.6 766.8 781.4 796.4 811.7 827.2 840.9 851.1 826.8 804.6 800.3 805 816 825.9 784.9 750 725.4 703.7 668.5 672.1 664.4 663.2 678.5 677.3 681 654.4 617.4 584 554.4 527.7 533.6 529.3 524.9 539.1 545.9 534 549.5 571.4 591.9 610.2 613.4 605.9 597.1 586.9 575.3 564.7 553.8 543.1 530.9 519.4 507.4 494 477.7 445.6 420.3 384.7 360.9 346.2 325.6 306.7 303.6 333.1 356 376 391.9 400.9 401.7 393.8 382.8 367.9 348.2 328.1 310.3 284.8 294.6 312.7 312.3 310.5 297.6 287.9 276.6 257.3 239.8 228.8 221.9 215 201.2 191.1 186.6 184.5 183.9 185.6 185.2 178.1 176.3 177.8 178.6 180.5 182.8 186.5 191.2 194.7 197.2 201.6 205 208.5 211.1 211.7 213 214.2 217.8 221.1 223.4 223.4 223.7 226.9 230 230.8 233.4 235.9 237.7 241.4 243.4 245 244.8 244.8 247.7 250.6 253.5 256.6 260.2 263.6 267.1 270.8 274.6 278.1 282.5 286.2 290.3 295 297.6 299.2 301.2 302.1 301.9 300.9 299.4 298 297.5 298.6 299.7 301.2 302.3 301.8 300 297.7 294 290.2 285 281.2 277.6 273.3 274.8 274 271.2 268.3
368.9 383.8 400.5 415.3 429.1 441.5 454.2 471.3 487.2 499.4 508.8 517.1 524.3 533.5 542.9 554 564.6 576 586.4 595.8 603.2 610.4 618.9 626.8 635.7 647.7 663 678.6 693.8 708.3 721.7 735.1 748 760 770.5 781.5 794.9 807.4 820.3 832.2 840.4 823.6 798.9 772.5 765.4 775.5 785.2 799 777.7 732.5 691.1 675.1 646.4 633.2 623.2 629.1 643.6 642.8 650.4 646.1 607.6 571.5 535.2 506.7 501.2 493.9 493.6 503.2 514.8 502.1 521.6 545.1 566.6 588.6 609.3 606.5 599 589.4 579.1 568.6 558.5 547.8 535.7 522.6 509.7 492.5 472.5 438 402.7 371.3 345.6 326.9 310.5 292.2 290.9 318.6 337.1 356.8 371.8 378.3 383.9 377.6 367.5 354.8 342.5 325.9 310.8 281.7 282.4 298.4 295.9 289.8 285.2 274.5 267.1 252.1 233.5 222.6 214.4 205.7 198.5 187.1 184.7 183.4 183 184.2 182.9 177 176.4 177.4 178.2 179.9 183.8 187.8 192.1 195.4 200.8 204.4 207.4 210.2 212 214 215.9 217.5 220.8 223.3 224.5 224.1 225.4 229.5 231.7 233.5 237.1 239.4 240.6 242.7 245.6 246.3 245.2 245.6 247.5 249.7 253.1 256 261.4 264.6 268 271.7 274.6 278.1 283.1 284.9 287 291.7 294.6 296.8 299.8 302.1 302.9 302.1 301.1 299.7 299.6 299.5 300.1 301.1 302.8 301.8 299.6 295.9 292.1 287.8 282.2 278.6 276.5 276.4 271.2 268.5 268 267.9
369.9 386.1 402.4 418.4 435.1 450 467.7 485.7 500.8 513.1 525.8 535.7 545.2 554.4 564.4 573.9 584.7 596.9 608.3 618.3 625.1 629.4 638.9 647.3 657 664.3 678 692.2 706.8 722.4 736.9 751.1 764.6 777.1 788.8 798.7 808.9 819.1 828.7 834.8 815.1 791.1 764.5 740.5 730.6 740.9 752.8 763.1 771.2 728.1 682.7 645.6 619.6 595.6 588.4 594.1 605.8 607.1 619.2 625.7 599.8 562.5 522.7 488 469.1 461.3 459.8 470.2 476.1 473.5 497.8 522.5 548.4 573.8 598 605.4 597.5 588 578.1 568 557.9 546.9 534.4 520.4 504.9 487.8 469.2 445 401.9 369.3 340.4 319.8 305.7 288.2 279.5 295.3 321.4 341.1 355.2 366.1 365.9 359.6 352 344.2 330.8 324.4 307.9 278.3 272 292.8 287 277 269 256.5 243.7 233.1 224.7 214 203.3 194 187.5 183.6 183.5 182.1 182.2 181.8 178.5 174.3 175.5 176.9 177.4 180.7 185.9 190.1 194.3 198.5 203.8 206.7 209.9 212 214.3 216.6 218.8 221.5 223.8 226 225.5 224.8 228.3 232.3 233.1 236.3 239.1 241.3 243.6 247.2 248.6 248.7 247.1 246.8 251.8 254.9 257.5 259.3 262.3 265.4 268.7 271.3 274 276.7 281.8 285.8 287.5 290.1 292.5 294.7 298.4 301.3 303.1 303.4 302.7 301.7 300.4 299.1 298.9 299.7 301 300 297.4 293.7 288.8 283.7 279.9 277.6 271.5 269.4 268.3 268 267.9 267.8
371.6 386.4 401.9 420.7 439.7 459.3 479.2 497.3 512.3 528.5 544.6 556.8 568.2 577.7 586.9 598 610 619.9 629.3 638.3 645.2 652.1 658 666.5 676.4 684.5 694.4 706.7 720.8 736.9 750.6 766.3 781 794.4 806.6 816.6 824.1 830.8 834 816.2 789.6 763.9 735.2 704.6 698.5 702.4 716.6 721.1 736.4 744.7 697.7 652.9 614.7 579.6 548.7 561.3 568 571.7 585.4 600.9 592.9 558.1 519.2 481 447.2 429 428.3 438.1 443.7 453.6 478.2 506 534.6 559.7 584.5 596.3 592.8 584.5 573.7 562 550.6 538.6 524.9 510.9 493.7 476.3 459.4 441.6 424.5 384.8 348.2 318.8 301.3 286.4 273.8 278.9 305.1 323.2 338.7 346.9 349.8 343.4 336.1 329.2 315.7 312.1 295.7 272.2 258 280.6 274.7 266.1 251.3 240 232 225.6 217.2 207.3 195.5 185.9 183.5 183.4 182 180.2 180.5 177.2 175.6 174.3 175 176 177.9 183.7 189.3 193.4 196.2 201.3 205.9 209.3 211.4 213.5 215.3 218.3 221 223.2 225.9 228.6 228.4 227.4 230.8 233.8 234.1 237.5 240.8 243.3 245.8 248.7 250.1 251.3 249.8 248.9 251.8 256 258.3 260.3 262.6 265.4 268.5 271.1 274 277.6 282 286.5 287.8 287.7 290 292.5 297.3 300.7 302.9 302.7 302 301 299.5 297.9 297 298 297.9 296.3 293.1 287.4 281.4 277.5 273.5 272.1 269.4 268.6 268.3 268 267.9 267.8
370.4 386.2 403.1 424.1 446.2 468.1 487.6 509.3 528.7 546.4 563.2 577.9 592.4 604.3 615.3 624.6 634.1 641.9 651 658.9 666.9 674.1 681.4 687.8 695.2 703.5 712.7 722 736.6 750.5 765.3 780 795.4 809.7 822.7 833.2 839.5 833.9 807.7 788.5 768 739 706.9 675.5 663.7 663.6 678.1 679.3 698.1 707 707.5 661.9 617.9 578.9 543.2 527.9 534.9 539.5 561.3 576.4 572.5 552.5 519.4 486 452.2 426.1 393.3 407.5 414 438.3 463.9 492.5 522.1 544.7 565.4 579.2 579.3 573.1 561.4 548.8 534.9 521.6 505.4 491.7 475.9 460.5 443.5 427.6 410 393.8 366.4 331.2 301.9 281.5 272 266.8 289.4 306 319 328.6 333.9 327.1 321.2 311.6 298 298.5 282 264.9 248.1 258.9 251.8 246 235.8 230.3 225 216.1 209.6 198.5 190.3 183.4 181.7 183.9 179.5 177.7 176.6 174.9 174.4 174.3 175.1 175.9 182.4 187.8 192.8 196.3 198.2 203.4 207.2 211.2 212.7 214.6 216.1 218.6 221.1 224.1 226.4 230 230.8 229.7 232.7 235.5 235.4 238.9 242.3 245.3 248.2 251.4 252.5 253.4 253 252.1 251.5 255 259.2 261.2 263.7 266.3 269.6 272.7 275.9 278.8 282.2 285.9 285.9 285.9 287.1 290 295.4 299.4 300.2 299.7 298.6 297.6 296.2 294.9 294.2 293.5 291.7 287.1 282.1 280.8 276.7 273.2 271.1 271.3 269.8 268.7 268.3 268.1 268 267.9
369.9 385.9 406.4 429.8 453.6 476.8 500.1 523.7 544.6 564.4 584.1 600.5 615.2 627.2 637 645 652.5 662 671.6 680.5 689.3 696 700.8 708.9 716.5 724.4 732.3 740.7 752.2 764.5 778.5 793 808.6 823 835.7 847.2 836.1 808.5 784.9 765.9 747.7 718.6 685.3 650.7 626.1 623.8 634.6 644.8 660 676.9 698.5 656.9 614.7 575.8 540.8 505.4 496.5 513.9 538.8 549.8 547.7 551.2 524.3 487.8 453.9 423.3 396.1 381 402.9 427.5 454.6 482.6 508.2 529.2 547.5 562.4 559.1 551.6 540.2 527.1 514.8 500.1 483.3 469.1 456.7 443.6 427.1 411.1 395.6 380.2 364.8 345.5 315.6 286.4 272.9 261.6 264 279 296.9 304.1 310.7 306.4 299.8 293.5 280.9 276.7 266.8 254.4 242 238.2 232.6 230.3 227.3 222.9 215.8 208.9 204.8 197 187 183.5 181.4 180.9 178.3 176 175.3 174.3 174 174 175.2 181.2 185.6 190.3 196.2 198.9 200.8 204.2 208.1 212.3 213.2 213.4 215.7 218.6 221.1 224 226.4 229.2 231.7 231.5 234.9 236 236.2 239.3 242.8 246.4 250.6 254.4 255.5 255.6 255.6 254.6 254.5 256.6 259.8 262.6 264.7 268.1 272.3 275.5 278.6 279.3 281.7 283 283.9 284.3 284.6 287.2 294.1 296.6 296.7 296 295 293.2 291.3 289.9 288.4 286 282.6 280.4 276.7 275.5 272.4 272.8 273.6 271.9 270.6 269.3 268.4 268.2 268.1 267.9
369.9 389.4 410.2 434.6 460.5 486.9 510.7 535.6 560.2 582.5 603.2 619.1 633 643.8 653.3 661.2 672.5 681.9 692.4 700.4 708.5 715.4 721.7 727.2 735.2 742.7 750.8 758.4 766.8 778.1 791.6 805.5 819.4 832.5 834.4 829 811.4 784.7 759.6 740.4 724.9 704.3 668 631.6 601.1 588.6 597.1 608.7 623.7 649.8 683.8 660.4 617.3 575.3 540 503.4 467.2 483.5 505.6 509.1 514.3 522 527.3 493.8 456.6 421.4 393 365.4 390.6 416.9 443.5 469.2 490.9 509.4 527.7 542.2 536.9 527.1 514.9 503.4 490.3 474.8 459.4 447.2 436.2 423.2 409.3 395.8 382.7 367.8 352.6 338.3 323.3 300.1 276.8 266.2 255.9 256.2 277.9 283.2 285.7 288 280.2 270.8 265.8 264.3 251.5 244.2 235.8 232.9 226.8 223.8 221.2 215.3 208.9 205.5 200.7 192.3 184 178.8 177.9 177.3 175.9 175 174 174.1 174.3 173.7 177.7 183 187.5 192.2 198.2 200.4 202.8 205.3 208.9 211.2 212 213.6 215.4 218.4 220.8 223.2 225.6 228.4 231.3 231.9 234.8 235 235.9 239.2 242.7 247.2 252.6 255.6 255.9 256.2 256.4 256.8 257.7 260.4 262.2 264.5 267.2 271.2 275.2 278.3 279.3 278.4 279.2 280.2 280.6 280.1 281.1 283.3 291 291.9 291.6 291.2 288.8 285.9 283.9 282.8 281.7 279.7 278.6 275.7 273.3 271.8 273.3 274.5 273.9 272.4 271.4 271 269 268.2 268 267.7
371.2 391.5 414.3 439.8 468 495.4 520.5 548.1 574 596.5 616.5 632.8 646.7 656 669 682.3 693.6 703.5 711.6 718.6 726 733.7 740.8 746.9 752.9 760.2 766.4 772.7 780.8 790.5 803 815.3 821 805.3 794 788.4 777.8 764.1 733.4 710.6 693.1 678.9 650.6 619.4 582.3 556.6 562.9 578.7 591.6 635.4 648.2 660.2 615.5 574.6 539.4 502.1 465.4 450.7 466.4 471.2 477.7 490.8 511.1 489.5 453.5 417.4 384.1 353 381 406.6 429.7 451.8 470.8 487 507.8 521.8 515.2 503.1 490.7 478.7 465.2 449.9 436.1 425 414.6 402.1 388.6 376.7 365.1 352.7 340.7 330.5 318.8 305.2 283.9 264.4 254.7 241.9 257 259.2 259.5 263.8 258.4 251.2 244.7 242.4 238 235.1 226.7 224.2 220 216.3 212.7 202.6 200 203.9 194 186.9 180.4 178.2 177.8 176.6 175.1 174.4 173.5 173.5 173.5 173.8 179.7 184.5 189.4 194.3 197.7 200.5 202.9 206.1 208.1 210.2 210 210.9 214.4 217.2 220.2 222.2 224.7 226.3 229.5 231 233.5 234.6 236.2 238 241.4 246.7 251.6 253.9 254.1 255.6 256.1 257.5 260.4 262.3 264.2 266.8 270.1 275.3 277.6 278.3 278.4 276.6 276.3 277.6 277.3 276.3 277.6 278.9 282.1 284.9 285.9 283.4 281.3 281 278.9 276.1 272.2 271.8 273.4 271.5 271.6 273.1 274.5 275 274.1 273.3 272.6 271.8 270.6 269.1 268.8 267.8
372.5 394.8 417.9 445.5 475.1 503.7 530.9 558.4 583.8 605.9 625.5 641.1 652.5 669.1 684.2 697.9 709.4 719.1 727 734.4 741.7 750.1 757 764.2 770.4 775.9 781.5 786.1 791.2 803.2 815.6 810.2 781.6 766.2 757.3 751.2 750.1 746.7 714.9 683.3 659.7 652.9 626.1 603.3 580.8 538.7 528.5 542.9 568.1 601.7 624.2 652.6 617.2 579.6 542.4 507.3 470.3 433.5 425.7 431.2 440.9 458.3 473.8 479.4 443.7 404.3 370.2 344.9 374.1 393.5 407.8 425.7 445.6 467.1 488.5 502.7 491.9 478.4 466.8 455.3 441.6 427.1 413.6 401.7 390.8 379.3 367.5 356.8 344.9 334.4 324.4 314.7 304.5 292.3 276.3 258.1 248.3 236.2 237.5 239.7 239 236.3 234.1 231.3 229.7 226.9 222.6 217.8 216.5 216.4 214.4 207.4 202.8 197.7 196.7 195.2 183.8 176.7 176.4 176.3 176.7 177.3 174.7 173.6 172.9 172.7 172 176.8 182.1 188.3 192.4 195.8 198 200.2 202.2 204.4 205.5 206.4 207.6 210.7 213.9 216.2 218.2 220.4 223.6 226 227.8 230.6 232.4 234.6 236.6 238.3 240.6 245.2 248.7 250.9 252.4 253.3 255.2 257.5 260.7 262.8 265.2 270.4 274.2 276.1 274.4 274.8 276.4 274.8 273.5 275.3 274 273.7 275.8 276.7 276.8 277.1 278.1 276.7 274.7 274.8 273.6 272.2 269.5 269.6 270 270.9 272.6 274.1 275.7 275.6 274.5 272.9 272.2 271.6 271.1 270 269.1 268.8
376 396.4 421.9 452.5 481.5 511.3 539.4 566.3 590.5 612.2 630 646.7 664.6 681.4 696 708.5 719.8 730.3 740 748.7 756.6 764.4 771.6 779.2 784.4 788 789.4 779.6 781.6 785.4 787.8 766.9 745.2 731.5 722.5 717.7 727.7 729 697.6 660.3 629 617 604.6 578.6 558.8 537.2 498.8 512.7 543.7 577.1 610.5 643.2 616.8 582.9 548.3 515.8 481.2 449.1 419.7 397.1 408.6 423.8 440.4 466.5 440.4 400.2 362.4 331.6 359.6 376.5 381.7 396.8 419.5 448.2 472.9 479.7 466.5 450.7 438.9 428.3 415.4 404.4 392 378.7 367.1 356.1 344.8 334.3 323.6 314.2 304.8 292.8 280.6 269 258 248.5 242.5 237.3 227.7 228 227.4 226.3 223 219.4 215.3 212.7 210.5 209.8 208.8 208.2 205.9 201.2 194.8 191 186.9 183.7 178.3 175.5 174.4 174.5 174.4 174.2 173.6 173.1 171.3 172.6 177.4 182.9 185 189.7 193.8 195.3 196.7 198.8 199 200.7 201.6 201.9 204.7 207 211.6 214 216.1 218.9 222.5 225.4 228.4 230.7 231 232.7 234.2 236.9 239.8 243.1 244.6 246.1 249.2 251 254 256.7 258.4 260.7 263.3 269 272.1 273.3 270.5 270 270.9 269.2 268.5 270.5 269.4 270.5 271.3 273 273.4 273.9 273.3 272 270.2 269.1 269.1 267.8 267.4 268 269.5 271.3 273 275.1 276.2 275.8 274.8 273.9 274.3 272.8 271.6 270.7 271.3 271.7
376.7 399.6 426.8 457.6 487.9 518 546.5 571.7 593.4 611.5 632.8 652.4 671 687.7 702.6 715.8 727.3 739 751.5 760.9 769.3 776.1 783.7 790.6 793.9 777.3 753.3 741.8 738.4 741.2 752 731.7 711.9 697.6 689.6 684.9 711.9 718 683.7 642.5 608.4 582 576.8 561.1 533.1 507.1 483.2 493.9 529.4 562.3 594.6 623.7 616.9 585.8 555.9 526.5 497 465.8 437 408.8 378 394.2 415 446.9 442.3 401.6 362.9 326 333.2 346.2 354.7 370.7 396.9 428.3 458.8 459.9 438.1 424.1 411.8 403 393 380.6 368.2 356.6 344.1 331.4 320.1 310.9 300.9 291.7 283.7 275.4 264.4 255 246.3 239.8 235.5 230.8 225.1 219.8 219.5 219.7 215 208.7 207.1 206.2 204.2 203.5 203.5 202.9 200.2 198 193 186.6 182.7 179.6 177.3 175.3 173.2 173.2 173.2 173 172.6 173.9 176.4 176.1 179.3 183 187.4 191.9 192.5 192.5 193.8 195.2 195.4 196.9 197.6 197.9 200.9 203.8 206.7 211.3 214.5 218 221.2 224.5 227.5 229.8 231.5 233.5 235.3 237.1 239.5 242.9 245.3 248.2 247.7 249.8 250.6 252.3 253.3 257 259.5 262.6 264 266.5 265.4 264.3 262.8 261.9 263.7 264.8 266.3 268.9 270.4 271.2 271.2 270.8 271 269.5 267.5 267 265.7 265.7 266.1 267.3 268.6 271.1 273.3 275.7 276.6 275.7 274.6 276.1 276.3 275.2 273.1 273.6 274.6 275.5
377.9 402.7 433.1 463.4 493.5 523 549.9 572.6 592.9 614.2 636.4 655.7 674.3 690.5 706.5 720.3 734.9 748.1 760 770.4 778.6 785.9 793.2 799.2 799.5 752.2 721.6 705.3 700.7 706.5 719.5 700.6 682.2 665.7 654.7 676 703.3 712.5 674.5 634.4 598.3 563.5 542 543 522.7 487.8 455 477.9 514.4 548.2 575.6 599 618.3 590.2 559.7 532.2 504.7 475.2 445 417.3 388.2 364.2 395.5 432.3 444.8 411.9 373.9 342.6 311.8 315.5 326.3 345.6 376 405.4 432 429.7 406 390.6 382.1 377.3 368.7 357 344.8 333.4 321.9 308.6 300.5 287.2 276.3 267.3 260.4 253 245.6 239.3 235.2 230.7 227 222.7 218.2 215.6 210.7 207.4 203.7 202.8 201.5 199.8 197.5 195.9 194.4 192.7 190.8 189.5 186.6 181.8 180.5 178.3 176.3 174.5 174.1 174.1 173.8 173.4 174.2 173.8 171.9 177.7 181.2 184.8 189 191.1 190 189.6 189.5 189 190.3 191.1 192.7 196.3 199.9 202.8 206.8 210.2 213.3 217.3 221 223.8 227 228.9 231.9 234.2 235.9 237.5 240 242.7 232.5 225.6 238.5 235.9 231 237.1 250.6 253.8 256.1 258.8 256.7 256.3 254.9 252.8 254.9 255.8 256 257.9 261.7 266.8 267.4 267.3 268.4 268.3 268.1 267 265.7 265.4 264.6 264.4 265.2 266.6 268 270.4 273.6 276.1 277.1 276.1 278.2 278.2 278.1 276.7 276 276 277 278.6
380.1 410.5 438.2 468 498.4 525.4 549.5 569.3 593.5 616.4 637.1 656.6 674.3 690.2 707.3 722.5 738.1 752.7 765.5 774.7 782.9 789.6 795.8 802.6 784.8 737.7 702.1 672.4 665.9 677.6 688.2 675 655.7 628.6 634.9 665.8 695.1 705.5 672.2 630.6 590.1 553 516.5 506.1 502.7 485.1 446 460.4 492 522.1 551 583.6 604.5 582.1 554.2 523.8 498.9 475.8 449.6 421.3 391.8 357 383.2 419.8 445 418.9 388.2 358.8 333.8 309.4 301.8 321.4 347.2 371.1 393.8 388 374.9 364.4 357.5 349.4 339.6 328.6 317 302.7 290.7 280.6 272.7 263.5 255.3 248.3 242.8 237.3 231.7 228 223 218.8 213.7 211 209.8 209.3 208.2 205.9 198 196.5 194.3 191.4 192.1 193.4 191.1 187.4 184.9 183 176.5 176.5 176.8 176.5 174.7 173.9 173.7 172.7 171.7 171.7 171.5 170.5 174.3 179.4 182.9 186.6 187.9 188.1 187.2 186.7 185.7 187.4 189.8 190.9 192.3 194.2 198.3 201.4 206.6 209.6 212.6 216.8 219.9 222.9 225.9 228.8 231.4 232.9 235.9 237.9 240.4 243.4 229.5 233.8 230.4 243.6 247.3 238.9 238.9 239.9 250.3 249.2 244.2 247.5 249.7 257.7 265.7 266.2 263.8 255.2 257.2 255.9 257.1 261.1 262.3 263.2 264.9 264.7 264.2 263.5 263.3 263.9 264.6 266.1 268 271.4 274.1 276.9 277.4 279.9 280.4 280.1 278.7 277.5 277 277.5 278.8 280.7
387.1 413 439.8 466.4 494.2 519.9 545.1 570.3 593.6 616 636.8 655.2 673.1 689.8 706.1 722.8 739.4 752.7 765.1 773.4 781.4 787.7 794.4 797.3 766.6 724.1 687.1 653 629.6 640 652.8 641.5 620.6 590 625.5 657.1 685.5 706 667.9 630.2 588.3 553.7 512.9 473.3 468.6 467.8 430.4 439.1 473.4 507.6 539.5 570.7 589.5 567.9 537 506.7 478.8 458.3 432.8 408.7 381 347.3 374.1 413.7 445.1 429 403.5 378.3 356 330.4 295.5 298.4 320.5 342 358.2 357.1 351.4 338.6 327.8 314.3 306.9 297.1 284.5 273.4 262.4 254.9 248.8 244.9 240.1 235.3 229.2 222.6 217.8 216.4 215.3 213.9 210.9 210.2 209.1 207.4 206.3 203.3 199.1 191.2 189.1 185.7 186.5 181.4 179.9 178.2 178.6 176.2 173.2 173.2 174 173.3 172.9 172.3 171.2 170 169.7 169.9 170.1 171.3 177.6 181 184.3 185.2 185.7 185.4 183.1 183.5 182.8 186.4 187.8 189.4 191.8 194.1 195.5 197.5 203.9 206.1 208 209.2 217.3 217.9 222.2 226.2 228.7 230.5 233.7 237.2 240.5 241.6 226.5 237.5 243.6 247.9 250.9 247.8 245.4 246.6 249.6 239.3 248.9 259.5 259.7 264.5 267.1 267.6 264.4 265 255.6 261 263.4 259.7 258.7 259.3 260.9 262.4 262.5 263.2 263.1 263.5 264.2 266.1 268.3 272 274.9 277.5 280.2 282.1 281.6 280.3 279.2 278.5 278 279 280.8 282.7
396.4 420.8 445 469.7 496 519.7 547.2 571.7 594.6 616.7 637.7 655.4 673.6 689.5 706 721.5 737.7 750.5 761.5 769.4 775.8 779.1 784.3 785.8 751 700.4 668.3 638.9 605.7 604.2 614.5 605.8 589.6 581 617.5 650.7 682.2 709.9 673.9 636.1 599.4 562.5 515.5 473.8 433.7 439.7 410.4 423.2 457.8 495.2 528.8 555.2 569.4 553.5 524.4 491.5 459.1 430.6 399.4 369.3 348.7 338.8 374.9 417.6 432 424.2 410.5 389.3 369.7 340.9 308.2 273.9 295.8 323.9 332.9 334.4 316.8 303.2 292.3 282.6 273.2 264.8 256.4 248.2 242.2 236 231.5 229.6 224.9 221.2 215.9 216.2 212.6 208.3 207 205.3 206 206.3 204.4 203.7 204 199.6 196.9 185.8 182.8 179.2 180.3 177 173.5 171.8 172.3 170.2 169.1 171.1 172.1 172.7 172.4 171.5 168.9 168.1 167.7 169.7 175.2 176.8 180 182.1 183.6 183.7 183 182.2 182.4 186.2 187 186.5 186.2 191.2 192.8 194.2 196.6 195.7 198 200.1 202.4 204.7 206.6 208.3 211.4 214 219.8 227.6 230.7 234.6 219.9 223.9 226.7 239.3 244.6 250.2 253.2 253.7 249 249 252.2 255.2 258 260.4 262.9 265.5 268.1 268.1 265.8 265.7 265.2 264.1 263.5 263.8 263.6 262.1 260.9 263.2 263.1 263.9 264 263.3 263.6 267 269.4 273.5 276.4 279.6 282.5 283.1 282.1 280.7 280 279.4 279.5 280.3 284.1 286.9
401 425.6 450 473.5 500.8 527.6 552.2 575.6 597.8 619.4 639.7 657.7 674.4 690 705.6 720.3 734.5 746.1 755.4 763.1 766.9 767.3 769.7 769.7 729 688.9 654.7 620.5 587.7 569.9 575.6 572.4 557.9 578.7 613.6 646.3 677.9 699.7 668.1 637.7 603.7 553.5 511.2 475.5 440.8 401.8 394.7 412.8 447 482.4 513.1 533.7 550.9 536.7 509.5 478.2 443.6 406.5 372.5 339.8 323.3 361 392.6 416.5 414.4 406.9 394 378.1 358.5 336.8 314.3 281.1 274.5 302.9 303 295 285.5 275.3 265.2 257.8 250.8 244.1 238.9 233.9 229.7 226.7 225.1 220 214.5 211.5 209.2 209.4 207.1 204.9 201.8 197.2 197.4 197.8 196.2 198.3 200 200.8 192.3 187.7 180.4 176.5 171.7 171.3 165.1 165.3 165.8 165.8 165.9 166.8 171.5 173.2 168.1 167.4 168 167.7 168.4 172.7 177.4 179.6 181.9 182.7 183.1 182.4 181.1 180.6 181.3 187.5 190.2 191.4 190.8 192.7 195.4 197.3 198.7 201.4 203.7 206.4 210.6 214.5 216.4 216 212.3 211.6 212 217.5 217.4 218.6 225.3 234 234.8 245 248.5 251.9 255.1 254.2 250.8 250.9 253.8 255.9 258.4 261.2 264.1 267.1 269.9 269.8 269.2 268.3 266.9 265.8 264.2 264.4 264.7 261.3 259.9 263.1 263.3 263.6 264.3 264.2 266.3 268.4 271.7 275.2 278.1 281.8 283.9 283.9 282.4 281.1 280.9 280.9 280.8 282.1 286.3 287
402 428.5 454.5 481.6 506.8 531.7 555.1 577.9 599.9 620.3 642 659.8 675 690.2 704 717.2 729.1 738.8 746.2 751.5 752.9 748.5 748.2 741.8 690 676.8 642.6 604.7 575.4 539.6 541.2 541.7 541.7 577.2 612.8 647.8 679.6 687.7 658.2 621.9 581.3 545.1 512.4 476.1 441 406.3 370.1 403.7 434.1 463 487.9 512.5 529.4 517.7 497.3 468.9 435.3 392.5 355.2 322.1 323.8 360.7 388 397.6 390.6 379.4 371.5 366.2 346.6 332.1 309.8 289.7 256.4 279.1 275.4 268 258.2 249.6 243.5 239.5 234.9 232.2 227 224.8 221.3 219.4 215.5 209.2 205.8 204.3 203.1 201.1 198.5 195.4 194.1 189.6 190 190.2 189.6 194.8 196.2 201 189.7 184.5 179.5 175.7 173.2 163.3 165 165.1 164.1 164.9 165 164.9 165.6 166.1 167 167.1 168.1 169.2 171.2 173.2 177.9 180.7 182.6 182.8 180.3 179.7 180 180.2 185.8 189.8 193.6 195 194.6 194.7 196.1 197.6 200.3 202.8 206.7 211.2 214.8 218.3 222 225 228.1 228.4 215.6 215.7 221.4 224 229.8 241 242 246.1 249.8 253.3 255.4 253.5 250.9 251.6 254.3 257.4 260.2 262.7 266.2 269.6 271.6 272.4 271.8 270.7 269.3 267.4 267.2 266.7 266.5 260.6 262.7 263.4 263.8 263.9 264.4 266 267.9 270.9 273.2 276 279.9 283.9 285.2 284.3 283.2 282.1 281.6 282.4 282.4 283.4 286.5 285.2
406.2 433.4 459.7 484.9 510.7 534.7 557.9 580.8 604 624.1 642.4 660.2 675.3 688.4 700.7 711.7 720.8 727.3 731.7 735 731.1 723.5 719.4 712.6 679.9 636.3 622.3 590.7 553.4 524.7 510.4 510.9 543.5 577.2 610.1 645 679.5 673.8 661.1 625 591.6 562.1 528.1 487.9 447.2 408.3 369.8 380.2 407 433.9 465.5 493.4 507.8 501.3 482.5 458.5 428.2 387.9 348 309.8 312.2 343.9 365.8 371.2 359.6 353.4 338.6 331.6 323.5 310.8 293.3 275.4 256.8 254.6 253.1 247.8 239.8 235.5 232 227.9 224.3 221.7 218.3 215.4 213.5 212.6 207.9 202.7 199.9 197 196.3 195.2 193.6 190 190.9 187.7 182.4 182.3 184.1 187.6 189.6 186.2 182.3 179.6 178.3 175.4 170.3 163.1 164.7 164.8 164.7 164.8 165 166.9 167.8 168.4 168.8 168.9 169.5 170.9 171.6 172.9 175.3 177.9 179.1 179.2 178.2 178.1 179.3 181 187.5 193.1 196.8 196.6 196.1 196.7 197.6 199.1 202.2 205.1 209.7 214 217.4 220.2 224.4 227.2 229.7 232.2 230.5 225.5 228.7 227.1 240.2 239.1 243 246.6 249.8 253.4 255.7 253 252.9 254.3 256.5 259.3 262 265.4 268.6 272 274.4 275.3 274.8 273.9 272.4 271.4 270.5 269.3 266.9 264.2 262.2 263.1 263.9 264.5 265.8 267.2 270 272.6 274.6 277.9 282 285.1 285.8 285 284.6 283.8 283.3 283.7 284.2 284.6 286.3 284.5
411.8 437.1 463.2 488.9 513.3 537.1 562.4 585.2 606 625.8 642.3 658.7 672.7 685.1 695.9 704.2 710 712.1 711.3 707.3 699.8 696.6 692.6 685.2 673.3 633.1 584 562.3 529.8 502.5 484.5 510 541.2 572.6 603.2 635 666.1 656.5 648.9 631.1 596.4 563.9 525.2 488.2 451.7 408.5 375 350.4 381.9 417 445.4 473.2 492.7 485.9 469.7 447.7 419.7 387.1 348.1 313.1 288.5 321.6 339.4 336.5 330.6 324.5 310.5 301.7 297.8 284.5 267.6 254.1 247 237.5 241 237 229.9 225.4 219.7 218.1 214.3 210.5 207.3 205.7 205 201.9 199.9 197.7 193.1 191.1 189.1 188.7 187 184.5 186.5 183.2 175.7 177.2 177.6 177.6 177.4 173.8 174.8 176.4 177.3 176.4 164.8 161.8 164.2 164 164.4 165.2 168.2 170.4 171.8 171.7 170.8 167.5 168.4 169.8 171.6 172.6 173.8 174.7 175.7 176.1 174.6 175.6 178.3 184.7 188.5 194.5 196.5 196.6 197.4 198.4 199.3 200.3 203.7 207.9 211.9 215.5 218.6 222.1 225.6 228.2 230.8 234 237.5 240.4 239.1 239.7 237.2 241.3 243.9 246.8 250.3 254.2 255.9 253.1 254 255.4 257.6 260.5 263.2 267.1 271 274.2 277.2 277.9 277.7 277.1 275.8 274.6 273.1 270.5 266.7 265 264.4 262.2 264.5 265.4 267.1 268.8 271.3 273.8 275.7 280.4 284.4 286.3 286.3 286.1 286.8 286.2 285.8 285.6 285.9 285.8 286.9 286.4
416.6 440.8 464.8 490.4 515.9 538.8 564.5 585.8 605.9 624.7 642 656.1 669.1 680.6 688.2 693.9 696.1 693.4 682.2 674.5 670.5 669.5 662.8 654.8 641 611.7 573.9 530.4 505.1 478.9 473.1 501.1 532.7 563.5 594 623.7 638.5 633.5 627.1 621.7 602.4 566.5 526.5 490 456.2 417.9 383.5 348.6 359 395.6 429.1 455.9 472.6 467 457.8 439.4 409.9 377.9 348.1 311.5 275.9 293.3 315.3 312.5 306.6 295.1 285.3 274.6 268.8 259.5 247.6 240.3 234.5 230.4 222.9 225 217.2 213.5 208.9 208.1 205.7 202.2 198.1 195.8 193.9 192.2 193.5 189.9 186.3 183.8 182.3 181.1 179.5 176.9 176.6 175.1 172 172.3 171.2 168.9 167 167.4 169.7 171.8 171.7 164.8 163.5 163.5 163.7 163.9 164.2 165.7 167.1 168.7 173.2 174 173.7 169.5 168.6 168 170.1 172.1 173.1 173.7 173.3 174.5 177.6 181.4 184.1 187.5 192 195.5 196.9 197.8 198.8 199.8 201.6 203.1 205.2 209.7 212.5 215.8 219.2 222.5 225.9 228.5 231.1 234.9 238.8 241.6 240.2 240.7 241.3 242.6 245.2 248.1 251.8 255.7 256.5 254.3 255.5 257.7 260.9 265.1 268.2 271.7 274.1 277 279.7 281.7 281.6 280.9 279.9 277.7 274.5 269.3 266.7 265.9 264.2 261.9 265.4 266.8 268.5 270.5 272.5 276.3 280 284.5 287.2 287.9 288.3 288.9 288.9 288.5 288.3 288 287.3 286.8 287.6 287.1
417.7 441.5 467.3 492.2 516.7 540.7 563.8 584.3 603.8 622.6 638.1 651.3 660.8 670.3 675.5 677.4 675.4 669.2 658.2 655.8 644.1 636.6 631.2 623.1 608.8 584.6 544.9 512.3 485.2 461.4 461.1 490.6 522.4 553.9 584.4 605.6 611.2 606 602 602 599.4 560.4 517.6 482.8 450.4 417.1 386.6 347.7 336.6 374.4 417.7 440.8 450.1 445.3 437.3 421.9 389.5 362.3 340.6 313.6 282 267.6 287.9 285.2 279.1 275.6 267.3 253.2 247 241.2 235.1 229.4 226 221.7 208.9 208.3 206.6 202.3 199.8 198.8 196.4 193.9 191.3 188.5 186.3 186.4 188.6 186.1 179.5 177.5 177.7 175.8 174.1 173 173 174.2 170.5 167.6 166.8 163.7 164 165.2 166.3 165 161.8 161.8 163.1 163.4 163.6 163.8 164.1 164.9 165.8 167.5 172.2 175.3 174.2 172.9 170.2 169.5 169.7 170.8 171.5 172.7 174.9 178.6 181.1 182.8 184 190.6 195.4 197.3 198.4 199.2 200.4 203.1 205.7 207.5 206.9 209.6 212.5 216 219.6 223 226.2 228.8 231.6 235.8 240.1 240.7 241.6 242.7 244.5 245.1 246.8 250 253.5 257.2 258.3 256.2 257.5 260.7 264.3 267.2 270.1 273.7 276.3 279.4 281.8 284.9 285.3 284.5 282.1 278.1 273.3 268.7 267.4 266.4 264.9 263.1 266.8 268.2 269.8 272.4 274.3 279.3 283.9 288.5 289.7 290.9 291.5 291.4 291.1 290.3 290 288.6 287.7 287.9 288.4 287.3
415.3 442.8 467.7 492.4 516.4 539.7 561.5 581.1 598.7 615.5 628.3 639.2 645.2 651 653.2 649.4 648.4 642.7 635.8 631.5 626.1 613.7 603.3 592.5 578.1 557.1 524.1 492.4 467.9 447 447.2 480.4 512.9 542 566.1 581 583.2 578.6 573.2 573.8 575.5 552.6 509.1 471.7 438.2 404.7 376.6 345.1 317 357.2 400.5 420.6 426.3 421.8 404 388.6 365.5 338.1 318.2 297.9 279.3 249.7 266.5 263.9 258.3 251.3 243.9 238.4 233 227.8 224.4 222.6 216.7 207.7 204.3 198.9 198.6 196.9 194.8 192.6 188.9 186.8 185.3 182.6 179.7 179.9 177.3 173.8 172 172.5 171.9 170.2 170.1 172.2 174.8 175 173.1 162.6 163 162 161.7 161.4 161.8 160.9 162.4 162.3 162.8 163.4 163.6 163.8 164.1 164.9 166.1 167.6 171.6 174.2 175.3 174.4 173.1 171.2 171.2 173 174.6 176.5 178.9 180.8 184 187.5 191 188.2 196.6 198.3 199.7 200.4 202.7 206.3 209.3 210.1 209.6 209.4 213.1 216.6 220.2 222.3 224.7 228.2 232 236 239.4 239.5 243.3 245.8 247.4 247.4 248.8 252 254.8 258 258.9 258 259.5 262.1 265.4 269 272.3 275.7 278.5 281.9 285.9 288 287.1 285.2 281.3 276.8 271.8 268.6 267.4 266.3 265.6 264.2 268.2 269.6 271.2 273.9 277.6 281.8 286 290.1 292.5 293.8 294 293.7 293.3 292.1 290.1 289.1 289.5 291.1 291.2 288
411.2 438.3 466.3 489.6 512.6 534.9 554.7 572.5 588.5 600.3 607 612.5 617.4 621.2 623.1 622.6 622.8 618.6 609.5 606.7 603.5 593.4 575.6 561.8 546.7 531.7 507.8 476 448.3 424.2 435.1 468.6 499.3 525.6 544.1 552.3 553.3 548.8 542.6 542.6 542.4 534.3 499.9 464.5 429.1 393.8 360.7 327.2 308.6 349.1 380.8 397.3 398.9 387.4 369.4 354.3 338.1 316.6 298.8 279.9 265.2 250.2 246.9 246.9 241.8 236.9 232.8 228.5 224.1 220.2 216.5 208.8 204.2 200.6 197.4 189.4 192.5 191.8 191.3 188.6 182.9 179.2 177.2 175.2 174.1 171.9 167.7 165.5 167.2 168.4 167.9 166.7 167.3 168.3 168.6 168.9 163 159.3 159.6 160.7 160.8 161.2 160.5 161.9 162.4 163.4 163.9 164.2 164.1 164.2 165.5 166.5 166.9 168.2 171 173 174.7 173.9 173.6 172.3 172.6 174.2 176.1 178.5 180.7 183.4 187.1 191.1 194.6 192.5 197 199.7 200.5 202.3 205.2 209.1 212.1 212.8 210.9 210.6 214.5 218.7 222.2 223.4 224.5 228.9 232.6 235.7 239 241.3 244.5 246.8 248.1 248.2 250.5 252.9 255.1 258.4 260 260.3 261.2 263.7 266.9 271.4 274.7 278.2 281.9 285.1 288.5 287.2 285.5 282.8 278.6 274 270.1 268.8 266.9 264.7 265.2 268 269.5 271 272.9 275.1 279.8 283.7 287.5 291.7 295.4 296.3 296.4 296.1 294.8 292.8 292.6 292.9 293.8 294.9 292.3 288.1
405.4 432.5 458.9 484.1 506.4 525.3 542.3 558.2 571.6 578.4 581.7 585.8 592.9 598.4 599.8 598.4 596.2 590 586.1 584.7 579.9 569.5 546.6 531.6 517.3 505.9 489.1 465.8 434.8 401 424.2 454.3 484.1 506.5 516.6 522.5 522.5 517.3 509.4 507.7 503.8 495.6 479 449.1 417 387 354.7 322.3 297.7 328.3 354.6 363.3 362.1 352.9 343.4 331.3 314.2 296.8 278.6 264.2 251.4 245.6 232.2 236.1 234 228.6 224.1 219.4 214.2 209.3 202 198.2 192.7 190.5 188.5 185.9 185.2 185.1 187.7 188.7 181.7 175 171 170.4 168.4 162.6 162.2 160.8 162.3 163.2 162.3 161.8 162.7 163.8 159.9 158.7 158.7 158.7 158.7 159 160.9 161.2 160.7 162.3 162.9 164.5 165.3 165.2 165.1 165.4 167.3 168.4 168.5 169.8 171.1 173.2 174.5 175 174.3 173.2 173.5 175.8 178.7 181.6 183.9 186.4 190.3 195.1 198.8 200.2 196.7 201.4 203.6 206.2 209.1 211.7 214.1 214 211.2 213.3 217.3 221.3 223.5 223.7 225 229.6 232.4 234.9 236.4 242 244.8 246.9 248.4 249.2 250.9 253.3 255.7 258.4 261.2 262.1 264.9 266.7 271.2 274 277.6 281.2 285 288.1 286.8 284.7 282.5 280.1 276.3 272.4 270.5 268.7 267.8 266.4 267.5 268.5 270.4 273.2 274.5 277.9 281.9 285.4 288.8 292.9 297.2 298.3 298.6 297.2 295.2 294.8 295.8 296.6 298.3 297.4 293.3 290.1
399.1 425.6 450.9 473.2 493 509.1 524.2 539 550.7 560.8 566.8 574.7 581.3 585.5 584.9 582.5 578.1 571.7 570.8 570.4 561 541.6 516 497.2 487.7 478.3 464.6 453.4 428.1 391.9 411.4 437.6 462.3 479.3 487.8 491.4 487.5 481.6 474.4 471.1 464 453 443.5 418.6 395.7 373 348.7 317.4 282.2 312.6 331.2 336.8 334.5 328.7 322.5 307.7 286.7 270.6 257 247.5 241.2 238.1 221 225.1 222.7 218.4 213.1 210.4 202.2 201.6 204.9 198.8 190.9 183.1 182.3 182.3 178.9 182.3 184.6 178.1 172 168.2 167.3 166.5 157.3 154.6 154.6 155.1 155.7 156.9 157.3 157.6 157 157.7 157.4 157.9 157.9 158.7 159.7 160.7 160.5 161.5 163.6 164 164.6 165.4 166.6 166.5 166.2 166.4 168.2 169.3 170.2 171.7 173.1 174.8 176.2 176.4 175.6 174.9 175.9 179.5 182.2 184.8 187.6 191.7 197 200 202.6 202.6 198.3 203.2 206 209.1 212.2 214.6 214.9 213.2 212.7 215.2 218.6 221.1 222.8 223.2 224 228.8 231.9 235.1 239.4 242.6 244.6 246.5 248.3 250.1 251.6 253.9 256.3 259 262.1 264.5 268 270.4 273.3 276.3 279.6 282.9 286.8 287.2 284.9 282.7 279.9 277.3 274.2 272 270.3 268.2 266.7 265.4 269.6 269.8 271.5 273.7 277.4 281 283.7 286.9 290.2 294.1 298.6 300.7 299.8 297.5 297.3 298.6 299.8 300.9 301.1 298.9 295.6 293.2
390.3 414.9 437.6 458.9 482.7 500.1 518.2 533.1 543.9 553.5 558.6 565.3 569.7 570.6 569 567.4 561.7 555.8 555 554 544.9 523.5 492.7 472.3 461.7 454.8 447.8 436.3 419.6 384.4 389.9 416.1 435.9 448.8 458 458.2 454 445.9 438.5 432.9 425.1 415.2 405.6 386.6 369.9 351.3 333.9 314 282.3 297.4 312.7 307.9 305.8 300.1 294.4 280.8 263.5 251.6 243.3 236.7 231.1 229.6 222.2 211.5 212.8 211.5 206.7 197 199.8 199.6 194.6 190.4 185.3 180.8 177.2 176.8 172.2 173.3 174.2 173.2 167.3 163.8 163.1 163.4 153.5 152.6 153.1 155 154.2 155.6 155 155.1 155.7 155.6 156.5 157.1 157.9 159.6 162.6 162.6 162.2 162.3 163.8 165.2 166.2 167.6 168.1 167.9 167.7 167.6 168.7 170.5 172.7 174.5 177 177.9 178.5 178.3 177.9 179.2 181.8 185.3 188 192.1 195.6 199.3 202.6 203.2 204.1 200.6 201.2 205.8 209.7 213.4 215.4 216.6 215.2 213.8 214 216.3 219.2 220.4 222 222.8 224.6 227.6 232.1 233.9 239.5 242.1 243.7 245.8 248.4 250.5 252.3 254.5 256.9 260 263.1 265.5 269.3 271.6 274.5 277.4 280.6 283.8 287.3 285.4 283.2 280.1 278.8 275.8 273.2 271 269.2 267.8 267.9 268.4 270.5 271.2 272.4 275 279.1 282.3 284.9 288.4 291.9 295.8 300.5 301.6 300.1 299.4 300.5 301.9 304.4 305.2 303.8 301.9 300.2 298.3
374.9 406.3 431.3 457 479 498.6 513 526.3 534.8 544.5 551.1 557 556.7 557.6 556.1 551.5 546.2 543.5 540.1 536.4 527.8 508 471.1 451.7 439.5 433.5 425.3 413.5 403.2 374.3 368.3 394.2 407.5 417.5 424.1 422 416.7 410 404.4 396.3 390.1 380.9 372 359.2 343.6 329.3 314.7 292.6 260.2 284 284.4 280.3 275.4 270.3 264.6 254.5 244.7 238.9 234.4 230.2 226.6 221.1 217.4 203.4 202.4 199.7 194.2 198.4 196.2 193.8 189.1 184.2 181.6 180.4 177.7 171.7 169.1 168.9 169.2 167.6 164.8 160.4 160.9 161.2 153.5 153.6 154.1 154.6 153.6 154.4 155.2 155.7 156.3 156.5 155.8 157.5 161.8 168.1 168.2 165.7 163.7 163.7 163.9 165.3 166.7 168 169.2 169.4 170.5 170.1 169.7 172.2 175.2 179.3 180.8 181.5 180.5 180.3 180.9 183.9 186.7 190 193.4 197.5 201.5 205.2 206.6 205.8 203 201.4 204.6 209.5 213.7 217.2 218.7 217.4 215.7 215.1 215.6 216.4 218.3 219.8 221.2 223.2 225.2 228.1 232.4 236.5 239.4 241.5 243.4 246 248.8 251.2 253.3 255.6 258.1 261.1 264 266.4 269.3 272.6 275.5 278.6 281.9 285.3 285.4 283.9 281.4 279.3 277.9 275.6 273 270.3 268.8 268.6 269.3 269.6 270.5 272.1 273.4 276.4 279.2 283 286.6 289.9 293.5 297.5 302.7 301.6 301.6 302.3 303.6 306 308 308.3 308.1 306.5 303.9 303.5
373 398 429.7 455.8 477.8 494.9 507.6 519.1 527.2 535.5 543.2 545 545.9 545.5 543.1 539.7 534.3 531.1 527.4 521.4 513.9 488.2 457.8 436.7 420.4 408.2 399.1 390.3 380.2 365.1 345.9 366.1 377 386 389.1 387.9 384.3 377.3 368.8 361.9 355.2 347.6 339.6 329 316.9 303.7 293.6 279.7 252.2 264.3 261.3 255.5 251.3 247.3 243.8 239.7 234.2 230.6 227.8 224.6 219.8 214.5 207.7 198.7 191.9 191.5 191.7 190.4 190.6 186.5 181.7 178.4 175.7 175.6 175.7 170.6 165 164.4 163.1 162.3 161.1 157.9 157.3 153.1 152.3 153.6 153.8 154.1 154.3 154.8 155.7 159.2 165.8 166.4 167.9 163.8 169.8 171.1 169.6 167.1 165.8 168 170.9 168.2 168.3 168.7 169.6 171 171.9 171.9 172.6 174.4 179.1 181.7 183.9 186 186.1 183.2 184 186.2 189.7 193.1 197.3 201.5 205.5 208.3 207.6 204.7 203.5 206.9 209.5 213.4 216.7 219.1 219.6 218.5 217.3 216.4 216.2 217 217.8 219.6 221.6 223.7 225.8 229.4 232.2 236.1 239.6 241.7 244 246.8 249.4 251.9 254.1 256.6 259.5 262.5 265.6 267.8 269.6 272.7 276.8 279.9 283.4 284.9 284.2 283.1 280.6 278.5 276.5 275 272.2 269.7 269.3 269.9 270.3 270.6 271.7 275.6 275.5 278.1 281.9 284.2 288 291.8 295.7 300.1 302.7 302.9 303.9 305.2 307.1 309.2 311.2 312.2 312.2 310.8 308.5 308.4
359.7 390.3 429.3 454.5 473.5 487.4 500.6 508.1 517.8 526.3 530.2 530.6 532.8 532.5 529.9 527.3 524.8 521 514.6 509.6 500.8 474.6 444.7 421.1 405.9 388.3 377.5 368.3 359.2 346.5 319.6 338.7 347.6 352.7 353.7 355.6 350.2 343.6 336.6 329.9 322 316 306.8 297.9 288.1 279.6 271.2 261.2 248 247 245.4 241.5 238.5 235 230.6 229.1 225.6 222.5 219.7 216.1 210.9 206 200.1 189 183.5 186.7 184.6 183 180.8 176.6 175.1 173.8 170.9 170.2 168.1 165.6 161.5 160.1 158.9 158 156.9 154.1 152.6 152.6 152.7 153.2 153.9 154.2 154.3 154.9 158.6 166.2 168.7 170.7 172 172.8 174 172.6 171.1 168.4 168 169.3 170.7 170.9 171 171.5 169.3 172.1 172.9 174.9 176.5 177.2 180.8 184 187.1 190 188.4 186 188 190.4 193.6 197.6 201.7 205.2 208 209 207.9 204.4 206.8 209.6 212.5 215.6 218.3 220.4 220.8 219.3 217.5 216.9 217 218.2 219.2 220 222 224.2 227.3 230.3 234.1 237.7 240.3 242.4 245.6 247.8 250.2 252.4 254.9 257.3 260.7 263.9 267.1 269.2 270.7 273.6 278.8 281.8 283.5 284.3 284.2 284 281.9 278.6 276.5 273.9 269.8 269.8 270.8 270.9 271.2 272 272.9 277.7 276.7 279.4 282.7 285.5 289.2 293 296.8 300.6 303.9 304.9 307.1 309.6 311.8 312.7 314.5 315.9 316 315.4 313.4 312.5
353.4 391.5 427.6 451 467.5 480.3 492.5 500 505.4 511.8 515.5 517 517 515.5 514.6 514.4 512.2 508.9 506.3 501.8 492.7 467.2 438.5 411.6 392.8 377.4 364 351.9 343.1 333.8 310.4 313.9 320.9 322.2 323.4 320.7 314.8 310.7 306.5 300.3 294.1 288.7 279.9 272.3 265.8 260.1 253 247.3 239.8 228.2 234.2 232.6 229.5 227.5 224.1 221 216.1 211.9 206.9 203.3 197 193.4 186.2 181 180 180.1 179.5 177.3 175.3 170 169.9 169.2 166.8 165 160 159.1 158.6 157.2 155.3 154.9 154.6 153.2 152.3 152.3 152.3 152.8 153.2 154.5 159.7 167.5 166.9 168.1 170.7 172.8 174.9 176.5 176.3 173.7 171.2 169.7 170.8 172.4 172.9 172.7 172.9 173 172.7 172.8 176.5 178.5 179.3 181.4 183.9 187 189.7 191 189.3 189 191.7 194.7 198 201.9 205.2 207.2 209.1 209.6 207.3 206 209 212 214.9 217.8 219.6 221.3 220.7 218.8 217.3 217.4 218.4 220.5 220.8 221.1 222.9 226.5 229.3 232.7 236.7 239.6 241.8 243.2 245.2 247.7 250.4 252.9 255.3 258.3 262.3 265.1 267.9 270.5 272.5 275.6 280.5 282.2 283.1 283.8 284.2 283.9 282 279.1 276.8 273.9 271.4 271 271.5 271.9 272.3 273.6 275 278.6 277.6 278.9 283.7 287 290.5 294.3 297.8 301.2 305.6 308.9 311.6 313.9 315.5 317.4 319.1 320.1 320.3 319.3 318 317.6
355.1 390 424.3 445.2 458.7 471.4 482.8 490.2 494.6 498.7 501.5 502.5 502.8 501.8 501.9 500.5 498.2 499.2 497 489.5 482.1 463.9 434.3 406.2 384.4 367.1 353.2 339.5 328.8 320.3 310.7 288.5 299 299.2 303.3 302.3 296.5 289.5 284.1 279.6 276.7 269.9 261.4 254.7 248.9 245.2 241.1 237.2 231.1 223.6 214.7 225.9 222.9 219 214 206.1 205.4 200.4 194.6 189.6 183.7 182.1 177.3 174.5 175.4 175.5 174.2 172.5 171 166.6 165.5 164.7 162.7 162.3 152.4 151.8 154.6 155.2 153.4 153.1 152.4 152.1 151.6 151.5 150.8 158 164.4 166.8 169.9 173.1 171.6 170.4 172.6 175.4 176.6 175.9 174.3 173.6 174 173.4 174.4 174.4 174.2 173.6 173.8 174.7 175.5 172.7 176.2 180.8 183.5 185.7 188.1 190.7 193 193.7 192.4 191.5 194.9 198.4 201.5 204.8 207.3 209.1 210.1 210.7 209.3 207 209.9 213 216.2 218.5 220 220.2 218.9 218.5 218.1 219.4 221.6 222.7 223.1 223.1 225 228.5 232.2 234.7 237.5 240.4 243.6 244.7 246.3 248.7 251.1 253.7 257.3 260.1 262.7 266.3 269.8 272.1 274.6 277.9 281.4 282.3 283 284.3 284.7 283.4 281.2 278.5 276.1 272.9 270.5 272.2 272.6 272.9 273.7 274.9 275.8 280.9 278.6 279.5 284.5 288.2 291.9 295.9 299.4 303.6 307.9 311.9 315.1 317.4 318.1 321 324 325.4 326.6 326.1 325.6 324.5
356.4 390.7 420.5 439.3 450.7 460.8 468.8 475.5 481 483.7 486.3 489.7 488.5 487.8 488.1 484.3 480.5 478.9 478.2 470.9 460.2 447.8 430.9 401.5 378.1 355.3 336.5 325.7 314.9 306.7 297.5 280.8 280.7 279.8 283.4 284.7 279.4 275.5 271.3 265 261.1 254.9 248 242.5 238.7 235.3 232.6 229.2 224.5 217.3 213.8 216.9 212.6 208.1 203.7 197.4 193.7 188.3 183.7 178.8 177.6 172.8 170.2 170.5 170.4 170.5 167.7 167.1 165.7 162.8 159.5 158.8 157.4 157.8 150.1 150.8 151.6 153.1 152.4 151.9 151.7 151.5 151.5 150.6 153.9 163.8 169.8 172.3 174.9 177.4 177.1 174.7 172.8 173.5 175.1 175.5 176.9 177 177.4 176.9 176.7 175.9 175.4 175.5 175.6 176.7 177.2 175 176.9 182.6 186.6 191.4 194.3 194.7 196.4 197.8 196.9 195 198.4 202.2 204.7 207.6 210.2 212.3 213.3 213.6 212 209 210.8 213.4 216 218 219.2 219.1 219.5 219.5 218.5 221.2 224.4 224.9 225.3 226.1 227.9 230.6 234.1 236.2 238.8 241.7 245.1 246.8 248.8 250.9 254.1 258 261.1 264.2 266.7 268.1 270.5 273.3 276.5 279.8 282 283.1 284 284.4 283.6 282.4 279.9 277.2 275.1 271.6 272 272.2 274.2 274.6 275.9 276.5 277.7 278.9 279.4 280.8 284.3 288.6 293.2 297.2 301.2 305.3 310.1 314.5 317.7 320.1 322.2 325.6 328.1 330.7 333.7 333.9 332.9 331.9
360.9 392.5 410.4 424.7 434.3 444.1 453.7 461 465.3 467.1 471.5 472.1 470.1 468.5 466.1 462.5 459.7 456.2 454.8 447.7 438 426.9 413 396.2 371.1 345.4 322.2 307.3 299.2 291.6 284 275.4 268.7 267.3 265.8 265.4 263.2 260.7 258 251.9 247.7 243.5 237.3 232.5 230.7 226.7 222.3 217.9 212.3 210.4 206 200.4 200.3 197.1 193.7 189.2 186 181.3 178.5 174.6 170.9 168 164.7 165.8 166.3 166.1 164.5 161.5 161.1 159 152.6 152.4 151.5 149.1 149.3 149.9 150 150 150.8 150.1 150.9 151.1 150.3 155.6 162.1 167.6 173 176.2 180.7 182.6 181.8 179.2 176.4 175.8 176.9 179 179.9 180.8 179.5 178.9 179.4 180 181.5 182.3 181.7 180.3 180.6 178.8 176.8 182 190.3 195.1 197.6 199.8 201.6 202.2 200.2 198.7 203.8 206.2 208.4 211.1 212.5 215 216.2 215.4 213.9 213.9 215.1 216.2 217.2 218.4 219.2 219.7 220.3 221 221.7 222.5 224.3 226.1 227 228.3 229.7 232.3 235.9 238.2 241.2 244.9 247.3 249 250.8 253.3 257.3 260.3 263.1 266.5 269.5 271.3 272 274.6 278.1 281.1 282.5 283.6 284.2 283.7 282.6 280.8 278.7 275.9 273.7 273.3 272.4 272.5 274.3 276.8 276.9 278 278 279 280.7 281 283.8 288.3 294.7 299.4 303.1 307.6 312.4 317.1 320.9 323.9 326.4 330.2 333.9 336.8 339.3 340.8 340.5 340.4
360.8 383.4 398.6 410.5 419.2 428.1 436 442.5 446.4 449.4 450.6 451.5 451 447.5 443.3 440.8 439.4 435.7 432.1 429.4 424.9 407.9 394 377 353 332.1 309.7 292.8 282.3 275.7 269.4 264.2 257.9 256.2 254 249.5 249.1 247.7 243.3 238.9 234 230 227.2 225 221.5 215.4 210.3 205 203.2 202.7 199.4 189.9 190.2 188.9 186.5 183.7 181.8 178.6 175.4 170.8 166.5 164.1 161.5 162.4 162.3 161.8 161.6 160.1 157.4 154.1 149.6 148 148.1 148.8 149 149.4 149.7 149.1 148.8 150.9 153.1 157 161.6 163.6 165.5 169.7 174.1 178.1 181.1 182.4 182.9 181.6 179.6 180.1 181.8 182.7 182.6 182.1 181.2 182.7 183.9 184.8 186.1 185.7 184 183.4 184.5 181.2 179.3 184.6 195.3 198.6 201.7 202.9 205.3 205.8 204 202.8 207.2 209.1 210.1 215.1 217.2 218.3 218.3 216.7 214.7 212.2 212.8 215.1 217.7 220.2 221.5 221 219.9 220.3 224.1 226.9 228.7 230.1 230.7 231.1 232.3 234.6 237.3 241.4 244.3 247.1 249.2 251.5 254.3 256.5 259.2 262.2 265.4 268.8 271.5 274.2 275 277.4 280.4 281.8 283.1 284.2 284.2 282.6 281 279.4 277.7 274.9 274.4 273.4 272.7 274.4 275.9 278 278.4 280.1 277.9 279 281.7 282.1 283.3 288.2 297.5 302 306 309.9 314.7 319.3 323.8 327.2 330.5 335 339 342 345 346.7 347.7 348.7
353.3 370.6 385.5 394.4 399.4 407.5 413.7 419.2 423.8 426.2 428.8 430.2 427.4 425 421.6 419.9 417.5 410.9 411.1 412.2 403.1 385.5 378.4 354.4 333.9 318.8 299 278.1 268.1 262.5 258.1 255.5 249.3 247.2 246 242.7 238.9 234.7 230.6 227.2 224 221.1 218.6 214.3 208.7 204 199.3 196.1 196 195.7 193.1 189.6 185.1 182.8 182.6 180.2 177.5 173.1 171.1 168 162.3 158.5 158.6 159.3 159.1 158.6 158.4 157.3 154.9 152.8 149.8 148 147.7 148 148.4 148.5 148.3 152.7 155.1 154.3 154 159.6 163.9 167.2 169.7 171.7 174.8 177.2 179.7 182 184.8 185.6 185.9 187 186.7 185.2 184.9 186.1 186.7 188.8 190 189.8 189.1 187 185.1 186.9 189.1 189.1 181.9 184 199.6 203.4 204.9 205.9 208.4 207.8 206.2 206.3 207.2 210.9 214.8 217.7 219.8 220.1 220 218.6 217 213.8 215.3 218.3 221.4 223.3 224.1 223.1 221.3 221.9 224.7 227.9 231.3 233.3 234.4 234.1 235.4 237.3 239.6 242.5 245.8 249.1 251.5 253.8 256.3 258.8 261.7 265.1 268.5 271.7 274.7 276.6 278.3 280.7 281.5 282.4 283.7 283.5 283.7 282.8 280.1 278.4 276.7 272.8 273.6 273.3 273.4 275.4 277.4 278.6 280.1 279.4 278.7 280 281.5 283.3 285.4 290.3 297.6 303.8 308.9 312.7 317 321.6 326.2 331.1 335 339.4 343.5 346.8 350.9 353.9 356.4 359.5
339.6 353 364.7 372.8 381.5 386.2 389.4 389.9 394.5 396.8 400.4 403.4 402.1 401.2 398.7 393.1 389.4 386.6 386.8 384 367.4 356.5 342.2 332 313.9 299.4 282.4 264.7 256.1 252.3 249.4 247.3 240.2 237.6 239.4 236.6 233.1 228.9 224.8 220.7 216.6 213.4 208.4 203.9 200.7 197.3 194.1 191.8 190.1 189.7 187.3 183.9 179.3 178.5 178.4 175.8 173 168.7 167 163.1 158 155.1 155.8 156.1 156.2 155.6 155.5 154.4 152.8 150.4 148.6 147.4 148.4 148.6 148.3 148.9 152.2 155.8 156.9 158.2 157 161.6 165.1 170.6 173.8 174.9 176.3 178.7 182.2 185.6 185.1 189.1 190.9 191.4 191.3 191.5 190.2 192.4 191.9 193.1 193.7 192.9 191.9 189.7 189.6 191.4 193.4 193.9 186.2 184.4 186.3 206.6 203.6 209.6 211.8 211.3 208.7 205.8 208.3 211.7 216 219.5 221 222.1 221.8 219.8 217.2 216 217.9 222.2 225.2 226.6 226.1 224.2 222.9 223.3 225.3 228.7 231.9 234.6 235.7 238.2 239 240.2 242.2 244.4 247.4 251.8 254.2 256.1 258.8 261.5 264.6 268.9 272.3 275.5 277.4 278.2 280.7 283.6 283.6 284 284.1 283 282 282.7 280 277.3 274.9 274.1 273.9 274 274.4 276.6 278.9 280.9 281.4 280.6 280.5 281.1 282.1 283.8 287.2 291.8 297 302 310.1 314.7 319.4 324.3 330.1 334.5 339.9 345.6 349.7 354.6 360.3 365.5 370.5 374.4
320.4 333.2 343.6 352 358 362.5 365.3 366 366.9 368.9 373.5 375.7 376 376.4 372 368 364.5 362.1 358 352.7 343.5 334.1 320.9 307.8 295.9 284.1 268.3 255.6 247.1 243.4 241.4 238.3 234.7 230.1 230 228.2 224.3 221.5 217.1 212.4 208.1 205.5 201.1 196.7 193.8 191.8 190.5 187.2 185.1 183.8 181.8 179.8 175.9 174.2 172.5 169.7 165.9 164.8 161.6 157.4 154.4 152.3 153.7 153.9 153.4 153 152.5 152.2 150.2 148.2 146.9 148 147.9 147.9 149.4 155.8 159.4 161.2 162.1 162.5 162 162.2 159.9 170.7 175.5 176.3 177.5 179.6 183.8 189.9 192.5 193.4 195.3 196.2 197.4 198.6 200.6 201.7 200.5 199.2 196.9 195.5 194.1 194.8 196.6 195.3 196.8 198.5 199.1 188 188 196.1 212 214 214.5 213.9 212 209.5 209.5 213.1 216.8 220.3 221.7 222.2 221.1 219 218.1 218.9 223 226.2 229.1 229.9 228.7 225.5 225 226 227.3 229.2 232.3 235.1 239.3 241.2 242.8 244 245.7 247.8 249.9 253.2 256.4 258.9 262 265.3 269.1 272.4 275.5 278.3 279.6 280.6 283.5 285.2 285.2 285.1 284.5 283.5 281.6 280.6 276.3 275.3 274.4 274.5 274.5 274.6 276.1 278.1 280.5 282.4 283.1 281.5 282.1 281.8 282 284.9 289.1 293.4 301.2 308.8 311.6 317 323 329.6 335.2 340.8 346.8 353.4 360.5 367 373.4 380.4 387.5 391.3
302.3 313.5 321.3 326.4 333.2 338 341.1 342 340.6 340.1 345.3 345.8 347.4 349.4 347.1 343.9 338.5 333.3 327.4 323 318.4 308 296.8 286.4 277.3 266.3 254.9 245.8 240.1 237.1 234.5 230.3 227.3 220.9 217.4 217.1 214.8 211.7 208.5 202.6 198.9 196.4 193.6 190.6 185.8 184 183.7 182.9 180.8 179.3 176.7 175.1 172.1 169.5 168.6 165.8 163.3 160.3 156 152.6 150.3 150.4 151.1 151.3 150.8 150.5 150.3 148.9 147.5 147.7 146.1 147.6 147.6 147.4 154.3 159.6 162.1 164.6 166.4 168.5 168.3 168.4 169.3 166.1 170 172.2 181.4 180.2 187.9 193 195.4 197.3 199.5 201.4 203.2 204.3 204.4 204.3 202.9 201.4 200 199 198.6 198.1 198 198.5 200 202.2 204.7 201 188.3 205.8 213.5 215.4 216.9 217.2 217 216.7 217.1 216.7 217.7 220.6 222.1 221.8 221.3 220.3 219.2 222.1 226 229.3 232 232 229.8 227.9 228.1 230.7 232.8 233.7 235.1 236.5 241.6 243.4 246.2 247.4 248.8 251.3 253.3 255.8 259 261.7 265.1 269 272.4 275.5 278.6 280.4 280.8 282.3 285.2 285.3 285.2 285.1 284.1 283 282 279.2 276 275.9 275.7 275.1 275.3 275.6 277.3 280 282.5 283.7 283.7 282.2 282.1 282.3 283.4 287.3 291.3 295.7 304.2 311.8 315.5 319.9 330 337.1 341.4 348.2 357.4 367.4 373.7 381 391.6 399.5 404.2 409.5
284.9 292.7 302.8 309.6 314.3 319 322.4 322.9 321.3 318.8 319.6 323.8 322.2 323.9 322.8 321.2 314.4 308.1 303.8 301.5 295.3 286.3 277.7 270.4 261.6 251.5 244.6 238.6 234.9 231.9 228.6 223.4 219.2 214.7 208.4 205.4 204.3 202.2 199.6 195.6 191.9 189.1 183.9 180.6 180.1 179.2 178.6 178.2 176.4 174.7 172.2 169.9 167.9 166.6 165 162.5 160.5 158.1 155.1 151.6 148.3 148.4 148.6 148.6 148.3 148.4 148.4 146.4 146.2 145.7 146.2 146.8 147.4 150.9 158.9 162.3 164.8 168 169.8 172.9 173.4 174.2 174.9 175.4 180 178.8 176.3 177.6 187.3 191.8 195.7 199.4 202.3 204.5 206 207.4 207.1 206.8 205.6 204.4 203.3 202.6 202.1 201.7 201.6 202.1 203.2 207.4 209.9 211.5 195.1 202.3 216.2 218.5 220.3 221.1 221.8 221.8 221.4 219.7 218.6 220.8 221.9 221.8 221.3 221.2 220.7 224.7 228.1 230.9 232.4 232.7 231.1 231.8 233.5 235.6 236.5 237.2 238.2 239.2 242.5 245.9 248.8 250.3 251.1 253.9 256.1 258.8 261.6 265.4 269.2 272.9 276.4 278.9 281.3 281.8 282 284.2 285.6 285.2 285.2 284.8 283.7 282.6 281.1 277.3 276.5 276.4 276.2 275.9 275.9 277.4 279.1 282.4 284.4 285.2 284.5 283.4 282.5 283.7 285.5 288.8 292.3 297.5 307.8 316.1 321.5 329.3 339.2 344.4 350.3 362.8 373.5 382.2 389.2 397 409.4 416.7 420.6 426.3
271.7 281 289.6 293 294.7 299.3 301.6 303.2 303.1 302.9 303.5 305.9 306.9 303.6 300.6 296.6 293.1 292.1 288 283.3 277.7 270.6 260.8 255.4 249.6 241 236.9 234.7 231.9 228.6 224 217.4 212.6 209.2 205.1 197.1 196 194.4 192.4 189.3 187.1 184.2 179.9 176.2 175.4 174.7 173.7 173.5 171.7 169.4 167.3 165.1 165 162.2 158.8 160.1 157.5 155.3 153.1 150.1 146.9 146.4 146.5 146.5 146.8 147 146.8 145.7 145.5 145.5 146.6 147.1 151.8 158.8 161.9 164.6 167.4 170.9 174.1 174 175.9 177.6 178.3 180.2 182.3 183.3 184.1 183.1 179.4 181.8 191.5 199.5 202.3 204.7 206.6 209.3 210.2 210.3 209.4 208.2 207.1 206.7 206.5 206.4 206.7 208.1 210.5 213.8 215.3 215.5 196.9 204.7 218.9 220.8 222.1 223.5 225.4 225 224.2 222.5 220.6 220.6 221.6 221.9 222 222.3 223 225.6 229.1 231.2 233.4 234.9 236.8 237.1 237.4 238.8 239.5 240.2 241.2 242.5 244.4 247.3 250.7 252.8 254.6 256.9 258.8 261.6 266.1 270.1 273.8 277.3 279.7 281.5 282.5 282.4 283.5 285.1 285.5 285 284.8 284.2 283.1 281.9 280.2 278 277 276.9 276.7 276.5 277.3 279 282.4 285.5 285.5 285.9 285.2 283.8 283.6 285.5 287.8 289.6 292.8 299.8 313.9 321.8 327.6 339.2 346.8 354 365.3 380.4 391.4 400.2 407.7 418.5 429.1 437.1 442.4 447
257 266.2 273.3 279.5 280.7 281 281 283.8 286 285.8 286 288.2 289.4 286.2 282.8 277.2 271.8 268.6 266.4 263.9 259.6 253.8 247.5 239.8 237.5 234.2 232.8 230.6 227.9 225.6 218.4 213.2 206.5 202.6 199 194 189.7 186.6 186 184.4 182 179.5 176.2 173.6 170.5 170 169.4 168.7 166.7 164.6 162.2 161 160.1 156.1 157.8 157 154.7 152.7 150.8 148.1 145.8 145.8 145.4 145.4 145.8 145.5 145.3 145.2 144.9 144.5 147.1 149.3 157.2 160.4 163.6 166.6 169.8 173 173.7 173.8 176.2 178.7 179.7 183.2 185.7 187.8 188.6 188.2 185.7 184.7 183.1 189.4 198.6 201.8 203.2 206.1 208 210.1 211.2 211.5 210.7 210.8 210.8 210.9 210.3 211.8 215 217.8 218.6 217 197.9 202.6 219.7 221.8 223.9 225.6 227.5 227.8 227 225.4 223.2 221.9 222.3 222.7 223 224.5 225.5 227 229.9 232.9 235.6 239 240.1 239.8 240.2 241.9 243.7 245 245.3 246.2 248 250 252.5 256.1 259.5 261.4 264.6 267.7 270.6 274.2 277.4 279.9 282.5 283.9 283.7 284.1 285.6 285.9 285.3 284.8 284.3 283.6 282.5 280.9 279.7 277.2 277.6 277.7 277.5 277.3 279 283.3 286.1 287.6 287 286.5 285.8 284.5 285.3 287.6 289.2 291.5 294.4 304.4 316.6 327.2 337.6 346.6 356.3 368.5 386.4 400.2 411.9 421.4 430.8 442.2 452.3 462.3 473.2 468.3
242.2 251 258 262.6 265.2 267.3 267.2 267.5 268.9 268.8 267.7 267.2 266.9 266.2 264.1 260.6 257.2 253.8 252.4 248.9 246.1 241.8 239.1 234.8 230.8 229.7 227.9 225 221.7 216.8 208.5 206.6 200.8 196.6 193.5 189.4 185.4 182.8 178.1 174.5 176.9 174.3 171.9 170.2 167.8 165.9 165.3 164 162.4 159 157.7 155.9 155.8 156.1 155.9 154.4 152.6 150.7 148.8 144.8 144.8 145.1 144.6 144.5 144.5 144.7 144.7 145.3 145.4 144.7 149.2 154.1 155.1 159.3 165.1 169.5 173.7 174.7 173.8 175.5 177.5 179.9 182.3 184.7 187.6 190.1 191.9 192.3 191.9 190.2 188.5 186.7 191.2 197.3 200.8 202 203.9 206.5 208.6 210.5 210.6 211.4 212.5 213.2 214 216.3 218.2 219.2 217.7 215.6 201.7 202.3 219.8 223.4 225.8 227.6 228.9 229.5 228.4 226.3 224.5 223.4 223.6 223.8 225.2 227.4 229 230 230.7 235.1 237.8 241.4 242.8 242.2 242.9 244.8 247.3 248 249 250.1 251.9 253.9 256.3 260.3 262.5 264.8 267.4 270.3 273.9 277.5 279.9 282.2 284.2 284.8 284.6 284.8 285.8 285.9 285.1 284.6 284.2 283.7 282.7 281.7 278 278.4 278.7 278.8 278.4 278.9 283.5 287.1 289.5 289.3 288.7 287.9 287.2 286.3 287.4 289.2 290.7 293 296.2 304.4 321.6 333.8 345.5 356.7 369.9 391.7 410.7 424.9 436.9 448.8 458 467.6 478.5 491.5 489.7 483.1
227.9 238.7 246.3 252.2 256.5 258.6 260.2 261.6 261.5 259.9 257.3 254.7 253.9 251.9 249.5 247.8 245.6 244.5 242.1 239.5 236.3 232 228.9 227.2 225.7 223 220.3 216.7 212.8 205.9 199.2 195.4 192.8 189.2 187.1 185.2 181.4 178.1 175.9 171.7 164.2 166.2 167.8 166 163.2 160.4 160.5 159.4 158.2 154.7 153.7 153.5 153 154 153.9 152.7 150.1 148.7 144.3 144.1 144.3 144 144 144.1 144.4 144.3 144.2 144.6 145 144.4 155.1 158.1 158.1 157.9 166.4 171.8 176.7 175.2 174.6 175.1 177 179.4 181.7 184 186.8 189.4 192.2 194.6 195.4 195.1 192.8 192.2 192.9 193.3 193.1 197.3 200.9 203.1 205.1 207.1 207.8 209.4 213.4 216.3 218.4 220 220.5 218.7 216.7 214.4 200.4 214.8 220.4 224.3 226.9 229 230.2 229.6 228.7 226.5 225.4 225.6 226.4 227.3 228 229.9 231.7 232.1 231 237.4 241.8 244.5 244 243.8 244.7 247 249.3 250.4 253.1 255.2 256.6 258.1 259.3 262.6 265.2 267.5 269.5 272.5 276.5 280.6 282.4 284.1 284.8 285.5 285.3 285.7 286.3 285.6 285 284.8 284.5 284.2 283.9 282.6 279.5 279.5 279.7 279.1 280.9 284.1 287.4 290.5 291.6 291 290.4 289.6 288.9 288.2 288.1 290.5 291.7 295 298.9 307.9 328 342 353.5 368.1 389.8 415.7 435 452.4 468.2 481.3 488.9 498.4 508 507.6 503.5 497.5
219.9 229.7 237.4 243.7 246.5 248.8 249.8 251.4 252.4 251.2 248.6 248.4 247.5 245.5 242.1 239.4 239.2 236.5 233.1 229.7 225.6 221.6 219.5 216.6 212.4 209.6 207.7 207 203.3 197.5 192.1 189.1 185.7 183.2 181.6 179.5 177.5 173 171.1 170.2 167.3 163.5 160.1 162.1 160 155 154.2 153.9 153.2 151.8 152 150.5 152.7 152.6 152.4 149.9 147.1 142.9 142.9 143.2 143.7 143.8 143.7 143.8 143.6 144.5 143.8 143.8 148.1 154.8 159.9 162 164.6 161 163.9 171.4 174.5 175.1 171.8 173.7 175.8 178.5 181.2 183.5 185.7 188.5 191.5 194.3 197.1 198.2 197.1 196.2 196.1 197.2 198.5 196.3 199.5 201 202.4 204.6 206.5 209.7 214.2 217.9 221.7 221.8 220.3 218.4 216.9 215.4 203.2 216.7 221.3 225.3 228 230.3 230.3 229.6 228.3 227.6 229.6 230.4 230.3 230.2 231.1 234.1 234.7 233.6 234 238.1 242.2 244.5 244.9 245 245.8 249.3 251.7 253.7 256 258.3 260.1 261.7 262.5 264.8 267.4 269.6 271.7 275.5 279.5 283.6 283.9 285.4 285.9 286.1 286 286.2 286.2 285.6 285 284.5 284.1 284.3 283.7 279.5 280.2 280.8 280.4 279.9 283.2 286.8 289.4 292.1 293.3 292.8 292.1 291.5 290.8 289.9 289 290.4 293.5 297.2 302.5 313.2 333.9 348.3 363.4 380.4 409.9 436.1 458.1 479.4 497 508.5 517.1 520.9 520.1 517.7 512.6 503.3
212.1 220.4 227.6 233.5 238.8 240 242.2 242.7 242.9 242.5 241.9 239 238.8 237.3 234.2 231.7 229.8 226.9 222.9 221 216.3 212.3 210.9 206.3 204 201 197.1 197.9 195.5 190 187 184 180.3 177.8 176.3 174.1 172.8 170.1 167 165.7 163.6 162.9 158.6 154.8 153.9 150.5 149.3 148 147 147.9 148.8 148.6 150.1 148 144.3 142.3 142.5 142.7 142.7 142.9 143.1 143.5 144 144 145.7 150.1 153 155.8 159.8 162.1 163.9 167 169.4 169.9 168.1 164.7 167 169 173.3 173.7 175.1 177.5 180.1 182.6 185 188 191 193.9 196.6 199.7 200.7 201.2 201.1 201.1 201 199.8 199.6 202.5 205.3 206.2 207.5 209.7 214.5 218.3 221.3 221.5 219.7 218.5 217.4 214.6 214.4 206.8 223.4 227 229.6 231.4 230.2 229.1 230.3 232.8 235 234.2 233.3 233 235.4 238.1 239 238.2 237.9 239 241.7 245.4 247 246.9 247.7 252 254.4 256.3 258.5 260.8 263.2 265.2 264.7 266.5 269.5 272 274.9 279.8 283.8 285 285.9 286.7 287 286.7 286.3 286 286 285.5 285 284.5 284 283.5 280.9 281.1 281.9 281.6 281.1 284.2 286.8 289.8 292.3 294.1 294.6 294.5 293.9 293.3 292.6 291.7 290.3 293.3 297.3 301.5 307.2 318.4 338.8 355.1 371.1 392.1 426 451 475.6 498.1 514.4 526.5 529.7 529.7 527.2 523.3 515.6 508.4
202.5 210.6 217.8 224.1 228.3 232.2 234.8 235.5 236.6 235.9 234.3 232.2 230.5 228.6 228 226 224 221.8 219.2 215.1 211.1 208.4 205.3 201.1 198.7 198.4 189.1 183.7 181.9 182.8 181.2 179.6 176 172.1 170.6 169.6 169.3 166.8 163.9 161.3 159 156.6 154.9 152.7 150.1 148.5 145.8 144.7 145 147.4 145.6 146 145.8 144.9 142.7 141.8 142.2 142.4 142.5 142.7 143.1 143.6 142.2 143.8 147 151.9 156.3 159.3 162.6 165.2 167.6 170.4 173.9 176 175.4 174.3 173.9 175 177.1 175.6 176.4 177.1 179.3 183.5 185.7 187.9 190.5 193.5 196.7 200.3 203.2 204.1 204.4 204.3 204.3 204.3 203.2 204.6 206.1 207.2 208.6 211.7 215 219.5 222 221.9 220.6 219.2 218.6 217.8 216.8 206.6 218.3 228.3 230.2 231.5 231.5 230.7 232.7 235.9 236.4 235.5 240 240.7 242 242.4 242.8 242.8 242.3 243.5 243.1 246.7 248.2 249.4 252.9 254.9 256.8 258.8 261.1 263.5 266.2 267.1 266.5 268.9 271.8 275 279.3 283.5 286.3 286.6 287 287.5 287.9 287.4 286.6 286 285.7 285.5 284.9 284.5 284 283.5 281.7 281.3 282.5 282.4 282 286.5 289.4 292.5 295.9 296.3 295 295.2 295.6 295 294.5 293.2 293.3 298.7 302 306.3 311.3 321.1 344.7 360.8 377.2 401.6 435.3 459 485 506.7 525.2 535.9 534.9 531.8 529.9 523.5 516.7 511.3
194.2 199.4 208.1 215.4 220.2 225 226.9 228.8 229 229.8 228.4 227.3 224.5 223.3 222.3 219.1 216.2 213.5 211.9 209.2 206.6 203.8 200.2 195.5 190.4 186.3 181.4 175.3 171.3 170.8 172.6 173.8 171.7 166.7 165.6 164.7 163.7 162.1 160.2 158.2 156.5 154 152.4 150.8 149.9 147 144.7 142.5 144 145.8 143.5 143.3 143.9 142.7 141.7 141.8 142.1 142.2 142.5 142.8 143.1 142 143.4 148 151.6 155.4 158.8 161.1 163.5 166 168.8 172.8 177.4 179.5 178.7 177.9 178.4 178.6 178.2 177.6 178.3 179 178.9 183.2 186.6 189 191.2 193.8 197.2 200.9 204.3 207.4 207.6 207.4 206.8 205.8 205.2 204.1 205.7 207.6 209.4 212.8 217 220.8 223.9 224.1 222.5 220.5 219 219 218.8 212.8 209.8 224.2 230.6 231.7 232.3 233.1 233.4 234.4 235.6 239.2 242.5 244 245.1 246.2 247.5 247.7 248.3 249.4 248.8 248 250.6 255.4 256.2 257.5 259.8 262 264.2 266.7 269.1 268.7 268.9 272 275.2 279.8 283.7 287.1 288.6 288.3 288.3 288.3 288.8 287.7 286.7 286.2 285.8 285.3 284.9 284.5 284.1 282.9 282.2 282.4 283.4 283.6 283 288.6 291.6 294.4 297.8 296.9 295.9 295.6 297.2 297.6 298.3 296.3 300.8 303.8 306.7 311.4 314.6 320.7 342.1 360.8 381.2 407.2 438.6 460.3 486.1 505.3 522.1 531.2 533.1 529.9 527.2 520 514.9 510.3
186.3 191.4 198.8 206.5 213 217.8 220.1 221.7 222.3 222.3 221.1 221 220 217.9 216.5 213.6 210.5 207.4 204.7 202.9 201.3 198.1 194.5 189.8 185.6 178.9 172.9 168.3 164.8 164.9 165.5 165.2 163.9 162.6 160.7 160.3 159 158.4 156.5 155 153.8 151.8 150.6 148.6 146.2 145.9 144.2 143.8 143.2 143.3 143.7 143 141.8 141.3 141.5 141.8 141.9 142.4 143 142.8 141.9 143.7 146.5 148.5 153.8 156.4 159.1 161.8 164.4 167.3 170.9 174.4 178.3 183.6 183 182.1 181.6 181.4 180.8 179.9 179.7 180.4 181.5 182 186 189.4 191.9 194.9 198.1 201.4 204.9 208.8 210.1 209.4 207.9 207.1 206.6 206.4 206.7 208.3 210.5 214.2 218.6 222.5 225 224.7 222.4 220.4 219.7 220.3 220.9 220.3 215.4 217 224.2 230.6 233 234.2 234.6 235.4 237 239.9 245.2 246.5 248 249.8 252.1 252.2 252.5 252.6 250.9 251.9 254.3 258.9 260.7 261 264.4 267.2 268.1 270.3 271.8 271.4 272.8 275.5 279.6 283.5 287.1 289.5 289.8 289.5 289.3 289.1 288.9 287.6 286.9 286.5 286.2 285.9 286 285.6 285.1 284.6 282.6 282.4 283.4 284.8 287.2 291.2 294.6 297.9 300.2 297.5 296.4 297.7 302.1 305.8 303.9 299.3 304.5 307.4 310.9 315 318.8 322.7 334.4 352 372.5 399.3 434.2 454.8 477.2 496 511 521.8 525 523.7 522.8 515.6 511.4 507
179.9 184.8 191.9 198.8 203.4 206.8 209.5 212 212.2 214.1 215.6 215.4 214.6 213.8 211.7 208.1 204.8 201.9 200.2 199 196.7 192.4 189.7 184.3 178.1 173.6 169.3 165.4 161.1 159.8 160.7 160.6 159.6 158.2 157.1 154.2 154.2 153.3 151.6 152.1 151.5 149.7 148.7 146.5 143.4 142.8 144 142.4 143.2 144 143.5 142.1 141.1 141.2 141.5 141.8 142.1 141.6 142 141.6 147.1 149.4 150 148.5 152.3 156.7 160 163.6 166 168.8 171.9 175.4 179.2 184.7 185.9 185 184.8 185.4 184.3 183.4 181.8 182.5 184.1 185.5 185.8 188.8 192.4 195.7 198.9 202.1 205.9 209.2 208.9 208.5 208.3 208.2 208.5 209.6 208.9 210.5 211.2 214.5 218.7 222.1 223.8 223.6 222 220.9 220.5 221.6 223.1 224.9 227.1 228.6 226.8 230.5 234.2 236.7 237.9 240.1 241.6 245.3 247.8 249 250.9 254.1 257.2 256.7 255.7 255.1 254.4 255.3 258.5 261.6 263.8 265.9 268.1 270.2 271.9 273 274.3 276 278.1 280.2 283.4 286.7 289.1 291.1 291.6 290.6 290.2 289.9 289.2 288.3 287.5 287.1 286.8 286.8 286.9 286.9 286.6 286.5 285.9 283.7 284.8 285.8 285.9 293.5 297.7 301.3 301.6 298.6 299.9 303.1 307.8 311.6 308.2 301.4 307.6 311 315 318.8 323 328.7 335.4 345.7 363.9 386.1 418.6 444.9 463.3 482.3 496.7 508.1 514.7 515.8 515.6 510.3 506 501.8
172.3 176.6 183.9 189.8 194 198.3 201.8 204.8 207.4 209.7 210.6 210.5 209 207 204.3 201.6 199.9 197.6 196.4 195 191.7 187.3 184.6 179.9 174.3 170 165.7 161.6 158 156.6 155.8 154.8 152.8 152.3 153.5 149.9 150.2 149.7 149.1 149.2 148.6 147.2 146.8 144.5 142.9 141.7 140.6 140.7 143.6 144.5 142.5 142.2 141 141 141.3 141.3 142.1 141.9 144 147.1 150.1 152.4 152.8 152.6 152.4 155.1 157.9 163.2 166.4 169.3 172.3 175.3 179.2 183.9 185.7 186.4 187.8 188.6 188.3 186.9 185.6 185.6 186.5 188.7 189.7 190.1 192 194.6 198.4 201.6 204.7 206.8 207.5 208.7 209.3 210.8 212.8 214 214.4 215 214.9 214.9 217 219.3 221.2 224 224.1 223.6 222 223.8 224.9 227 229.6 231.2 233.1 223.6 237.8 240.7 242.7 244.1 245.1 248.2 250.4 251.8 254.2 257.5 261.3 259.9 258.6 257.3 258 261 264.5 265.1 266.7 268.8 270.8 273.1 275.4 276.8 277.8 279.3 281 283.5 286.3 288.7 291.1 293.1 293.6 292.9 291.9 290.9 290 289 288.4 288.5 288.4 288.5 288.9 288.6 287.9 287.5 286.1 284.2 286 287.1 287.5 294.3 300.6 302.9 299.4 302.4 304.6 306.1 313.3 316.8 311.7 304.1 308.8 314.6 318.4 322.4 326.3 330.5 336.7 343.8 356.7 375.5 400.7 428.7 448 465.8 480.5 491.3 500.6 504.6 505.6 503.4 499.2 495.3
165.2 168.9 176.3 182 186.6 191.7 197.1 201.1 203.7 206.1 206 205 204 200.4 197.7 196 194.4 191.4 190.1 188.8 184.6 182 179.4 176 170.3 166.3 161.5 160.1 159.1 157.3 155.3 153.8 151 147.9 147.7 146.9 146.9 147.1 146.5 146.6 146.1 144.3 142.6 141.4 139.5 139.9 140.1 139.8 140 141.3 140.9 140.7 140.9 140.8 141.1 141.1 141.2 143.1 147 150.7 153.1 155.7 156.5 156.5 157.4 158.3 158.1 161.1 165.4 168.9 172.6 175.6 179.5 181.3 183.2 185.4 188.6 190 190.7 190.3 190.2 189.5 189.8 191.7 192.9 194 195.2 197 198.8 200.3 203 205.8 211.6 212.4 211.7 214.6 217.1 218.9 219.8 218.9 218.4 218.1 221 223.6 225.6 227.3 228.5 228.5 226.7 227.8 229.9 231.6 232.8 234 235.2 229.2 237.9 243.8 246.1 247.4 248.2 249.3 252.9 254.6 257.4 260.9 264.9 262.8 261.8 260.5 261.6 265.3 266.6 268.5 269.6 271.6 273.7 276.4 278.9 279.5 280.2 281.8 283.7 285.6 288.3 290.6 293.2 295.3 295.8 294.8 293.6 292.4 291.5 290.4 289.9 290.1 290.9 291.1 290.6 290.3 290.2 288 287.1 285.1 286.7 289.1 289.4 291.4 302.8 301.8 301.7 306.9 307 310.2 318.1 320.1 316.8 308.2 311.1 318.3 321.7 325.9 328.9 332.6 337.3 343 351.6 365.3 385.6 410.3 432.9 448 462.2 473.7 482.8 490.8 492.9 494 491.2 487.5
157.4 162.8 167.6 173.5 180.9 188.1 193.9 197.2 200 200.7 200.2 201 198.7 196.8 196 193.4 189.5 186.9 184.5 182.3 179.9 177.3 174.6 172.3 169 165 162.3 162.9 160.8 157.6 156.9 155.5 152.5 148.6 145.2 144.2 142.6 141.9 141.9 142.5 142.3 142 141.7 139.4 139 139.4 139.7 139.5 139.7 140 139.7 140.4 140 140.7 140.9 141.8 141.1 145.9 150.9 155.8 157.4 158.6 159.5 160.5 160.8 162.8 163 164.4 167.8 170.8 174.3 177.7 179.6 180.8 183.5 186.1 189.2 191.1 192.6 193.5 193.9 194.9 196.5 194.9 196.5 198.6 199.8 201.7 202.7 205.7 208.2 209.2 215.3 217 218.9 220.2 221.3 225.3 224.9 223.4 221.7 221.8 225.5 228.8 233.1 232.2 232.4 233.8 233 234.9 236.4 237 237.9 239 239.7 230.7 239.4 245.7 248.5 250.3 251.6 252.7 256.7 257.7 259.7 266.7 268.5 267 265 263.8 264.6 266.8 268.1 270.6 272.4 274.6 276.7 279.4 281.7 281.9 282.8 284.6 286.3 288.2 290.5 292.9 295.5 297.7 297.7 296.5 295.1 294 293 292.1 291.8 292.1 292.5 292.5 292.1 292.6 293.8 291.3 287.9 287.5 286.9 289.3 290.3 290.4 298.3 299.4 304.1 307.9 309.7 313.2 319.3 322.4 321.6 313.6 313.2 321.3 326.6 328.8 329.2 332.5 336.3 342 349.3 358.6 376 393.7 411.7 429.9 442.9 454.6 464.2 472.3 478.7 481.3 482.2 479.6
150.7 159 163.6 169.5 175 182.9 189.4 194.7 196.3 197.1 197.8 197.6 195.5 195.9 193.7 189.9 186.2 182.8 180.4 177.8 175.3 173.2 172.4 171.2 170.1 167.9 166.2 164.5 160.4 158.2 158.1 156.4 151.5 146.2 142.3 140.4 134.3 138.6 141.1 140.1 138.9 139.4 139.7 138.6 138.7 139 139.4 139 139.8 140.3 140.8 140.1 140 140.2 140.2 142.1 147.5 152.1 156 160.4 160.1 162 163.1 164.8 166.2 166.9 168.2 169.7 171.9 175 178.5 181.2 183 183.9 185.4 187.8 190.8 193 195.4 196.8 198.3 200.1 201.4 199.6 200.9 203.3 205.4 206.3 207.9 210.5 213.4 215.9 219 220.8 223.1 224.8 226.5 230 229.6 228.9 229.5 232.6 235.2 235.6 239 240 239.4 240.2 242.6 242.5 241.7 241.6 241.9 242.6 235 233.3 242.6 246.9 250.6 254.1 256.6 258.7 261 262.2 264.2 268.9 271.2 269.9 267.6 267.5 269.1 269.8 270.6 272.4 275 277.4 279.7 282.1 284.2 285.6 286.9 287.7 288.9 290.9 292.8 295.6 298.9 300.2 299.4 298.2 297 296 294.9 294.1 294.3 294.4 294.1 293.8 293.3 294.1 294.9 291.5 288.8 288.9 289.8 288.7 291.4 291.9 298.4 305.5 310.1 310.9 311.6 315.7 323.5 323.8 322.4 316.3 316.8 322.6 327.1 328.6 327.2 329.5 334.8 339.9 345.7 354.6 367.8 381.1 393.7 407.3 420.6 433 445.1 453.6 461.1 466.4 469.5 469
143.6 157 162.2 166.1 173 182.2 187.8 191.9 193.8 195.8 196.4 195.2 195.3 193.8 190 185.3 182.3 179.4 176.6 173.4 169.1 167.3 168.3 171.2 170.7 167.9 166.4 163.4 158.5 157.4 155.7 153 146.1 141.3 136.2 135.9 135.2 134.6 136.1 136.6 136.9 137.1 137.7 137.8 138.3 138.8 139.2 138.9 139 139.8 140.9 142 142.9 143.6 145.5 150 153.3 156.8 159.2 165.9 165.8 168 169.9 171.1 171.3 172.5 173.6 174.5 176.6 178.4 181.3 183.9 186 187.1 187.8 189.5 192.7 195.8 198.3 200.3 202 203.6 205.8 206.5 206.2 208.6 209.7 210.5 212.6 214.8 217.4 221.4 224.6 226.7 228.7 230.5 231.6 233.4 235.7 236.2 237.8 242.9 244 242.6 243.2 244.3 246.1 247.3 249.2 248.3 246.2 245.6 245.8 242.6 236.7 239.2 248.9 250.6 251.8 256.7 260.1 261.9 264 265.3 268 271.6 273.2 273.1 272 271.8 272.5 273.2 274.2 275 277.6 280.3 283.1 284.9 286.4 289.5 290.8 292 293.1 294.5 295.7 298.8 302.1 302.2 301.2 300.9 299 298.1 297.7 297.3 297.1 297.1 296.6 296.5 296.4 296.4 295.2 292.6 290.9 291.4 292.8 292.5 291.4 293.1 301.7 308.3 312.3 312.6 313.1 316.8 323.2 323.3 321.8 320.1 317.8 321.5 326.7 324.7 324.9 326.9 332 338 343.5 352 362.2 371.7 380.5 389.9 399.3 411.3 423.8 435.1 442.9 448.2 454 455.8
141.7 155.5 158.8 163.3 171 179 184.9 188.8 194 196 195.7 194.4 193.6 191.6 187.4 183.5 179.8 175 171.7 168.2 164.8 148.1 165.3 167.2 163.4 160.9 161.6 161.1 157 153.9 150.8 145.6 142.1 134.4 134.9 135.8 136.3 135 135.9 137 136.6 136.9 137.2 137.5 138.1 138.6 138.9 139.3 138.4 138.5 140.7 143.4 145.2 147.6 149.9 153.9 157.1 162.3 166.4 170.6 171.3 171.5 173.8 175.8 176.1 177 178.4 179.2 180.7 182.3 183.8 186.7 189.1 190.5 192.5 194.1 195.6 199.4 201.6 204 206.7 208 210.4 211.5 213.6 214.7 214.3 215 217.5 222.2 225.3 227.1 230 232.7 233.5 235.6 235.6 237.2 240.5 243.6 247.6 249 249.1 248.2 247.8 248.7 250.1 251.9 252.8 253.2 250.9 249.1 249.2 247 241 239.8 253.3 255.9 257.4 260.5 263.9 265.7 267.7 270.1 272.9 274.1 275.3 275.8 275.6 275.1 275.8 276.8 277.9 278.2 281.3 283.9 286.8 289.1 289.5 291.6 292.9 294.2 295.5 297.1 299.2 302.2 304.4 304.1 303.1 303.2 302.1 301.1 300.9 300.8 300 299.5 299 299.1 299.3 299.1 297.5 295.9 294 294 295.9 298.4 292.7 294.3 303.8 311.2 314.5 314.2 314.4 318.1 322.6 323.8 324.4 325.4 325.2 321 321.1 322.3 325.5 328.6 330 334.3 341.4 349.3 358.4 366 371.3 377 384.5 393.8 404.8 415 423.8 428.5 434.4 438.5
144.7 151.9 155.4 160.7 167.8 174 182.6 188.7 192.6 194.1 194.1 192.8 190.5 188.2 183.6 177.8 172.5 167.7 165.4 156.4 146.4 137.6 139.9 135.8 132.5 134 141 151.8 156.3 154.7 147.9 142.8 141.5 133.9 134.7 135.3 135.9 135.2 136.8 136.8 136.9 137 137.4 137.8 138 138.3 138.7 138.3 138.6 137.7 140.2 144.1 146.8 150.9 154.3 158.4 162.6 166.6 171.5 174.9 175.5 174.2 176.2 178.5 179.4 180.5 182.1 183.6 184.3 185.9 187.8 190.1 192.3 194.4 196.2 198.9 199.8 203.3 205.4 208.1 210.8 212.4 213.9 216.4 217.2 219.2 221.6 222.4 224.9 231.4 234 235.4 237.1 238.4 239.1 239.9 239.9 241.8 245.2 249.8 252.5 253.8 253.9 252.6 253 252.8 254.2 255.6 256.4 257.9 256.9 251.1 252.7 253 247.4 244.1 252.3 260.8 262.8 264 269.4 271.1 272.4 274.9 276.7 277.8 278.9 279.3 279.4 279.1 280.1 280.8 281.7 282.4 284.8 288 290.4 292.6 292.3 294 295.2 296.5 297.8 299.5 301.6 304.5 305.3 305.7 305.2 305.2 304.9 304.3 305.2 303.7 302.2 301.5 301.6 301.6 301.8 301.5 300.3 300.3 298.5 298.1 300.9 304.4 292.3 296.5 307.4 313.5 315.6 316.7 317.8 321.3 325 327.4 329.9 331.3 329.4 326.3 324.7 326.2 328.1 330.4 332.2 333.2 340.1 347.5 355.3 361.5 365.3 368 373.5 380.9 388.6 396.5 403.3 409.5 416.1 420.9
146.3 148.1 149.6 155.4 162.1 170.4 179 186.4 190.1 191.3 191.8 188 185.9 183.5 178.9 171.2 160 157.3 148.5 132.7 130.2 135.6 137.4 135 140.7 140.1 133.6 141.2 149.4 146.8 144.1 144.7 135.6 134.2 134.2 134.8 135.5 136 136.1 136.9 137.1 137.2 137.6 138 138.2 137.5 137.3 137.2 138.4 141.9 144.7 147.2 150.5 153.1 157.5 161.6 166.2 172.4 175.5 177.4 178.8 178.2 179.3 181.2 182.5 183.3 184.8 186.5 187.8 190 191.5 193.1 196.1 198 200.4 203.3 205 205.5 209.4 212.7 215.1 216.9 219.8 221.9 222.7 226.2 228.9 233 238.2 239.9 240.8 243.7 243.4 244.8 244.2 245 247.6 250 253.1 256 258.5 258.8 259.7 259.9 257.8 257.5 258.7 261 262.1 261.7 260.8 257.9 258.7 258.3 251.1 257.4 262.2 264.2 266.7 267.4 270.4 272.9 275.3 277.7 279.8 281.4 282.5 283.1 283.4 283.2 285.4 286.8 287.9 287.2 287.4 291.2 293.4 295.9 296.3 296.3 297.6 299 300.5 302.6 305.2 306.6 307.7 307.5 307.7 307.8 307.7 307.5 308.4 306.1 303.8 303.9 304 304.1 304.7 304.4 304 306.3 309.2 308.7 311.2 308.8 293.7 299.3 311.1 316.6 319.1 320.9 323.2 326.4 329.7 331.3 333.7 333.9 332.3 330.5 331.2 331.6 332.2 333.5 334.4 333.7 340.6 347.7 352.4 356.9 359.2 363.7 367.3 370.1 376.1 381.8 387.3 393.2 398.8 404.3
138.6 139.7 144.8 149.7 157.6 165.9 175.2 182.6 186.1 186.4 184.8 182.8 181.7 177.5 172.5 163.6 143.6 135.4 130 134.2 151.3 159.3 157.7 157.2 158.2 155.2 130.5 133.4 140 144.4 141.4 136.9 134.3 134.1 134.2 134.8 135.3 135.7 136.1 135.9 136.3 137.5 135.3 137.5 139.9 139.7 143.4 145.4 145.6 147.2 151.3 152.3 153 156 160.6 168.5 173.1 176.9 178.9 180.2 181.7 182.5 184.5 186.6 187.4 187.5 189 189.5 191.7 196.1 198.1 198.1 200 202 204.7 207.3 209.2 209.8 213.2 217.5 219.6 221.5 223.6 226.3 228.7 233.1 236.8 240.2 244.1 246.4 247.6 249.9 250 250.5 248.8 251 253.4 257 260.1 262.1 263.4 264.4 265.1 266.4 264.2 264.5 266.5 267.1 266.7 266.2 265.5 264.3 264.7 266.5 253.9 266.7 270.7 271.9 273.1 271.8 272.3 275.1 277.6 280.3 283 285.3 286.6 287.1 287.5 288.7 290.4 290.7 291.3 292 292.7 294.1 296.6 298.3 299.9 300.7 301 302.1 304.4 306.6 309.3 310.8 310.6 310.5 310.5 310.6 311.1 310.8 310 308.3 306.6 306.5 307.5 308.8 310.5 309.7 312.5 315.1 317.9 319.3 311.5 297.2 300.7 308.7 316.9 322.1 323.1 326.2 328.6 330.7 333.1 334.9 336.7 337 335 334.7 334.8 335.3 335.7 335.6 335.5 336.7 343.4 346.3 349.6 352.9 355.6 359.1 362.5 364.1 367.5 372.1 374.3 377.4 384.3 393.5
125 127.4 134.9 143.6 150.1 157.3 166.5 177.2 181.1 181.8 181.4 179.1 176.4 170.6 163 142.9 129.8 138.2 153.3 155.3 159.9 161 159.5 158.3 156.6 153.9 146.3 130.8 132.6 135.1 134.7 134 133.8 133.8 134 134.6 135.2 135.6 135.8 136.6 137 137.6 139.9 141.5 142.6 144.1 147.1 148 148.3 151.8 152.1 159 163.9 167.3 164.4 169.5 175.9 179.3 181 182 183.7 185.5 187.9 189.9 191.3 192.7 193.7 195 198.1 201.7 203.6 204.1 206.3 208.1 210.4 212.7 214.9 218.2 221.2 223.1 225.8 227.6 228.7 231.2 236.3 240.9 245.3 246.4 249.7 253.7 255.2 258 257.1 255.4 251.7 255.8 259.6 263.7 266.7 268.5 269 269.6 270.7 272.3 272.9 272 272.6 271.7 271.2 270.6 269.3 270.6 272.7 269.4 255.2 271.2 274.4 277 276.7 276.2 279.5 280.7 282.2 283.5 287.5 290.1 292.3 291.5 292.4 294.8 294.4 294.8 295.2 296 296.8 296 299.4 301.2 302.7 304.2 305.2 306.2 308.5 310.5 313.8 313.6 313.5 313.4 313.3 313.4 314 314.2 312.8 311.5 310.1 311.5 313 315.6 316.1 318.9 320.7 322.1 319.3 317.1 305.4 303.2 311.9 317 321.6 325.6 327.5 330.6 332.8 334.9 336.7 337.7 339.2 339 337.9 337.9 337.8 337.8 337.3 337 336.8 337.6 342.4 343.5 345.8 348.1 350.8 354.2 356.2 357.9 361.5 364.1 366.1 366.9 369.2 377.9
128 126.1 127.8 131.3 131.6 135 138.5 163.1 173.3 176.5 175.9 173.3 168.3 160.5 138.3 131.8 143.1 157.7 162.9 167 166.4 162.4 160.2 157.7 156 152.8 150.6 140.6 131.2 131.8 132.3 134.1 134.3 133.5 133.9 134.6 135.2 136 136 136.7 137.3 139.7 141.5 142.9 145.6 146.7 146.6 152.6 154.9 155.7 158.3 164.2 166.5 169.6 173.6 173.4 175 177.5 185.2 183.8 185.5 188.7 192 194.4 196.1 198 201.5 202.1 202.7 204.9 206.9 208.8 211.1 214.6 216.7 219.1 220.9 223.9 227.4 229.6 232 235.2 239.9 244.3 246.9 249.5 252.1 253.6 256 260 262.1 264.2 263.1 260.7 258.6 263.7 268.5 270.4 275.2 276.5 277.4 278.5 278.9 279.8 279.4 278.4 277.6 276.8 277.4 276.6 276.9 277.1 278.4 279 264.3 272.8 276.9 279 280.8 281 283.5 284.9 286.8 288.9 292.2 295.3 297.7 297.3 298.4 299.9 299.3 299.8 299.6 299.8 300.6 300.3 302.3 303.9 305.7 307.4 310 311.7 313.1 315.3 317.2 316.6 316.3 316.3 316.6 316.9 317.1 316.7 315.4 314.1 314.6 317.1 320.1 322.2 324.7 323.9 322.2 320.5 316.4 312.9 303 306.9 316.4 320.8 325.3 329.3 332.2 335 337.1 338.4 339.2 340 340.5 340.9 339.5 339.4 339.3 339.1 338.8 338.4 337.7 337.1 339.5 340.3 341.6 343.6 345.4 347.9 350.1 352.4 354.5 357.7 359.5 361.3 365.1 370.9
136.6 133.5 130 128.4 128 128.3 127.8 127.3 155.8 168.6 168 164.9 149.3 126.6 135.6 145.5 155.7 163.6 169.1 169.1 165.9 163.9 164.4 162.1 156.1 152.9 150.3 145 136.1 131.7 132.8 134.1 134.2 134.1 134.8 135.3 135.8 136.7 136.6 136.7 139 143.2 144.7 145.9 145.7 151.6 152.8 156.7 159.7 162 163.5 166.1 170.9 178.7 177.9 181.3 187.9 192 191.8 185.5 191 194 198.7 201 203.9 204.7 205.3 206.5 208.1 210.2 211.8 214.4 217 219.4 222.3 224.9 227.5 230.7 234.4 238.6 241.2 244.3 250.1 253.1 255 255.9 258.4 261.1 263.9 265.8 269.6 270.7 271.2 272 272.9 275.6 277.7 283.1 284.4 284.8 286.2 286.7 287.3 288 286.3 284.3 284.7 284.5 284 283.5 284.2 284.8 284.3 283.9 267.9 269.4 279.4 282.7 284.3 285.1 286.8 288.6 291.9 294.2 296.1 299.2 300.5 303.1 304.7 305.1 306 305.4 304 303.8 304.5 305 306 307.4 309.3 311.3 313.6 315.4 316.8 319.3 319.6 319.2 319.2 319.3 319.7 320.2 320.4 320.2 319 318 319 322.4 327.3 328.9 328 326.9 324.7 321.4 316.7 304.5 307.4 315 320.2 325 329.5 334 336.7 339 340.3 341 341.7 342.5 342.6 342.4 341.2 340.9 340.8 340.7 339.6 339 337.6 336.1 337.5 338.5 337 338.8 340.3 342 344.2 345.5 348.1 350.5 352.6 354.2 359.5 359.8
139.7 139.7 139.1 134.1 133.6 129.9 127.7 129.2 128.9 145.1 158.8 148.7 126.5 135.1 151.8 158.1 165.1 169.3 168.7 171 171.5 170.4 168.1 162.5 157.5 154 147.5 142 134.8 134.6 133.9 134.2 133.8 134.7 135.3 135.7 136 136.8 137.7 140 142.7 144.3 148 151.3 152.7 155 156.3 159.5 163.5 163.9 165.8 169.2 173 178.4 184.8 185.5 187.5 190.5 190 188.4 195.4 201.1 204.4 206.4 207.5 208.1 209.3 210.6 212.1 214.1 216.2 218.9 222 225.1 227.8 231.9 235.6 239.8 242 246.1 251.1 255.8 260.2 263.3 263.7 263.7 267.3 271.7 273.2 274.5 277.5 278 279.2 279.5 284.9 288.1 290.9 292.5 293.2 293.3 294.1 294.5 295.2 295.6 294.2 294.6 293.4 292.9 292.3 293.2 291.5 290.5 289.7 287.9 282.4 271.5 283.2 287.9 289.9 289.6 291.3 293.1 297 299.7 301.9 304.1 306 309.1 310.7 310.5 311.1 309.6 308 308.8 309.7 310 310.6 311.7 313.3 315.1 317.1 319 321.3 323 322.5 322.8 322.7 322.7 323.1 323.4 323.6 323.5 322.6 322.2 324.9 328.9 332.1 333.1 331.4 330.6 330.1 324.5 316 305.9 312.7 318.9 323.4 328.1 333.1 338.1 341.1 342.4 343.2 343.5 344.2 344.6 344.3 343.8 343.2 342.5 342.3 341.6 340.1 338.3 336.6 335.2 336.6 336.1 332.6 334.1 335.2 336.5 338.5 339.6 341.4 343.8 345.9 345.8 347.7 349.5
146.3 145.3 143.9 141.7 141.1 131.5 131.3 135.6 126.5 131.1 135.7 126.5 133.6 151.2 163.2 168.8 170.3 173.9 175 174.6 171.8 169.1 164.3 159.2 156.3 150.6 143.1 136.9 132.7 133.1 135.3 132.8 133.3 137.2 137.3 136.8 137.2 138.7 139.3 142.6 146.4 150.4 154 155.6 155 157.6 159.8 161 163.4 166.4 169.4 172.5 176.3 182 185.7 187.2 189 194.7 192.6 196.2 197.5 205.4 207.9 210.4 211.8 212.9 214.2 215.4 217 218.5 221.5 225 229 233.2 236.9 240.1 244.8 248.9 253.9 257.9 264.7 268.5 271.3 273.5 275 275.7 277.2 279.5 281.1 282.6 284.7 286.8 288.7 292.7 296.5 299.4 301.2 301.5 302 301.6 302.2 303.1 301.9 302.7 302.7 302.8 302.4 301.4 301 299.5 296.5 294.6 292.7 281.6 281.4 284.3 288.8 293.1 294 294.8 296 297.9 301.6 305.2 309.1 313.3 313.1 313.5 314.7 314.2 314.1 313 313.6 314.3 314.4 314.7 315.4 316.3 317.4 319 321 322.6 324.4 326.7 326.5 326.3 326.3 326.3 326.4 326.6 326.7 327.1 327.7 329.5 332.3 336.5 340.7 339.2 337.8 337.3 333.7 326.5 319.1 307.5 316 322.2 326.6 331.2 336.2 341.1 344.9 346.5 346.4 346.7 346.4 345.8 345.6 345.3 344.5 344.1 343.7 342 339.7 337.9 336.1 334.4 335.3 333.1 328.4 328.7 330.8 331.4 332 333.1 334.3 337.8 339.8 338.6 340.3 343.8
156.1 155.3 152.6 146.3 141.2 131.1 140.7 144.7 131.7 126.5 126.5 136.9 152.8 164.1 170.2 174.6 177.3 177.6 177.6 176.7 172.4 165.8 159.2 155.8 152.1 145.6 139.4 134.6 133.4 132.9 132.4 139.7 140.2 139.9 139.3 139.7 139.9 140.2 141.4 144.2 148.7 152.8 156.9 158.5 159.1 160.7 162.7 163.1 164.5 169.8 172.6 177 182.3 185.6 186.7 188.4 197.9 199.2 202.4 214 202.3 209.6 212.4 214.9 215.4 216.5 219.4 220.7 222.4 224.4 228.8 232 236.5 240.7 244.8 249.8 254.4 258.8 262.3 267.4 271.5 274 278.2 281.8 283.1 283.6 283.9 285.9 289.4 293.4 295.8 299 301.6 304.3 306.6 308 309.4 308.8 309.2 309.6 309.3 309.6 309.4 308.5 308.8 308.9 309.2 307.3 305.5 304.3 300.6 298.1 292.4 283.7 291.6 291.7 297.9 298.5 298.3 299.9 301 302.7 307.2 313.7 316.1 316.4 315.5 315.1 316 316.4 317.1 317.5 318.5 319.1 318.9 319.4 320.2 321.1 321.9 323.4 324.8 326.2 327.7 329.1 329.5 329.3 329.1 330.1 329.8 329.9 331.2 332 334.5 337.7 339.6 342.6 343.9 341.6 341.8 340.2 335 328 319.5 308.4 319.9 324.8 329.1 333.7 338.8 343.7 348 350.1 348.5 347.8 347.4 347.1 346.9 346.6 345.9 345 344 341.9 339.3 337.7 335.5 333.7 332.9 329.6 323.9 321.1 324.6 325.5 325.8 326.1 327.4 329.5 332.5 332.6 329.8 336.9
158.6 156.8 156 150.2 135.7 139.7 150.4 152.9 153 147.5 144.5 151.7 163.7 169.6 176.1 178.5 179.1 179.6 180.3 177.4 171.4 163.5 159.2 154.4 149.1 142.9 137.7 134.1 133.8 131.9 133.3 139.8 140.8 139.8 139.7 140 140.2 140.8 143.2 146.2 150.6 154.9 158.3 160.4 162.3 164.3 165.5 165.8 166.8 171.7 176.6 180.9 187.2 191.2 198.3 193.1 191 190.7 191.3 216.7 211 215 216.4 217.5 219.8 223.7 227.1 229.1 230.3 232.9 236.8 240.8 245.1 248.7 253.3 258.9 264.3 268.9 271.1 275.9 279 282.9 285.7 288 289.8 290.6 291.7 296.5 297.9 302.2 305.7 309.1 311.5 313.7 315.1 316.6 316.6 316.2 316.3 316 315.4 315.6 315.4 314.5 314.7 315.8 314.9 313 310.5 308.7 305.1 302.1 296.1 287.5 297.2 302 303.9 304.6 304.7 305.1 306.1 309 312 316.5 318.3 318.3 316.9 316.4 318.1 319.1 320.4 322.3 323.1 323.7 324 324.2 325 325.8 326.5 327.7 328.6 329.4 330.9 331.9 332.6 332.4 332.1 333.2 333.1 334.8 336.9 338.4 341 344.8 347.8 347.4 345.4 343.7 343.8 340 335.5 330 316.1 313.6 322 326.9 331.5 336 341.1 345.6 350 352.1 350.1 348.9 348.5 348.5 348.4 348 347 345.9 344 341.5 339.1 337.2 334.3 332.6 330.8 327.2 320.4 315.8 315 315.7 318.2 318.3 317.8 319.5 322.2 324.6 322.6 327.5
