ncols 200
nrows 82
xllcorner 340000
yllcorner 512000
cellsize 50
166.4 173.7 187 205.2 219.6 242 264.8 285.7 309.6 338.1 370.1 398.4 427.5 454.5 470.4 459.9 453.7 454.2 443.6 432.2 405.6 368.5 331.7 303 277.2 256.8 243.1 233.8 237.9 239.5 253.3 277.1 300.9 324.4 347.5 376.3 397.5 416.3 431.6 444.3 453.8 459.8 458.4 446.3 422.2 406.5 393.5 381.9 364.2 345.4 334.1 320.7 308.8 297.2 284.5 268 253.2 244.3 241.8 233.5 222.9 220.1 218.7 219.1 231.2 240.8 246.6 250.7 260.5 272.3 277.6 278.9 269.9 257.2 245.8 236.3 228.3 222.6 235.6 244.5 254 267.5 282.1 295.3 319.5 341.4 360.1 379.9 397.6 416.1 428.7 441.2 454 468.2 486.5 503.6 524.2 553.3 581.9 594.4 609.4 623.2 636.2 646.6 653.1 658.2 660.8 661.9 661.6 662.1 662.5 662.8 663 662.6 662.6 661.2 660.4 658.6 658.3 656.6 653.1 648.1 642.7 637.9 632.9 628.6 623.1 617.7 611.4 602.8 594.3 587.3 578.9 571.7 566.7 559.2 552 546.3 537.7 527.9 518.2 506.8 496.1 478.8 462.2 444.7 428.4 412.2 398.9 392.7 389.7 389.5 385.8 390.5 393.7 401.1 409.4 418.4 425.1 427.5 422.9 418.1 416.4 412 409.3 408 407.2 410.7 407.7 403.2 399.1 390.8 382.2 377.8 373.5 371.3 372.2 371.9 374.5 369 361.2 358.4 360.2 348.7 337.4 325.3 308.1 296.9 288.7 285.6 283.5 283.1 280 279 281.2 278.8 280.9 284.7 281 271.8
158.7 164.3 176.8 192.4 208.7 226.6 248.6 270.1 293.5 320.9 353.2 384.2 417.1 445.6 456.8 444.9 437.9 446.4 435.1 425.8 397.6 359.4 328.4 300.6 276.9 262 243.5 242.3 250.7 258.6 275.8 301 329.5 352.5 378 406.7 429.8 445.7 457.7 462.8 485.6 471.4 455.9 432.7 414.7 398.3 383.9 367.5 353.2 335.5 322.9 311.2 300.5 286.9 268.2 253.5 242.7 239.7 233.6 222.4 218.5 222.7 219 220.8 239.1 249.8 254.4 264.4 276.3 287.6 290.3 288.1 276.2 263.3 252 240.6 231.1 223.1 229.6 240.7 252 266.9 280.1 298.6 322 341.4 357.8 377.4 396.8 414.9 427.4 439.2 454.6 473.7 492.2 510.9 532.8 564.4 591.6 606.3 617.2 627.1 636.2 646.6 652.6 656.3 658.5 659.2 657.9 657.4 658.4 659.9 659.9 661.7 662.8 662.3 663 662 661.3 658.7 654.2 647.1 640.9 634.6 628.6 623.7 618.1 611.5 604.1 595.5 586.5 577.3 568.5 559.2 549.5 538.4 530 520.7 509.9 494.8 479.7 469.9 455.9 439 425.3 405.1 389.6 376.4 366 366.6 364 365.1 360.9 367.5 369.1 376.2 383.9 392.9 402 410.8 414.4 411 408 401.2 395.5 392.4 390.1 390.8 389.9 389.2 383.4 379 375.3 368 365.2 365 366.4 367 365.7 362.3 354.9 342.4 339.6 329.5 319.1 304.4 286.6 279.5 275.5 272.9 272.7 271.1 267.6 264.9 263.4 262.5 263 262.7 259.7 259.5
156 163.1 169.7 180.2 197.8 213.3 231.2 254.9 282.8 311.8 342.3 373.1 398.1 419.1 429.7 427.8 427.3 429.7 428.5 418.2 399.7 358.5 332.2 308.7 291.8 267.8 251.6 254 264.8 279.9 299.4 327.8 358.2 382.1 409.7 431.7 454.6 473.5 483.4 486.4 493 466.1 450.6 425.4 402.3 386.1 376.5 355.1 338.7 323.8 312.1 300.4 287.9 270.4 254.8 243.5 236.9 231 220.6 218.8 219 219.2 219.1 229.7 245.4 256.9 263.7 273.7 289.6 297.9 299.8 296.4 285.1 270.2 259.5 246.5 233.1 227.2 229.2 238.3 249.8 264.3 275.9 294.2 319.9 335.7 354.5 375.9 396 414.1 427 440.3 456.6 479.2 496.6 514.1 542.5 574.9 598.6 613.6 625 635 641.8 648.3 654.5 657 657.5 656.9 653.9 647.2 654.2 656 657.3 659.9 660.9 663.8 663.8 665 663.7 660.3 653.5 645.5 636.3 628.6 623.7 617.7 612 604.3 595.9 586.3 576.1 565.3 553.5 540.2 526.2 511.6 503.5 493.7 476.6 456 440.3 429.1 414.9 402.2 387.3 371.6 360.6 353.1 347.7 346.7 346.4 346 347.2 347 348.1 354.9 359.6 365.9 375.1 383.3 393.1 394.6 395 395.3 392.1 385.2 377 377.9 378.6 379 375.4 371.9 363.6 358.1 355.6 355.5 360.1 358.9 354.4 345.9 342.6 332.8 323.6 314.2 297.2 281 273.9 267.9 264.7 262.1 261.3 259.1 256.9 252.6 250.1 249.2 249.2 249.5 245.7 246.1
153.9 158 161.6 169.7 186.3 199.8 220.7 243.6 272 303 334.2 362.3 385.5 401.5 408.8 413.6 414.9 425.2 429.8 414.3 398.2 370.9 344.7 324.7 303.5 279.6 265.7 269.9 283.8 301.6 323.9 355.7 386.9 413.7 440 460.4 484.2 493.6 493.9 486.2 467.5 454.5 442.3 413.3 390.7 372.1 355.5 344.6 326 314.6 304.3 291.3 274.1 258.2 248.8 236.7 226 220 219.5 219.4 219.6 219.6 220.8 235.3 248 262.2 273.5 287.3 299.4 307.5 311.4 307.1 293.4 276.6 266.6 253 238.1 232.3 227.8 236.7 246.9 259.4 271.1 287 311 332 351.5 372.7 394.5 411.2 429 442.7 461.5 481.8 498.6 519.1 550.1 583.3 606.5 622.3 633.7 642.5 649.1 653 656.2 657.4 657.3 656.2 648.1 639.5 649 651 653.7 655.8 658.2 661.1 662.8 663.3 662.4 656.7 647.3 637.3 628.1 620.5 615.9 609.2 601.7 593.8 583.5 573.3 563.3 549.6 533.4 517.2 500.2 484.3 475.9 462.8 443.4 419.2 401.2 388.6 378.1 370.3 362.3 351.6 347.7 347.6 347.5 346.7 346.3 345.8 345.4 345.4 344.8 344.6 344 345.4 349.1 357.3 363.8 374.2 376.9 379 378.5 374.7 368.7 368.2 370.2 370.9 365.2 358.1 349.8 345.1 342.7 344.5 346.8 347.1 344.2 338.4 329.7 321.1 306.2 295.2 281.6 269.5 261.5 257.1 254.3 251.6 249.8 247.5 246.5 238.1 238.1 238.1 238.1 238.1 238.1 238.1
155.3 154.5 156.8 164.7 176.5 190.4 212.3 237.4 263.7 291.2 322.7 353.3 375.3 391.2 400.5 399.9 405.6 412.8 412.9 404 397.2 386.1 364.2 343.1 318.3 297.4 286 291.9 302.2 322.5 351 384.3 415.1 444.6 470.3 484.5 496.3 495 489 467.6 448.5 438.4 420.2 394.7 376.9 359.1 344.1 333.6 317.7 305 292.1 281 267.8 254.9 241.4 231.5 222.6 220.3 220 219.8 220.4 222.9 225.5 242.1 259.4 271.3 287.6 300.5 313.2 320.1 325.8 320 305.9 286.3 271.5 257.4 239.4 231.8 227.6 235 242.5 255.9 267.6 281.2 302.3 325 346.3 369.2 391.9 409 428.7 444.8 465.7 489.9 500.9 523.2 555.1 588.9 614.7 630.3 643.2 651.9 656.1 660.1 661.2 660.6 659.1 655.5 642.3 628.6 637.6 644.8 647.8 650.1 653.1 655.5 657.8 657.5 654.8 647.5 639 629.9 621.1 614.9 605.5 596.9 587.8 578.9 569.4 558.2 546 529 508.4 491.2 473.1 460.8 452 444.2 425 396.9 377.2 363.2 353.8 352 349.7 349.2 348.5 347.5 347 347.1 346.6 345.6 345 344.7 344.3 344 343.6 343.2 342.7 342.4 345.1 351.9 355 359.3 362.6 366.2 358.7 361.5 361.5 359.8 352.3 343.9 335.6 330.3 328.3 331 332.8 332.8 329.6 324.6 316.9 307.3 292.5 279.6 270 256.3 251 248.3 244.7 239.2 238.1 238.1 238.1 238.1 238.1 238.1 238.1 238.1 238.1 238.1
152.3 152.3 154.3 160.5 169.6 185.6 204.3 226.3 254.2 281.2 308.7 339.7 363.2 377.2 383.6 389 397.2 400.5 406.8 404.7 404.7 389.9 393.5 359 334.8 317.3 316.4 321.9 327.9 342.5 374 409.6 440.9 465.3 484.7 496.4 502.5 497.3 471.5 458.1 439.7 418.1 401.5 382.9 365.8 351.3 334.1 321.1 306.6 295 280.9 270.5 260.7 253.4 241.7 228.4 223.3 220.7 220.3 220.8 229 232.1 234.9 248.8 271.3 285.3 301.2 315.7 323.3 332 335.9 332.8 320.3 299.2 276.8 262.7 242.7 230.4 228.7 233.6 242 252 264.7 279.3 297 317.5 340.9 361.8 383.5 405.1 428.7 448.9 471.8 493.1 503.9 527.1 558.5 591.9 621.1 639.7 651.3 659.6 664.4 666.8 667.3 665.6 663.6 661.3 653.6 638.2 620.8 630 637.9 644 646.9 649 649.7 649.2 646.2 639 631.3 624.2 615.1 605.6 593.9 579.4 573.3 564.4 554.7 539 524.7 503.9 478.4 458.7 447.7 439.9 429.1 424.7 416.8 394.4 373.4 365.4 361.5 355.4 350.7 350.7 350.8 355.2 348 346.5 346.7 347.1 345.2 344.3 344 343.7 343.3 343 342.5 342 341.5 341.2 341.6 347.3 350 351.4 351 352.4 351.7 346.6 336.4 326.4 319.3 314.2 313.9 314.5 317.9 322.3 324.2 323.9 311.6 293.4 280.5 268.1 256.3 243.7 238.1 238.1 238.1 238.1 238.1 238.1 238.1 238.1 238.1 238.1 238.1 238.1 238.1 238.1
152.5 150.3 152.4 157 164.4 177.6 192.9 217.2 242 269.8 296.1 322.8 345.5 364.3 377.7 380 384.8 390.8 397.5 401.9 399.9 393.9 400.6 380.4 354.5 346 361 364.2 357.6 363 391 426.8 455.2 474.3 491.6 509.1 506.2 482.8 465.4 447.2 424.8 407.5 386.6 370.6 355 337.9 321.7 308 296.6 286.8 270.6 260.7 256.3 250.9 241.8 230.2 222.4 220.6 221.2 222.9 233.5 239.8 247.2 254.5 279.5 296.3 313.6 327.5 332.9 342.6 349.5 345.3 331.8 311.6 287.6 266.8 245.2 231.2 230.2 232.6 239.7 248.5 261.4 274.4 289.9 310.2 333.2 357 379.8 406.5 432 456.2 478.8 491.5 510.9 533.1 559.6 590 622.6 645.5 658.6 666.9 671.6 674.2 674.1 672.8 669.8 667.8 663 647.5 624.9 616.1 626.9 635.4 641.3 642.9 643 641.1 637.6 631.4 625 617.5 607.2 595 582 568.9 557.4 547.9 536.3 519.9 499.2 478.9 455 437.1 426.5 416.8 407 403.6 396.6 389.8 383.7 388.6 381.3 371.5 365.6 358.6 358.3 353.9 352.6 358.1 353.1 355.2 351.7 347.5 344.9 343.9 343.1 342.7 342.2 341.6 341 340.1 339.5 339.9 341.8 345.4 344.5 343.1 341.3 335.9 324.4 312.7 305.4 302.3 302 302.7 304.6 313.7 309.5 302 293 282.4 268.6 256.1 241.7 238.1 238.1 238.1 238.1 238.1 238.1 238.1 238.1 238.1 238.1 238.1 238.1 238.1 238.1 238.1
152.1 149.5 153.3 157.1 164 172.2 189.6 212.8 233.8 260.2 289.7 318.1 344.3 358.8 369.1 382.2 388.6 386.5 392.9 397.4 395.2 402.5 404.5 389.6 369.1 371.9 386.4 390.2 394.4 404.2 407.3 448.7 471.4 495.9 507 513 495.2 484 462 438.2 417.6 393.3 376.6 363.2 346.8 328.2 311.6 298.1 286.4 273.6 260.2 253.2 252.3 246.5 237.8 229.5 222 222.1 222.8 229.7 241.2 247.2 259.8 273.5 291 308.3 325.1 336.6 349 359.9 367.1 359.7 343.3 322.2 294 272.8 251.9 234.5 231.2 232.4 239.7 248.2 259 271.2 285.4 305.6 330.6 354 376.8 404.3 434.5 461.2 479.2 495.6 514.1 537.8 565.2 589.1 618.9 651 665.7 673.6 677.9 679.5 679.8 678.1 675 672.1 666.3 653.2 629.5 607.1 617.4 626.1 633.7 637 636.9 633.6 629.8 625 618 608.6 597.7 585 569.7 555.7 541.6 529.5 515.4 495.3 475.3 458.6 437.1 422.2 410.9 407.7 405.9 402.9 402.4 403.5 409.1 415.8 407.2 396.7 388.1 384.5 375.9 374.1 372.7 374.1 374.3 374.1 370.4 364 353.3 347.6 344.6 342.9 342.3 341.9 341.5 343.7 344.6 341.7 338.3 341.1 339.2 339.7 334.7 326.3 312.3 300.4 292.2 293.5 292.8 292.9 291.3 298.7 299.5 290.7 279.8 268.2 257 243.1 238.1 238.1 238.1 238.1 238.1 238.1 238.1 238.1 238.1 238.1 238.1 238.1 238.1 238.1 238.1 238.1
148.9 151.2 155.6 159.3 163.4 170.8 183.6 218.5 237.6 257.9 284 309.9 335.3 357.9 373.5 384.3 381.3 381.6 392.8 396.1 398.9 408.7 404.4 393.4 385.2 388.8 403.6 408.2 421.8 437.4 434.9 465.9 486.7 509.2 514.3 518.1 500.9 478.8 451.3 424.1 403 384.7 367.9 354.5 334.9 318.3 301.4 289.1 272.8 263.9 254.5 249.5 247.2 240.4 235.2 228.1 221.9 224.2 228 233.4 244.1 254.8 268.9 285.5 303.3 322.1 338.8 351.1 365.2 379.6 388.8 377.3 357.6 331.7 306 277.9 255.8 236.3 232 232.5 237.2 245.7 256.5 268.9 283.8 302.3 326 349.5 372.4 400.8 432.6 458.1 481.1 497.7 516.4 540.4 567.5 596.8 629.9 656.3 671.4 680.2 684 685.2 685.2 682.8 679.1 674.8 668.2 655.9 634.1 611.1 610.1 617.4 625.3 631.1 631.6 628.8 622.5 616 608.4 599.2 585.4 572.6 558.7 541.7 524.8 507.8 491.8 471.8 453 437.5 424.9 419 419.4 424.8 426.3 427 427.6 435.2 438.5 440.1 435.3 430.3 421.7 408.8 409.7 403.5 400 400 398.1 391.8 386.4 381.6 369.1 358.7 352.1 348.4 346.3 346.8 348.7 350.6 348.5 345.7 342.1 335.2 335.4 330.1 333.4 320.8 310.7 299.4 287.1 281.3 284.2 282.1 282.8 283.1 284 275.6 266.5 254.7 242.7 238.1 238.1 238.1 238.1 238.1 238.1 238.1 238.1 238.1 238.1 238.1 238.1 238.1 238.1 238.1 238.1 238.1
149.6 152 155.3 158 165.2 174 189.2 224.5 234.2 255 275.9 303.6 330.8 351.3 364.3 369.9 376.6 383.3 390.6 396.4 401.4 408 406.5 401.5 401.1 405.4 417.8 429.2 440.2 446.9 461.6 478.9 490.9 518.5 527.2 511.1 496.9 476.2 440.8 413.4 393.7 380.2 358.1 344.4 325.4 306.3 291.4 279.2 268.3 255.3 248.3 239.9 233.4 227.5 232.1 224.6 223.3 228.1 234.7 244 252.6 264 279.1 300.1 319.6 338.7 354.6 375.5 395 405.3 410.3 398.6 374.4 347.9 315 284.5 260.7 239 233.7 234 237 244.2 253.2 266 281.3 300.9 323.9 344.3 368.3 395.9 424.2 453.6 481.6 501.7 518.2 541 568.9 605.1 638.4 664.9 679.9 688 690.4 690.9 689.8 685.8 681.7 675.5 668.5 657.1 638.3 611.6 602.2 608.9 618.5 624.9 626 622.7 616.1 607.3 598.5 587.1 574 559.7 544.9 525.6 504.6 482.7 464.9 443.6 432.4 431.3 432.1 437.5 443.3 447 451.7 456.2 458.1 466.2 467.8 466.1 466.5 465.7 457.9 447.9 449.3 440.8 435 437.1 422.6 406.3 398 394.4 387.6 374.2 365.5 361.1 358.6 358.3 359.2 355.8 351.6 346.1 342.6 337.5 336.3 328.4 325.9 317.8 311.3 300.2 287.5 270.7 275 272.2 271.5 270.5 264.6 258.5 253 240.8 238.1 238.1 238.1 238.1 238.1 238.1 238.1 238.1 238.1 238.1 238.1 238.1 238.1 238.1 238.1 238.1 238.1 238.1
150.6 151.7 153.6 159.8 165.2 178 193.5 214.2 234.5 255.2 280.8 304.2 328 352.5 365.6 375.8 379 383.6 390.7 398.6 404.8 414.7 413.5 413.3 419.3 421.5 431.7 441.1 458.9 461.3 473.4 487.4 502.3 524.2 525 507.5 482.4 455.7 429.2 402.3 391.4 370.2 353.7 331.5 315.7 297.2 278.6 267.2 256.6 251.8 242.6 235 230.3 226.9 225.8 225.7 225 229.6 239.2 250.4 261.1 275.6 293 313.9 332.2 353.6 380.2 400 424.9 438.8 441.2 423.7 394.1 359.7 323.4 291.9 268.5 242.6 234.8 235 235.9 244 253.4 265.2 280.3 297.9 320.4 341.1 364.5 390.2 417.2 446.7 478.9 501.2 520.7 543.4 574.7 612.7 646.9 673.8 689.5 695.5 696.8 695.4 692.4 687.8 681.4 674.8 667.4 655.8 642.7 618.9 599.4 596.1 610.7 617.6 618.2 615.3 609.2 601.2 589.7 575.8 564.1 551.1 531.6 509.7 481.1 456.1 449.8 454.8 458.1 457.4 456.3 459 467.5 473.5 480.1 486.6 489.8 491.3 492.3 490.2 487.1 488.8 477.5 484.3 482.8 475.9 465.9 458.7 447.8 433.1 424.4 417 403.9 394.2 384.8 377.7 373.8 369.7 366.6 359.7 351.4 345.7 340.7 337.6 336.8 329.4 319.6 312.3 306.3 295.7 281.8 268.4 268.1 264.8 259 254.8 247.7 238.1 238.1 238.1 238.1 238.1 238.1 238.1 238.1 238.1 238.1 238.1 238.1 238.1 238.1 238.1 238.1 238.1 238.1 238.1 238.1 238.1
154 156 157.2 153 163 176.7 196.6 212.4 231.7 253 278.7 305.4 331.8 357.1 381 391.9 391.6 393.6 398.4 398.4 408.2 417.4 420.4 418.6 431.9 431.7 438.7 453.1 462.5 474.5 488 498.1 516.2 523.2 518.8 499.5 472.7 447.1 420.9 395 379.4 363 344.5 321.6 305.8 289.5 277.2 265.1 262.3 254.8 240.9 237.3 229.8 227.9 227.2 225.6 226.1 234.6 247.2 263.1 273.8 288.4 306.1 327.4 350.4 377.5 403 429 455.6 480.1 479.3 449 413.2 374 333.6 302.4 275.6 250.3 235.7 236.6 236.7 242.7 252.3 265.5 281.8 297.1 317.2 338.7 362.4 387.9 413.5 440.6 473 498 518.5 545.7 581.4 621.7 656.1 680.8 694.5 699.9 700.9 697.9 693.7 688.2 681 673.3 664.9 653.9 641.5 630.2 611.9 587.6 602.3 608.6 609.4 607.8 603.3 595.7 583.7 567.7 552.9 540 520.6 499.1 470.7 468.8 478.1 481.7 482.6 482.7 481 487.2 497.4 502.7 508.2 513.3 515.1 515.1 512.9 510.5 510.9 511.3 501.3 510 513.5 507.2 494.7 484.2 472.3 465.5 447 436.1 425.1 413.4 403.2 394.7 386.3 376.9 369.4 358.7 352 347.1 342.7 338.1 336.1 327.7 319.6 310.3 300 285.8 271.6 264.3 255.5 254.3 250.7 245.7 238.1 238.1 238.1 238.1 238.1 238.1 238.1 238.1 238.1 238.1 238.1 238.1 238.1 238.1 238.1 238.1 238.1 238.1 238.1 238.1 238.1 238.1
149.6 156.2 155.6 151.5 160.1 175.1 203 217.5 228.9 249.1 277.1 302.3 328.2 356.5 379.2 392.9 398.2 400.4 404.8 402.3 416.4 426 430.4 440 443.5 441.7 446.5 457.4 472.7 488.9 496.2 505.7 515.9 528.1 513.1 487.6 464.1 436.5 409.2 387.8 370 354.5 335 315.3 297.3 283.3 271.7 268.3 266.8 258.5 245.9 236.3 233 229.7 228.5 227 231.5 240.1 252.6 270.6 287.1 301.4 320 344.2 369.4 396.2 425.1 453.3 482.8 509.3 499.9 464 426 386.1 346.4 313 283.3 258.7 240.6 237.6 238 241.4 252 265 280.3 295.3 314.5 335 358.4 383.5 411.5 440.1 468.4 493.6 518.5 548 584.7 624.9 658.8 684.4 697.8 703.2 702.3 698.9 693.5 686.8 678.9 670.1 660.8 650.6 640.3 630.3 615.3 588 595.5 599.9 603 601.1 598.2 589.6 577.6 561.5 545.4 527.5 504 483.6 478.3 498.1 505.4 509.8 512.6 513.5 509.4 513.6 520.4 525.8 530 536.5 540.9 540.3 540.6 541 537.8 529.4 521.9 525.2 528.2 527.6 522.4 514.8 498.6 484.9 475.7 465 453.4 435.8 427.9 407 391.1 376.6 365.3 354.8 349.1 347.3 345.3 338.3 338.6 330.7 314.3 296.6 288.9 277.3 263.7 246.6 246.7 246.8 245.2 239.1 238.1 238.1 238.1 238.1 238.1 238.1 238.1 238.1 238.1 238.1 238.1 238.1 238.1 238.1 238.1 238.1 238.1 238.1 238.1 238.1 238.1 238.1
148.2 149.9 152.8 151.3 157.8 172.9 199.7 222 230.6 249.8 269.6 297.1 329.1 352.8 380.9 406.7 409.1 414.2 411.4 409.9 422.5 431.1 438.2 447.7 453.6 440.6 447.6 461 483.1 501.7 507.5 509.8 517.3 521.5 498.4 468.8 440.2 421.8 402.7 376.8 362.5 347.6 327 308.2 291.1 280.1 273.8 271.7 269.4 259.4 249.7 239.5 235.2 232.5 232.8 230.4 238.4 246 258.5 278.7 296.6 315.7 337.5 362.9 390.9 419.9 448.6 476.6 504.7 524.7 511.1 473.9 436.7 397.2 355 322.3 292.4 266.9 247.2 239 238.9 240 253.5 265.8 280.2 294.8 312.8 334 356.6 380.3 408.4 432.9 461.1 486.8 515.8 550.5 589.4 627.7 666.5 689.6 701.8 706.1 704.1 698.9 692.2 685 676 667.1 656.4 646.6 637.9 628 616.6 594.6 586.3 593.1 594.4 595 593.2 584.2 572 557.2 532.5 508.3 487.4 491.3 510.6 524.1 534.6 539.4 541.4 544.9 540.2 538.6 546.4 552 556 558.6 555.6 555.9 555.1 551.9 548.5 535.7 534.7 539.8 537.9 533.8 529.9 526.1 514.5 502.6 495.2 482.4 465.7 452.4 437.9 414 393.9 376.3 358.9 348.5 339.3 337.6 332.7 332.3 334 333.9 318.3 294.6 274.1 269.2 256.7 247.3 238.1 238.1 238.1 238.1 238.1 238.1 238.1 238.1 238.1 238.1 238.1 238.1 238.1 238.1 238.1 238.1 238.1 238.1 238.1 238.1 238.1 238.1 238.1 238.1 238.1 238.1
148.5 149.2 156.3 149.8 157.4 173.9 190.9 210.7 232.6 248 268.3 297.9 328.2 373.5 398.4 415.6 421.3 423.2 415.1 422.5 438 446.5 449.5 457.5 450.8 449.4 451.8 468 497.4 510.4 517 522.8 529.2 518.2 496.7 461.6 433.1 405.8 386.5 371.5 355.9 340.5 320.5 300.2 286.9 279.8 274.2 270 268.2 259.9 249.4 241.9 237.8 238.7 237.9 233.8 245.6 249.4 264.9 286.2 305.4 327.3 353.3 382.7 412.8 442 470.9 500.8 524.8 533.5 525 484.3 448.2 407 364.8 332.9 302.2 274 250.8 240.6 241.1 242 253.2 265.5 279.3 293.8 311 330.5 353.1 376.8 400.9 427.6 456.2 483.7 515.3 549.2 587.8 631 668.2 691.9 704.3 707.8 705.2 698.8 691.2 683.1 672.8 662.9 651.7 639.8 630.6 620.3 612.6 598.8 578.2 588.2 586.2 586.5 587.1 577.1 567 553.7 530.2 503.7 502.3 518.5 530.5 544 553.6 560 562 563.9 563.4 560.9 569.4 576 577.2 573.7 569.4 566.8 564.3 558.9 553.3 545.1 547.5 548.5 545.6 540.7 537.3 529.9 520 511.5 503.8 491.1 476.4 459.6 443.7 412.1 390.5 366.7 348.5 337.8 329.9 323.3 321.5 321.1 326.7 324.2 314 287.6 266 255.6 250.2 238.1 238.1 238.1 238.1 238.1 238.1 238.1 238.1 238.1 238.1 238.1 238.1 238.1 238.1 238.1 238.1 238.1 238.1 238.1 238.1 238.1 238.1 238.1 238.1 238.4 246.1 251
148.9 150.3 149.2 149.8 149.3 163.4 185.4 205.6 222.9 244.3 266.3 298.8 327.2 365.1 399.1 417.1 429.1 437.4 426.9 437.3 452.2 459.7 463.6 454.3 453.7 456.4 455.5 475.4 503.4 518.2 524 529.8 534.3 524.4 490.6 460.2 422.5 394.7 377.9 364.1 347.2 330.4 312.1 298.2 288.2 278.9 279.1 272.3 263.1 255.1 249.3 243.3 239.8 240.5 242.2 236.9 252.6 253.8 274.4 293 312 341.2 369.6 399.8 430.5 460.1 493.7 522.9 545.3 554.5 536.7 499.8 460.4 418.9 380.8 343.5 309.8 279.7 254.2 242.2 242.5 244.3 251.1 265.9 279.3 293.8 309.9 328.6 351.1 375.3 399.2 427 453.3 482.2 514.7 548.2 589.2 631.2 669.7 694 706.4 708.8 704.5 697.7 689.6 680.5 668.7 657.2 642.2 622.8 608 599.7 594.5 579.9 574.2 582.9 579.2 577.9 577.1 572 567.3 556.8 539.3 506.1 521.3 536.3 542.9 556.9 567.4 573.1 577.6 581.3 581.4 581.6 586.5 590.2 590.4 585 580.4 574.2 570 567.3 559.7 557.2 555.3 554.5 550.7 545.7 542.4 532.3 525.7 519.3 510.4 498.2 482.8 464.7 444.6 413.8 388.2 361.8 341.8 329.1 322.7 313.3 313.6 305.7 300.2 298.8 286.8 272 254.3 247.3 239.5 238.1 238.1 238.1 238.1 238.1 238.1 238.1 238.1 238.1 238.1 238.1 238.1 238.1 238.1 238.1 238.1 238.1 238.1 238.1 238.1 241.6 244.4 246.8 251.8 252.4 258.4 266.6
149.4 149.6 149.7 150.1 150 157.1 178.9 197.6 215.8 236.8 261.3 286.5 318.5 355.3 392.7 420.9 438.8 446.7 434.7 452.6 468 473.1 471.4 456.9 458.2 460.3 463.7 480.2 503.2 521.9 532.9 544.9 541 521.3 487.1 445.1 412.3 392.1 377.7 364.3 345.9 330.9 321.1 308.6 291.5 279.2 269.4 264.4 262.4 255.6 248.4 243.2 241.3 236.4 236.4 235.6 250.7 258.2 280.4 302.4 325.3 357.2 390 431.3 458 482.7 513 541.6 565.9 569.8 549.3 509.9 471.8 429.9 391.9 351.7 316.2 286.3 262.7 245.2 243.4 247.1 254.2 265.7 279.3 292.7 309.3 327.7 350.2 374 399.8 426.8 454.3 482.8 514.3 548.9 587.3 628.7 668 692.6 706.7 708.9 704.2 696.8 689 678.2 664.8 644.8 624.7 612.3 616.5 616.8 610.2 598.2 570.1 577.4 575.1 571.6 570.3 569.2 566.3 556.7 542.4 516.6 538.7 552.7 558.1 568.2 578.4 588 595.1 597.9 597.6 598.1 600.8 601.3 599.7 594.6 587.4 582 575.6 570.7 566.7 565.8 563.2 560 557.5 551.9 546.3 538.5 531.7 522.9 514.4 500.7 485.6 470.3 450.2 423.2 392.7 360.3 338.2 325.2 315.6 307.7 298.6 288.6 280.1 275.2 266.4 253.3 243.1 238.1 238.1 238.1 238.1 238.1 238.1 238.1 238.1 238.1 238.1 238.1 238.1 238.1 238.1 238.1 238.1 238.1 238.1 238.1 238.1 245.3 253.7 257 261.4 267.2 272.1 275.3 280.1 286.3
149.4 149.4 149.6 150 150.3 150.1 167.6 193 211 231.6 256.1 284.7 321 355.1 389.1 425.4 454.4 460 443.6 465.8 478.9 479.7 469 468.2 466.4 469.1 472.3 483.8 503.1 523 538.2 550.9 547.9 511.9 476.8 440.5 413.2 397 387 375.6 357.1 342 328.3 311.8 292 275.8 260.9 255 250.3 243.7 246.6 241.7 239.1 239.8 241 243.9 251.8 266.4 287.7 310.8 337.5 371.7 414.8 453.9 479.6 506.7 532.2 556.5 574.1 569.8 548.9 514.3 476.7 436.1 399.2 359.4 324.4 293.4 267.9 251.1 244.8 250.5 257.4 265.6 277.2 290.8 307.5 326.4 348.8 372.8 400 427.5 454.3 486.1 519.8 552.5 585.6 625.2 664.7 693.7 706.7 708.2 703.6 696.5 687.9 677.5 664 637.6 627.2 632.3 629.7 623.1 614.6 603.8 586.2 568 563.1 560.9 561.6 563.9 561.9 557.2 549.2 525.4 549.8 563.7 573.8 576.6 591.2 601.3 610.3 613.5 614.1 613.1 613.6 610.5 606.1 602.2 593.8 585.2 581.2 576.1 575.1 574.7 570.5 567.9 562.8 558.3 553.2 547.2 540.7 530.2 516.9 504 491.6 476.9 450.9 420.7 393.8 360.7 335.6 319.5 307.2 297.9 286 276.7 268.7 262.2 254.7 244.8 238.1 238.1 238.1 238.1 238.1 238.1 238.1 238.1 238.1 238.1 238.1 238.1 238.1 238.1 238.1 238.1 238.1 238.1 238.1 254 261.9 268.8 269.5 275.5 285.3 294.7 302.6 305.6 309.3 314.6
149.4 149.5 149.7 150 150.6 150.1 160.8 184.7 204.7 229.1 249.6 281.2 318 357.6 390.5 428.5 457 463.3 451.5 468.5 488.3 490.2 481 475.3 473.2 477.5 479.6 492 503.5 517.8 532 546.7 544.4 509.3 473.3 447.6 424.3 410.8 398.4 382.6 371.5 346.5 329.1 315.1 290.3 273.1 260.1 247.8 244.1 240.7 245.1 239.4 241.8 243.2 245.2 250.2 259.4 274.3 295.1 318.2 349.8 386.1 422.9 452 483.9 512.3 536.9 558.6 572.8 566.1 544.8 516.7 482.4 444.3 404.5 366.3 330.7 299.8 275 257.6 247.1 251 258.6 267.1 278.2 291.1 306.4 324.8 348.8 374.6 402.2 429.4 458.2 487.8 520.3 552.8 587.1 624.7 661.6 695.3 710.4 708.3 702 695.4 686.8 677.5 666.5 643.9 645.3 639.4 631.4 623.9 615 603.2 582.3 587 582.5 575.6 565.7 555.8 557.2 557.2 547 537.7 559.2 574.5 586.5 593.6 598.2 614.5 624.3 628.4 629.2 627 624 619.3 613.8 607.5 598.1 591.4 584.8 583.2 582.4 580.6 577.7 572.6 568.5 561.1 557.2 550.8 543.1 531 520 505.7 501.5 484.3 459.7 416.3 386.8 361.2 342.3 324.8 308.5 296.2 281.5 271 262.6 254 247.7 238.1 238.1 238.1 238.1 238.1 238.1 238.1 238.1 238.1 238.1 238.1 238.1 238.1 238.1 238.1 238.1 238.1 238.1 249.7 265.8 282.2 295.3 298.9 299.8 303.1 312.6 327.3 349 336.9 341.9 347.2
149.9 149.6 149.9 150 150.3 150.4 156.5 175.2 195.6 218.7 247.3 280.8 310.5 345.8 383.8 425 461.7 466.2 458 475 493 494.4 492 483 491.9 487.2 489.4 497.5 508.1 520.3 534.6 549.5 548.8 519.7 488.5 458.5 439 434.4 423.4 398.8 377.9 347.8 338.1 316.2 291.2 270.8 260.1 246.6 241.7 240.1 241 242.5 244.7 246.5 249.5 256.9 267.2 283.9 302.9 327.8 359.2 393.9 424.9 454.7 483.3 508.8 531.8 550 564.6 558.2 544.7 520.5 486.4 450.3 407.8 369.5 333.7 303.7 279.4 260.6 247.9 253.1 260.6 269.7 280.6 293.6 307.6 324.9 350.3 376.6 404.7 431.4 461.9 492.5 524.2 552.1 591.7 631.9 669.6 699 708.7 705.3 700.4 695.1 687.7 677.7 668.5 658.4 650.6 641.2 631.9 623.5 612.2 593.1 597.1 592.1 586.6 576.3 564.7 554.6 551.5 552 549.6 556.1 568 584.3 597.4 606.7 615.2 621.7 634.8 638.4 639.9 636.8 632.7 626.9 619.1 610.6 602.6 597.7 592 588.8 587.8 585.6 582.1 574.8 571.8 563.3 556.7 546.6 535.3 526.1 517.1 506.4 501.2 479 443 411.3 387.8 360.6 347.1 329.8 313.9 298.6 279.3 267.7 256.4 245.1 238.1 238.1 238.1 238.1 238.1 238.1 238.1 238.1 238.1 238.1 238.1 238.1 238.1 238.1 238.1 238.1 238.1 238.1 249.3 267.9 295.8 343 366.2 356 335.1 329.9 337.9 357.9 376.8 373.6 386.2 392.8
150.2 150 150 150 150.8 150.4 157.1 170 189.8 213.3 243.3 276.1 305.4 341.9 379.6 417.3 455.9 470.4 463 477.4 484.8 501.7 490 492 500.3 489.1 497.7 507.9 520.5 529.3 540.7 549.2 547.1 531.3 499.3 469.8 459.7 461.9 469.5 461.3 411.2 370.3 346.7 317.8 293.5 273.1 259.2 245.9 240.6 241.5 242.6 244.1 247.5 249.7 254.3 263.4 274.5 290.4 308.2 337.1 368.1 399.7 426.7 452.1 479.5 502.8 523.3 542.6 555.6 551.9 545.5 521.7 486.5 450.7 413.5 375.1 339.7 307.6 280.6 259.7 249.7 252.4 259.9 278.8 287.6 298.8 312.8 329.1 350.7 372.5 400 428.1 458.5 489.1 517.2 556.1 593.9 630.1 666 693.8 703.8 703 699.3 693.9 687.2 679.1 669.6 660.5 651 641.2 626.4 616.5 606.1 608.1 602.3 594.7 583.5 558.4 558.1 561.6 564.7 568.4 573.4 576.9 572.7 592.9 607.5 617.7 625.2 634.2 640.8 645.2 646.4 642.4 638.2 632.2 624.3 614.4 608.8 603.4 599.7 595.2 592.8 588.6 583.1 575.2 569 559.5 548.2 535 521.8 508.8 499.2 497.9 488.4 473.7 437.1 408 388.5 359.6 343.2 331.7 307.5 292.6 275.6 262.4 248.2 238.1 238.1 238.1 238.1 238.1 238.1 238.1 238.1 238.1 238.1 238.1 238.1 238.1 238.1 238.1 238.1 238.1 238.1 249.9 265.9 291.6 319.3 353.6 396 408.3 384.3 378.6 379.6 388.9 398 400.1 410.1 408.2
150.5 150.4 151.1 152.2 151.4 150.6 160.8 170.5 189.3 210.5 239.6 270.8 296.7 331.4 367.4 401.7 436.8 458.8 470.5 468.5 482.8 496.1 489 499.5 501.1 504.2 506.7 516.7 532.2 538.6 551.1 550 544.4 534.6 517.3 497.7 505.7 496.2 516.6 481 436.2 391.8 357.6 331 298.8 273.8 255.4 242.7 240.1 242.9 244 245 248.4 252.2 257.4 267 279.4 294.8 311.2 336.7 368.3 399.3 426.3 450.2 476.1 497.7 517.3 535.5 549.2 549.4 541.8 526.2 496.9 461.2 419.2 378.8 343.8 310.8 285.7 263.5 252 253.6 260 276.4 292.4 303 316.2 331.2 354.9 381.1 404.5 425.1 454.8 482.5 518.6 556.6 592 630.8 667.1 691.6 700.1 701.4 698.4 693.5 687.8 680.2 672.2 662.1 652.9 643 635.3 626.6 618.4 610.6 602.8 591.6 564.2 562.4 567 573.3 578.8 584.3 590.4 597.5 599.6 600.1 617.5 627.7 635.5 643.1 647.4 650.2 650.3 647.5 642.2 635.8 627.6 618.9 613.5 609.8 602.6 597.7 593.8 590.3 581.6 572.7 562.6 544.8 528.5 515.3 503.2 488.6 475 468.9 465.1 462.6 432 405.8 386.1 359.3 331.3 318.9 297 282.1 265.3 253 240.8 238.1 238.1 238.1 238.1 238.1 238.1 238.1 238.1 238.1 238.1 238.1 238.1 238.1 238.1 238.1 238.1 238.1 247.5 266.1 286.4 310.4 351.8 379.8 411.4 423.4 426.2 422.1 416.8 404.9 407.7 405.9 412.6 412.7
150.5 151.9 153.4 152.8 153.3 150.1 156.1 169.2 186.7 206.5 229.2 263.6 301 331.9 363.3 398.7 434.4 457.2 467.3 460.3 477 490.8 491.8 503.4 507.2 507.9 514.4 521.6 536 543.7 553.2 553.1 546.9 532.8 520.4 525.9 549.7 539.9 527.1 493.8 446.7 403.5 360.8 325.9 299.6 273.5 254.6 243.1 240.5 243.8 245.9 245.8 249.3 253.9 262.4 272.9 286.3 304.1 325.1 348.5 361.2 392.8 423.5 447.8 470.9 490.8 510.2 528.4 542.2 543.5 543.3 531.4 499.1 457.9 418.3 380.1 347 314.6 288.5 266.1 253.8 261.2 275.4 284.1 299.3 316.3 329.2 342.3 362.3 386.9 411 436.4 465.3 493.8 521.4 555.1 595.2 633.1 670.4 692.9 700.5 700.8 698.3 694 688.5 680.8 672 662.5 654.3 645.9 637.1 628.4 619.1 610 598.6 579.6 563.6 567.8 576.9 584.1 590.4 597 605 611.4 618.4 611 626.6 637.7 644.7 650 653.5 656.1 657.4 652.4 647 638.8 629.7 623.3 618.6 613.7 607 601 595.8 590 581.2 564.3 540 515.6 497.7 485.1 475.1 463.5 455.1 445.4 438.3 430.6 416.1 389 369 339.6 318.2 300.6 283.2 269.3 256.1 244.3 238.1 238.1 238.1 238.1 238.1 238.1 238.1 238.1 238.1 238.1 238.1 238.1 238.1 238.1 238.1 238.1 238.1 241.6 264.3 282 304 329.9 374.1 403.3 413.8 424 430.1 422.1 417.2 413.4 411.6 408.1 410.7 413.7
150.8 151.1 152.9 152.9 159 151.6 150.9 162.7 181.4 200.7 223.8 254.9 295.9 336.5 366.2 397.7 436.3 455.3 467.2 455.3 466.9 476 480 501.1 509.6 515.7 522.9 540 543.6 545.4 548.5 544.6 550.9 548.9 535.3 541.7 555.5 545.1 521.4 494.2 452.7 402.7 359.5 322.6 298.9 271.8 254.7 245.9 240.8 242.5 244.1 246.1 248.4 252.7 266.1 279.8 293.5 305.7 334.8 361.8 383.8 391.9 422.9 446.5 466.8 484.4 503.1 519.7 533.1 536.4 540.5 528.3 496.1 457.5 419.7 382.7 348.6 319.7 291.5 267.1 255.5 266.8 280.7 291.9 300.5 311.9 331.4 351.5 371.6 389.5 409.6 433.6 460.1 487.3 521.2 559.9 599 635.8 671.8 694.5 700.9 700.9 699.4 695.3 689.7 682.2 673.7 663.9 656.4 647 637.7 627.6 618.2 607.5 591.3 570.9 569.1 576.7 585.8 592.3 601 608.5 617.8 624.8 631.2 624.9 639 646 652.4 657.5 660 661.7 660.2 656.2 650.3 641.9 632.8 627.7 622.4 617.1 609.7 604 596 589.1 573.4 538.6 514 487.3 468.4 456.6 444 432.2 428.1 423.3 411.5 402.3 386.2 371.3 344.3 321.8 304.4 287.5 272.1 259.2 246 238.1 238.1 238.1 238.1 238.1 238.1 238.1 238.1 238.1 238.1 238.1 238.1 238.1 238.1 238.1 238.1 238.1 238.1 259.1 280.9 307.3 333.7 345.5 382.7 414.8 421.4 428.8 429 424.9 414.5 416.5 408.9 411.3 412.5 407.9
151.3 151.4 151.2 151.3 154.2 152.3 151.7 154.5 175.3 196.4 216 247.8 289.2 339.8 375.8 398 426.6 448.4 459.3 437.9 446 444.7 483.7 501.8 515.8 521.6 540.2 553.9 551.9 548 545.7 546.5 546.7 544.3 541.9 550.1 554.2 541.8 513.7 477.2 436.1 393.3 354.2 322.7 297.8 274.3 254.2 244.4 240.8 242.3 243.6 245.2 246.7 253.3 268.2 287.5 306.4 321.1 342.3 353.8 396.6 409.9 424.1 445.3 465.1 479.6 497 512.2 524.3 532.8 535.5 519.9 492.7 456.8 421.1 386.3 354.8 322.6 293.7 269.4 258 267.5 279.3 289.7 300.3 312.7 333.4 353.6 378.1 396.4 414.7 437.1 462.7 490.4 520.2 553.9 593 633.5 673.1 695.7 701.9 701.6 701.3 697.2 690.7 682.9 674.5 664.8 656.9 647.6 638.3 627.2 617.9 603.6 585 570.6 575.9 586.2 594.3 602.7 611.1 620.6 630.1 638.2 641.8 642.7 646.3 651.6 657.9 662.4 664.5 664.1 662.8 658.3 652.7 644.7 635.8 632.2 625.8 619.2 611.9 604.9 596.4 586.8 554.3 521.2 494.2 470.6 450.2 435.1 418.7 406.8 400.5 395.9 386 377.5 362.6 347.6 327.3 306 290.4 275.1 259.2 242.6 238.1 238.1 238.1 238.1 238.1 238.1 238.1 238.1 238.1 238.1 238.1 238.1 238.1 238.1 238.1 238.1 238.1 238.1 253.5 274.9 298.6 324.5 361.9 371.2 395 417.3 424.9 418.1 422.4 416.1 410.8 410 408.1 405 402.9 405.8
151.8 151.7 151.9 152 151.8 151.9 151.6 152.7 165.9 185.9 208.8 242.2 280.1 330 376.1 400.9 418.9 441 438.7 414.5 413.8 440.8 477.5 499.3 512.6 528.5 565.6 550.2 555.5 545.5 552.5 535.8 532.6 533.5 536.6 541.5 546.5 533.9 512.9 475.3 430.5 390.8 355 321.8 297.2 274.5 255.9 242.7 241.2 241.8 243 244 247.2 255 272.5 294 315.7 333.8 361.2 385.6 396.9 405.5 429.2 446.7 464.6 478.9 494.9 510.2 518.7 526 525.5 511.7 488.6 453.7 421.3 388.8 358.5 323.7 293.9 271.6 260 266.4 275.1 288.1 300 314.1 337.7 358.3 379 397 417.9 443.9 471 502.3 533.6 563.7 596.9 639.4 681.6 698.7 704.6 703.1 702.5 698.2 690.9 682.6 673.5 665.7 656.9 647.5 638.6 627.5 614.5 596.9 582 577 584.8 596.2 603.9 612.7 623.7 633.2 641.2 648.6 651.2 651.1 653.5 656.8 662.2 665.3 668.1 667.4 664.5 660.4 654.6 646.8 640.4 635.2 629.9 622 613.6 607.1 594.8 581 543.9 507.9 482 458.9 437.2 417.6 402.9 389.2 379.2 372.2 366.3 354.4 342.6 325.5 309.2 292.5 278 257.9 245.8 238.1 238.1 238.1 238.1 238.1 238.1 238.1 238.1 238.1 238.1 238.1 238.1 238.1 238.1 238.1 238.1 238.1 238.1 252.8 275.3 301.8 335.9 344 383.4 391.8 407.6 418.7 418.6 411.4 409.1 402.8 408 405.2 403.4 401.5 400.1 401.4
152.3 152.3 152.7 152.9 153.1 152 153.3 151.7 159.6 176.1 202.9 237.5 276.3 315.7 371.5 392.8 409.1 418.5 412 397.1 394.8 434.5 470.6 497.4 510.3 525.8 544.9 551.3 546 544.5 548.9 542.6 523.9 521.2 523.1 526.7 536 532 503 474.7 426.6 386 348.8 317.4 291.4 271.2 251.6 242.8 241.9 242.1 242.3 243.6 246.5 257.3 276 301 320.7 349 377.1 405.4 431.3 420.5 433.6 449 463.7 479.3 495 507 516.2 521.3 521.3 510.6 486.4 450.8 420.1 388.9 360.4 324.9 296 271.8 262.3 264.9 274.7 284 297 318.3 337.8 361.5 386.1 405.5 424.6 455.4 485.7 516.9 555 590.2 617.8 654 684.4 702.2 707.2 705.5 703.6 698.9 690.6 683.1 673.9 665.6 656.6 647.5 636.9 624.3 609.4 598.1 582.4 583.5 595.1 605.3 612.1 625.3 635.7 644.7 652.6 656.8 658 658.1 661.6 664.2 667 669 670.3 669.4 666.3 660.2 654.8 649.3 643.7 638.5 632.2 624.3 615.6 606.7 595.1 575.4 540.7 503 475.2 446.3 426.5 408.5 389 374.7 362.6 354.6 345.2 335.7 323.4 308.4 294.3 281 261.2 246.4 238.1 238.1 238.1 238.1 238.1 238.1 238.1 238.1 238.1 238.1 238.1 238.1 238.1 238.1 238.1 238.1 238.1 238.1 249.9 268.3 298.2 329.4 364.2 380.3 402.4 402.9 408.7 404.2 403.2 399.5 400.3 401 406.6 408.2 402.5 399.7 396.4 400.3
153 153.1 152.9 153.4 152.4 152 151.5 151.3 152.4 171.8 197.8 233.6 268 314.3 351.6 380.1 396.5 393.4 385.8 359.3 391.6 428.6 463.2 491.4 504.1 516.8 536.6 543.8 548.4 551.6 541.2 533 523.4 506.6 509.9 515.2 525.6 524.3 499.2 466.4 420.5 381.1 344.2 310.4 284.3 267.1 250.9 245.7 242.4 243.1 243.2 248.5 250.5 265 284.2 308.6 332.4 364.3 394.5 423.7 444.3 438.7 434.8 451.6 464.6 480.8 493.2 505.2 513.8 518.4 519.5 508.4 484.2 447.6 417.7 390.2 359.3 323.7 297 272.9 264.2 269.1 278.8 290.6 304.7 321.2 343.5 369.9 393.9 418.3 440.8 470 497.1 528.8 564.2 600.6 630 659.5 688 703.5 708.1 707.5 705 699.2 690.9 683.5 674.3 666.3 655.7 646 634.1 619.6 609.5 599.7 584.9 593.6 600.2 613.4 623.7 636.9 646.1 654 659.6 663.8 665.6 667.2 669.6 670.8 671.9 672.9 672.7 671.3 667.2 659.7 655.6 651.8 646.1 640.4 632.9 624.9 615.3 605.4 588.4 561.6 530.4 495.9 472.1 436.3 416.3 401.4 377.4 358 350.2 338.1 330.3 320.1 305.7 294.2 281 266.1 249.1 238.1 238.1 238.1 238.1 238.1 238.1 238.1 238.1 238.1 238.1 238.1 238.1 238.1 238.1 238.1 238.1 238.1 238.1 255 272 290.6 317.3 349.4 391.4 401.8 403.1 406.1 404.9 403.1 400.8 399.2 399 400.1 402.1 406.1 407.5 402.5 395.2 394.5
153.7 154 153.6 153.1 152.7 152.2 151.6 151.4 151.7 164.6 193.2 218.6 254.6 294.5 328.4 357.2 367.4 358.2 349.1 350.3 386.1 422.2 458.6 485.3 503.5 521 524.5 536.4 557.4 550 526.6 524.2 506.4 498.3 499.1 506.5 514.1 512.2 495.1 463.5 418.3 377 341.9 310.1 286.4 267 256.8 247.8 244.1 244.1 246.1 253 258.8 277.5 295.1 320.3 355.3 385 413.4 439.9 453.5 450.8 454.2 458.9 465.9 480.8 494.6 504 509.1 515.5 518.8 507 485.3 444.9 415.9 385.9 354.2 323.1 297.1 274.5 267.1 274.7 283.3 295.3 311 327.2 348.4 374.8 401.4 425.6 451.9 480.4 508 541.3 577.8 609.2 633 660.3 686.7 701.7 709.4 708.7 705.9 699 692 682.9 673.4 664.6 654.2 641.9 624.2 605.3 599.4 602.2 606.1 613.9 614.4 622.7 635.2 647.5 653.5 660.7 666.1 671 672.8 674.5 675.8 676.5 675.3 673.7 672.8 670 665.8 660.8 656.2 652 647.8 641.8 633.1 624.5 614.1 601.6 574.3 541.1 512.7 488.5 464.2 432 408.9 386 363.5 349.7 335.2 326.2 316.2 304.2 293.7 280.5 267.3 251.6 238.1 238.1 238.1 238.1 238.1 238.1 238.1 238.1 238.1 238.1 238.1 238.1 238.1 238.1 238.1 238.1 238.1 245.4 256.9 274.7 290.2 310.6 337.8 370.1 394.8 401.2 408 409.6 413.8 409.8 401.6 398.6 399.4 400.6 402.4 403.3 404.9 396.8 395 393.3
154.4 154.5 153.7 153.5 153 152.4 151.8 151.6 151.8 153.9 181.1 209.5 238.3 272.2 301.2 321.7 325.2 323.3 315.7 354.9 385.5 419.2 454.3 482.8 508.4 511 518.7 528.6 540.7 531.1 514.6 502.4 496.2 487 489 496.9 499.6 507.8 493.5 462.8 416.6 378.3 343.2 311.9 287.5 270.6 259.7 252 246 245.7 247.9 254.5 269.4 288.3 311 338.3 373.1 402.6 430.7 454.7 458.4 457.8 452.5 464 470.3 482.3 494.7 502.1 506.7 512.4 514.6 510.7 485.6 445.5 413.7 380.6 351.2 321.2 297.1 277.3 268.6 280.6 289.7 301.6 315.8 332 352.5 380.9 407.5 433.5 460.5 489.8 520 551.5 585.2 610.6 634.5 663.6 687.7 699.9 711.9 709.8 704.9 699.6 691.2 683.4 672.9 663.2 650.9 631.4 610.6 622.4 626.7 628.2 630.6 633.1 632.9 631 645.9 654.7 661.8 668.3 673.9 676.4 677.9 679.3 678.9 677.5 675.7 673.6 671.7 668.6 664.5 660.6 656.2 652.6 649.5 644.9 637.8 627 611.5 593.6 557.8 529.6 501.9 475.6 451.4 427.2 402.7 376.6 352.9 336.5 325.1 311.5 298.7 288.9 277.9 262.2 248.6 238.1 238.1 238.1 238.1 238.1 238.1 238.1 238.1 238.1 238.1 238.1 238.1 238.1 238.1 238.1 238.1 238.1 248.3 257.9 275.1 293.2 314.4 338.6 385.5 395.7 401.6 406.1 414.4 414.1 413.1 411.1 408.3 401.7 403 405 406.1 400.8 398.9 394 391.7 393.8
155.2 155.2 154.7 154.2 152.9 152.4 151.9 152 152.2 152.4 168.4 196.7 222.3 250.7 272.3 284.3 287.8 284.9 324.7 355.4 386.1 418.5 451.7 482 506 507.6 513.4 513.5 510.3 505.2 498.5 488.5 478 476 477.1 485.9 494.1 497.3 492.9 467.6 422 385.7 352.7 317.5 290.4 273.4 258.8 251 247.6 247.9 251.2 265.4 283 303.5 327.5 356.4 388.4 418.7 451.6 464.2 465 463.3 457.3 466.1 474.6 484.5 496.4 502.7 508 512.7 514.3 513.1 479.2 441.1 411.2 377.2 347.2 319.1 297.7 277 271.8 283.8 294.8 306.1 319.7 335.4 358.4 384.7 412.6 441.1 468.3 499.8 533.4 562.6 588.5 611.4 637.8 662.2 683.7 702.1 712.6 710.8 706 699 690.6 682.3 670.9 660 642.3 615.3 630 640.6 643 645.9 647.2 648 647.7 639.1 654.2 663.3 669.3 674 678.5 681.4 682.3 681.8 680 678 674.6 672.2 669.6 666.4 662.8 659.2 655.8 652.2 650.1 645 637.7 627.6 609.1 591.1 561.1 529.2 500.9 468.9 446.2 422.7 394.9 366.2 343.9 327.4 311.6 299.2 287.8 274.1 256.5 248.4 238.1 238.1 238.1 238.1 238.1 238.1 238.1 238.1 238.1 238.1 238.1 238.1 238.1 238.1 238.1 238.1 238.1 250.5 263.8 280.2 298.7 313.8 344.8 383.3 398.4 402.9 408.4 414.2 420.1 422 420.6 414.8 406.3 398.3 398.4 406.3 403.8 397.9 389 385.6 386 394.9
156 155.8 154.8 154.3 153 152.5 152 151.8 152.2 152.6 164.4 187.1 208 228.8 245 244.3 267.3 302.3 331.1 359.4 387 420.8 450.5 479.6 503.3 497.9 505.2 501.3 496.7 492 485.1 474.6 474.2 473.1 474.5 482.4 492.3 489.1 482.3 466.5 432.5 390.2 351.3 319.6 293.9 276.2 262.6 252.3 249.6 251.1 257.7 275.4 294.3 317.2 345.7 376.2 406.6 438.4 466.7 476.4 473.8 469.3 466.1 467.7 475.9 488.5 498.2 505.6 511.1 514.3 515.2 508.5 478.3 441.8 406.7 373.3 343.6 318.6 297.4 277.4 277.4 289.2 301.6 312.4 325.7 341.8 363.8 391 419 450.5 476 509.5 541.7 557.8 585 613.3 633.3 652.7 680.2 707.4 714.6 709.8 705.4 696.6 688.2 679.3 668.4 656.1 630.9 632.4 646.8 652.7 656.8 661 662.3 662.9 661.7 656.3 665.8 671.4 675.1 679.7 682.4 683.6 684.2 683.6 680.9 677.1 671.9 667.8 665.2 661.6 659.3 657.1 654.7 653 648.2 643.3 636.1 623.2 604.6 585.3 558.1 531.6 495.2 461.5 442.6 416.5 386 359 337.2 319.9 304.7 287.3 273.6 259.9 244.1 238.1 238.1 238.1 238.1 238.1 238.1 238.1 238.1 238.1 238.1 238.1 238.1 238.1 238.1 238.1 238.1 238.1 245.4 259.6 279.2 305.8 330 358.1 377.5 394.2 404.7 414.1 410.1 416.5 419.8 415.5 416.1 411.2 403.3 397.1 395.1 394 393.3 389.3 383.1 382.4 379.6 382.2
156.6 156 155 154.6 153.6 153 152.2 152.2 152.5 156.8 170.1 182.9 201.5 208.9 223.9 250.1 275.6 301.9 330.6 358.5 388 423.2 450 475.6 489.2 492.4 497.1 496.2 493.4 482 477.3 485.9 473.1 473.1 473.1 473.6 484.2 491.8 484.9 467.6 438.8 393.1 355.1 325.5 299.9 281.8 266.8 256.4 253.7 258 267.3 283.6 304.2 331.4 360.8 390.4 424.1 458.7 487 490.7 483.9 476.8 471.9 466.9 476.4 489.1 499.9 507.5 512.3 516 516.1 505.1 471.9 440.7 402.7 369.1 341.3 316 294.8 279.6 282.6 291.1 305.1 319.8 334.1 349.7 371.4 399.5 429 456.7 483.4 514.3 538.7 569.3 596.4 612 631.3 653.4 683.5 712.5 715.4 708.5 702.6 693.1 685.4 674.1 664.3 651.1 628 644.7 658 665.4 671.1 674 674.5 676.4 676 674.2 676.7 680.3 682.3 684.5 685.6 685.6 684.6 683.4 678.6 671.9 664.8 662.8 659.9 656.2 654.4 653 651.4 649.6 646.5 639.5 630.1 619.5 600.5 580.4 558.5 524.2 495.5 466.8 441.7 411.8 387.9 355.8 331.1 315.6 292.6 277.3 265.8 249.1 238.3 238.1 238.1 238.1 238.1 238.1 238.1 238.1 238.1 238.1 238.1 238.1 238.1 238.1 238.1 238.1 238.1 246.5 266.2 282.2 311.2 339.9 366.9 385.1 394.6 404 412 420.3 414.5 418.4 421.6 411.8 406.5 401.7 397.3 391.7 387.5 386.7 383 378.8 378.4 378.2 373.6 371.4
157.5 157.4 156.3 155.4 154.1 153.7 152.6 152.7 152.4 162.6 169.6 178.9 187.6 196.5 215.3 232.3 265.2 295.7 326.9 351.4 385 422 451.4 472.4 484.1 488.4 487.9 485.5 479.5 475.4 474.3 473.1 473.1 473.1 473.1 473.1 474.4 492 492.7 472.3 447.4 408 366.8 336.6 310.8 289.7 271.4 262.1 263.4 271.1 278.6 295.6 314.7 346.8 376.3 407 442.9 473.7 504.4 502.1 491.3 483 479.3 473.3 478.7 491.3 502.7 509.5 513.7 516.5 515.9 501.1 468.1 433.5 398.1 366.6 338.8 313.2 294.3 282.6 285.3 293.1 308.2 323.4 338.6 355.4 373.7 401.1 435.8 465.2 492.4 519 546.4 570.6 590.7 606.6 630 656.4 688.8 714.5 714.6 706.8 699.7 689.7 681.7 669.7 658.2 645.2 637.1 651.2 665 674.2 681.4 686.2 688 688.3 686.8 686.4 687.2 688.2 689.2 690.2 688.1 685.5 683.7 679.6 670.5 661.4 656.3 652.1 646.5 645 644.2 643.5 642.3 642 638 631.2 625.5 612 595.6 577.7 560.7 526.2 497.7 473.1 443.9 420.8 386.3 351.5 328.2 309.4 286.5 268.5 256.1 243.3 238.1 238.1 238.1 238.1 238.1 238.1 238.1 238.1 238.1 238.1 238.1 238.1 238.1 238.1 238.1 238.1 238.1 262.5 280.4 303.2 327.9 353.4 375.4 387.7 395.9 402.7 410.8 419.1 423.3 425 419.7 411 405.8 404.2 398.8 393 389.8 386.9 381.6 372.6 371.6 369.6 365 362.7
159 158.3 156.7 155.6 154.8 154.1 152.5 153.1 156 158.2 164.9 169.5 176.7 190.1 207.6 233.4 262.9 292.7 325 354.7 388.3 422.7 454.7 473.9 482.4 479.7 477.1 472.3 468.6 476.5 476.2 481 479.7 473.1 473.1 473.1 474 491.5 493.9 479.9 466.1 422.9 384.3 352.4 328.9 304 285 272.3 271.9 279.9 290 309.8 332.9 362.3 397 434.6 465.9 493 520.1 521.6 508.8 496.2 484.4 479.9 481.2 492 504.6 512.2 515.8 519.4 513.9 494.1 459 425.6 392.8 363.1 335.1 310.5 296.1 289.3 289.8 299.8 311.4 328.6 347 365.6 388.7 415.9 448 470 483.7 506.4 527.4 549.4 572.6 599.7 626.7 657.2 692.2 714 711.9 704.4 697.4 688 677 663.9 653.9 640.5 641.3 656.4 673.3 683.4 691.8 696.7 698.9 698.6 696.3 696.7 696.3 695.5 694.6 692.3 687.5 677.7 661.1 654.2 649.9 640.1 632 627.5 623.7 624.1 624.2 623.2 624.1 622.7 621.2 616.2 613.4 601.7 588.5 575.9 561.9 530.4 498.3 478.2 447.7 415.8 382.5 350.2 325.7 300.2 277.2 259.8 245.6 238.1 238.1 238.1 238.1 238.1 238.1 238.1 238.1 238.1 238.1 238.1 238.1 238.1 238.1 238.1 238.1 238.1 249.7 273.8 299 319.4 347.9 385.2 399.3 398.1 403.4 404.5 414.1 421.4 425 423.9 420.8 414 404.9 397.6 394.4 393.4 390.4 392.1 383.5 367.4 370.3 368.1 361.3 353.7
159.9 158.5 156.8 156 155.1 153.8 152.7 152.8 152.7 156.8 159.2 163 167.1 177.8 199 224.4 252 281.7 313.6 347.6 388.2 422.6 448.8 468.9 469.2 467.2 468.1 464.3 474.9 479.3 479.7 476.5 474 473.1 473.1 473.1 476.9 493.8 500.7 499.3 474.1 433.6 394.5 364.2 336.8 314.4 297.2 286.1 284 293.1 305.7 323.8 348.1 375.7 410.1 454.2 489 515.9 537.9 539.9 521.5 506.1 490.5 483.7 485.8 496 508.2 514.4 519.9 520.3 515.8 492.3 454.9 421 389.4 360.1 333.1 311 297.6 292.3 294.8 308 319 336.4 353.3 372.9 397.9 426.2 454.5 482.1 499.8 520.1 542 567.2 590.3 613 637.3 669.6 697.5 712.9 709.5 702.6 694 683.1 671.6 664.5 664.7 659.1 642.1 658.9 679 690.8 699.5 706.3 708.5 706.8 706.7 704.8 703.9 701.3 680.4 664.7 650.8 634.7 622.3 615.9 613.4 606.6 600.9 597.6 597.6 599 599 601.1 602.5 602 601.7 598.8 593.4 584.2 578.8 566 555.9 528.4 499.8 473.6 449.2 412.5 391 350.9 315.3 291.2 268 252.5 238.1 238.1 238.1 238.1 238.1 238.1 238.1 238.1 238.1 238.1 238.1 238.1 238.1 238.1 238.1 238.1 238.1 249.5 270.3 297.2 325.9 341.9 369.4 398.9 408.3 406.4 406.9 408.6 416.9 424.5 429.7 430.4 422.1 408.8 399.7 397.9 393.6 394.5 392.5 386.7 376.5 360.5 362.3 359.1 352.3 349.4
162 158 157.2 155.7 154.9 153.6 152.9 152.9 152.7 155 158.4 160.7 162.9 169.4 189.7 212.3 241.2 278.3 326.3 356.5 391.3 418.6 441 447.2 446.4 446.4 449.2 462.5 480 504 494.4 487.8 473.1 473.1 473.1 473.1 473.3 494.2 511.2 516.5 495.3 447.9 411 378.9 348 327.3 312.5 301.4 297 312.5 325.1 341.4 365.4 393 421.7 460.1 501.1 530.7 563 552.2 529.2 509.9 497.9 486.7 489.7 500.1 509.9 512.1 519.9 523.9 518.6 485.1 452.2 418.7 386.7 356.4 330 311.8 300.2 294.2 301.5 312.4 328.6 340.3 359.8 382.3 408.5 436.6 465.5 490 501.3 525.4 550.3 576.6 599.7 621 647.4 681.7 711.4 715.4 709.3 704.1 696.3 679.3 679.1 681.7 678.6 670.3 651.4 658.3 681.9 693.9 703.8 710.9 715.1 715.3 713.7 711.8 710.1 687 649.5 625 610.1 594.6 583.8 572 571.8 569.4 569.2 570.1 571 572.2 572.9 574.5 576.4 575 574.3 574.3 570.8 566.3 554.6 546.8 545.5 527.7 503.4 473.4 446 414.4 388 341.5 307.9 281.1 261.6 246.4 238.1 238.1 238.1 238.1 238.1 238.1 238.1 238.1 238.1 238.1 238.1 238.1 238.1 238.1 238.1 238.1 238.1 255.3 287.4 324.9 358 373.2 389.5 404.4 399.8 406.5 406.1 413.2 414.3 419.8 425.1 417.9 408 402.7 398 392.5 393.6 393.6 389.1 379 374.4 364.1 349.5 347.7 346.2 341.5
164.8 158 156.8 155.8 154.6 154 153.3 153.3 152.7 154.9 156.4 158 159.5 166.6 185.5 210.7 239.5 271.4 309.8 350.3 386.5 419.5 427.8 417.5 430.9 446 453.3 468.4 481.6 494.8 500.9 497.6 477.6 474.6 473.1 473.1 478.8 496 512.5 521.6 519.3 463.4 426.1 394.4 364.6 343.9 330.7 320.5 320.4 329.7 351.2 365.4 383.8 411.8 443.7 479.8 513.6 553.5 582.3 571.2 542.1 524.7 504 494.9 498.5 503.8 511.6 521.9 525.2 526.7 518.7 483.3 453.7 418.7 383.8 354.3 329.2 312.6 301.1 300.5 309.5 318.2 336.1 349.6 362.9 386.4 413.3 442.6 472 487.9 505.4 531.3 557.2 586.6 613.1 634.6 664.6 695.5 718.3 721.8 714.8 708.4 697.1 690 694.1 691.9 686.8 677.7 658.4 661.9 683.7 698 707.1 713.9 718.7 720.7 719.7 717.3 712.3 675.1 626.3 598.8 581.5 566.9 548.3 538.7 533.7 534.5 537.9 542.7 545.5 546.7 547.9 547 549 548.3 549.3 551.7 550.3 543.9 533.4 529.2 529.5 516.4 495.8 472.3 441.1 406.5 370.8 331.9 298.2 270.5 250.1 238.9 238.1 238.1 238.1 238.1 238.1 238.1 238.1 238.1 238.1 238.1 238.1 238.1 238.1 238.1 238.1 238.1 243.2 266.4 308.7 345.4 362 372.2 385.4 394.7 401.6 403.7 403.8 405.2 406.7 412.2 412.5 407 403.1 397.8 392.1 390.2 388.9 386 378.5 372.4 367.8 359.4 349.2 344 342.1 339.8
167.3 159.1 156.3 158.8 158.4 154 153.5 153.1 153.4 153.7 154.4 155.9 158.2 167.7 185.7 209.2 236.3 267.4 308.9 353 395.7 421.3 399.2 422.2 436.3 447.9 459.4 481.9 483.6 491.3 504.5 500.2 488.4 477.4 473.5 473.1 484.5 494.6 509.2 525.6 531 507.9 446.8 412.5 384.9 364.8 352.2 340.7 340 347.2 368.3 386.6 404.8 430.5 464 504.9 539 564.1 593.4 583.7 557.6 535.3 511.5 506 508.4 511.3 520.8 528.1 529 531.7 511.6 478.6 449.7 416.6 379.5 352.8 332.4 316.9 304.1 307.5 312.5 326.2 342 359.3 375 391.8 413.6 449.1 467.7 489 511.3 534.5 565.4 594.9 622.6 649.2 681.1 711.7 724.8 725.1 719.7 714.5 710.8 706 704.1 700.3 694.1 683.5 666.1 665.4 686.1 700.5 711.2 718.2 721.3 722.1 721.8 718.4 710 665.6 619.9 586.9 562.2 541.3 523 508.4 502.3 504.9 512.3 518.7 523.1 525.5 526.2 525.7 524.6 524.5 524.3 526.1 526.5 525.5 515.6 510.9 510.4 504.6 481.6 465.8 430.1 396.5 357.9 321.2 287.7 259.9 242.3 238.1 238.1 238.1 238.1 238.1 238.1 238.1 238.1 238.1 238.1 238.1 238.1 238.1 238.1 238.1 238.1 238.1 253.9 284.6 322.4 350.3 367.1 378.5 385.8 394.9 400.7 403.1 404.3 409.9 406.5 405.6 399.7 397.7 395.5 396.2 389.2 388.4 383.8 380 373.1 367.6 360.3 352.7 344.4 341.9 337.5 335.7
177.9 172.1 158.5 157.9 161.1 153.6 153.5 153.3 153.3 154.2 154.6 155.5 157.8 162.1 181.1 204.7 235 268.5 320.1 365 402.2 389.5 403.8 426.4 440 449.6 458.4 472.8 484.2 496.5 498.7 499.5 487.7 478.2 475.5 477.3 488.9 498.9 508.5 522.4 528.2 520.1 475.5 441.3 412.2 392.1 374.4 361.8 363 363.9 385 406.8 424.7 450.6 486 529 557.5 579.6 601.7 593.8 568 543.4 525.8 517.8 516.5 523.3 528.6 529.8 533.7 535.3 509.8 477.5 450.6 413.7 379.4 350 331.7 315.9 309.1 313.1 317.5 329.3 348.6 366.9 383.2 405.4 432.5 447.6 471.3 494.8 514.9 537.5 569 601.4 633.2 663.3 694.1 727.1 735.5 731.3 727.2 723 718.8 715.9 711.4 706.5 699.4 689.4 672.2 670.8 689.8 704.3 714.8 721.2 723.9 725.2 725.1 722.1 700.8 671.8 624.1 585 548.6 524.4 506.3 493 486.9 487.2 490.4 496.3 499.6 503.5 505.7 503.4 502.9 501.4 500.5 497.9 498.5 499.2 498.4 494.8 492.2 487.4 464 443.1 421.6 383.2 343.7 310.8 284.5 255.1 238.1 238.1 238.1 238.1 238.1 238.1 238.1 238.1 238.1 238.1 238.1 238.1 238.1 238.1 238.1 238.1 238.1 238.6 265.7 296.6 320.5 347.6 366 378.9 389.3 399.4 409.8 408.2 414.5 414.7 412.7 410.9 400.3 394.2 392.3 390 388.3 385.7 381.1 380.7 370.2 358.6 353 345.6 342.6 340 338 336.4
200.1 184.7 175.4 163.6 157.3 153.7 153.8 153.5 153.3 154.1 155.1 155.7 157.8 162.3 176.8 202.1 231.5 264.3 303.7 339.8 367.2 364.6 406.9 433.6 448.1 460.1 465 474.5 480 489.8 498.9 499.3 492 484.5 480.3 478.6 492 497.3 507 519.8 524.9 531.9 526.9 487.9 445.4 421 397.7 387.8 392.1 392.9 402 421.5 441.4 469.6 506.6 543.8 568.7 589.7 608.5 612 581.7 553 535.7 533.8 532.3 532.2 538.8 544.1 547.6 544 510.2 480.9 450.7 410.9 374 349.3 330 324 314.7 320.6 326.1 335.7 351.1 373.3 395.2 419 442.8 461.5 480 493.9 519 543.8 574.8 605.7 639.4 674 703.7 732 741.3 739.4 733.7 729.7 727.4 722.1 716.3 709.5 700.5 689.6 675.7 676.6 694.1 707.2 718.4 725.8 729.3 729.4 729 726.7 723.2 682.1 625.3 575 543.8 517.3 493.3 483.1 476.9 474.7 475.7 479 480.6 483.8 486.5 483.2 482.7 481.3 479.7 478.7 476.9 479.2 482.6 482.2 479.3 467.8 449.9 431.5 404.3 371.1 329.2 301 277.6 256.2 238.1 238.1 238.1 238.1 238.1 238.1 238.1 238.1 238.1 238.1 238.1 238.1 238.1 238.1 238.1 238.1 238.1 253 278.3 303.7 323.2 344.1 360.2 376.2 392.1 404.2 414.4 411.8 415.9 417.8 413.1 404.9 395.5 393.2 392.2 394.7 396.5 388.4 384.2 378.2 366.7 356.9 350.3 345.1 344.3 342.6 342.3 343.4
205.9 193.5 181.9 166.6 160.9 154.4 154.2 153.8 153.4 153.6 154 155.6 157.6 168.3 184.3 202.1 219 248.2 285.8 302.2 322 358.5 399.2 438 456.3 464.7 462.9 469.2 477.4 485.9 492.1 497.7 501.8 495.3 489.6 488.5 495.3 494.6 506.3 519 525.5 534.4 547 544.5 483 448.9 422 417.8 418 417.6 423.4 441 461.6 488.8 523.6 554.2 577.4 598.1 612.5 619.8 592.1 572.2 554.2 548.4 546.4 549.2 554.3 566.5 565.3 544.2 508.8 479.6 450.4 409.5 374.9 353.1 341 332.6 326.2 329 336.2 345.2 363.4 381.6 406.7 430.2 452.8 470.1 486.4 505.9 527.6 544.5 583.5 618 650.3 682 714.3 747.1 748 744 740 735 731.5 725.9 718.4 709 695.5 678.8 673.7 688.4 704.6 715.4 725.3 730.8 732.4 732.7 732 728.4 717.9 670.8 620.5 565.9 537.8 507.6 484.2 467.9 463.5 462.7 464.2 466.2 463.3 467.5 469.5 467.7 465.7 464.5 463.1 461.3 462 461.7 464.3 462.4 466.4 453.4 444 424 392.5 358.7 318.4 289.1 268.3 248.1 238.1 238.1 238.1 238.1 238.1 238.1 238.1 238.1 238.1 238.1 238.1 238.1 238.1 238.1 238.1 241.8 250.3 265.6 288.6 306.8 329.4 349.2 363.4 381.4 397.5 411.3 420.2 416.8 417.9 426.4 411.3 404.8 394 391.7 390.1 392.6 388 386.7 381 371.2 357.3 357.6 357.1 356.1 358.1 359 358.1 357.2
213.9 205.4 188 173.8 164.6 154.3 154 153.7 153.6 153.9 153.7 154.4 167.1 172.1 184.7 204.5 226.9 253.2 293.6 324.2 347.2 372.8 402.9 446.6 461.3 460 461.1 466.3 472.8 482.8 489.1 495.2 496.5 495.2 494.8 496.9 502.9 499.1 506.6 519 525.8 533 553.4 559.8 547 485.5 453 446.4 446.6 444.6 446 463.2 481.7 509.7 539.3 564.1 585.6 602.8 618.2 621.4 608.8 592.8 572.9 568.7 562.8 572.1 580.3 584.2 581.4 545.6 510.1 479.4 445.9 407.8 376.2 361.4 351.1 343.7 341.2 336.4 345.3 352.2 371.3 391.9 417 441 461 475 492.2 515.8 538.9 563.9 590.2 611.9 653.7 688.8 720.6 751.9 754.2 749.2 744.9 740.5 733.9 725.6 717.1 702.2 687.1 684.5 688.1 701.5 715.4 725.3 731.8 733.9 736 734.9 733.5 730.3 710.9 659.3 615.6 560.8 536.3 498.9 475.2 457.2 449.9 448.8 449.4 450.6 452.7 453.1 455.5 453.5 451.3 450 448.4 447.9 448.5 446.3 449.1 446.4 446.2 442.8 436.7 419.1 376.2 340.9 305.2 273.3 251.8 238.1 238.1 238.1 238.1 238.1 238.1 238.1 238.1 238.1 238.1 238.1 238.1 238.1 238.1 238.1 238.1 251.1 264 276.8 291 310.8 331.9 351.5 363.8 379.7 393.6 408.7 418.4 414.8 419.3 422.3 412.9 401.5 393.5 391.3 389.3 388.9 386.4 386.4 377.7 370.3 367.9 368.5 367.7 367.5 370.7 374.1 373 369.4
215.3 207.3 190.5 174.6 164.6 154.7 154.3 153.9 153.9 154 153.9 154.1 163.1 172.6 185.7 203.5 228 256.6 290.5 333 367.6 392.1 427 447.1 454.6 452 454.3 460.1 467.7 482 487.5 495.2 501 502.7 497.2 497.2 499.6 503.1 506.5 516.8 528.4 533.7 541.7 562.8 558.5 522.1 485.8 473.2 476.2 472.4 470.9 482.8 500.8 522.1 549.2 573.1 588.4 606.7 623.1 626.7 627.7 613 601.8 602.4 592.3 599.7 615.4 616.5 584.8 553.9 516 478.5 442.9 407 381 369.9 358.7 348.9 350.7 352.5 354.6 361.1 379.9 402.9 428.1 450.4 461.6 480.1 499.6 526 550.8 581.4 613.9 636.7 649.1 683.9 722.4 751.6 755.6 751.5 747.2 742.2 736.1 726.7 711.9 697 687 697.9 702.3 715.4 724.3 733.3 737.6 738.9 739.1 737.6 734.1 730.2 712 654.6 598.7 551.6 524 487.2 461.5 444 432.2 432.9 433.4 435.8 437.6 441.8 441 441.1 438.9 435.5 433.9 436 435.7 434 433 431.8 429 428.4 419.6 407.2 364.1 329.4 293 260.8 238.1 238.1 238.1 238.1 238.1 238.1 238.1 238.1 238.1 238.1 238.1 238.1 238.1 238.1 238.1 238.1 254.2 264 276.4 290.4 310.8 315.7 335.1 352.4 365 377.8 389.6 401.4 407.1 413.3 425.2 426.1 412.2 400.9 394.5 391.6 392.5 389.4 387.4 381.1 373.6 375.4 377.3 376 378 381.5 382.8 384 383.1 380.6
222 208.1 196.8 178.9 165.7 155.1 154.5 153.9 154 154.3 154.2 154.3 159.2 171.8 184.6 202.8 230.3 260.1 292.6 346.3 386.5 418.2 435.4 446.7 450.5 451.9 453.3 460.5 469.6 482.3 490.8 501.7 510.1 523.2 512.3 506.5 515.9 512.4 513.6 513.7 523.9 528.2 540.1 553.4 555.4 535.5 510.5 500.4 502.4 498.3 498.4 508.1 528.6 541.4 562.4 578.4 593.2 606.1 618.5 631.3 640.6 637.8 627.4 623.2 622 629.5 642.5 625 592.7 556.1 514.4 476.5 441.8 411.2 388.1 376.2 364.1 357.7 359.5 361.9 362.1 375.7 390.3 412.6 436.9 453.9 469.7 488.2 510.4 536.6 561.3 593.4 628.4 661.9 685.8 694.8 722.8 749 756.6 754.3 751 744.7 738.9 731.5 719.1 702.3 702.8 712.8 722 727.7 735.1 740.2 742.4 743.2 742.1 739.1 734.5 728.3 696.5 646 593.6 549.4 505.6 475.4 450.2 433.8 424 419.1 418.6 420.1 422.3 425.2 426.3 429.7 429.2 427.8 426.1 425.8 425.1 424.5 423.1 422.6 415.3 411.3 407.8 390.7 344.9 309.3 277 250 238.1 238.1 238.1 238.1 238.1 238.1 238.1 238.1 238.1 238.1 238.1 238.1 238.1 238.1 238.1 245 264.9 274.4 295.2 302.4 315.4 325.4 340.2 356.1 369.1 379.1 392.7 399.7 404.9 412.2 422 423.1 410.2 397.7 393.1 393 393.2 390.3 390.4 383.3 377.1 379.8 384.7 385.9 389.8 392.6 393 394.8 393.2 393.3
232.5 212.4 200.9 184.6 168.9 155.3 154.6 153.9 154.5 154.5 154.4 155.1 162.8 172.7 183.5 203.8 230.6 265.3 297.2 344.6 386.3 443.8 447.9 447.1 447.3 452.8 455.3 460.5 468.6 487.2 500 515.1 518.4 529.4 528.5 527.4 537.9 531.6 519.7 521.1 526.3 537 548.3 548.6 555.5 531.4 518.2 515.7 515.8 519.6 522.2 533.1 551.7 557.4 574.5 592.8 599.1 609.2 613 625.3 644.8 648.4 645.9 649.7 646 656.9 664.9 632 596.7 552.5 513.1 475.8 445.8 418.4 395.4 383.9 370.5 366.6 367.2 371.3 368.3 385.1 400 419.8 442.9 460.8 479.3 497.8 518.6 545 573.3 603.2 640.9 678.2 711.5 734.7 737.8 757.2 760.7 759 754.4 748.4 741 732.4 718 706.6 719.2 728.3 734.9 739.5 742.6 745.2 748.4 748.9 745.4 740.5 733.9 725.8 703.6 655.6 601.3 547.9 507.9 471.5 443.5 428.3 418.8 411 408.3 409.3 410.7 410.4 412.4 416.7 420.6 418 416.9 415.9 414.8 415.3 413.3 413.1 404.3 396.4 396.5 382 333 291.6 260.7 238.1 238.1 238.1 238.1 238.1 238.1 238.1 238.1 238.1 238.1 238.1 238.1 238.1 238.1 238.1 238.1 257.6 271.1 292.9 312.2 314.7 321.9 331.3 345.1 359.4 372.2 383 396.7 402.1 405.4 412.2 426.1 415.9 404.8 394.9 394.3 394.1 392.9 390.3 387.7 384.1 386.3 388.9 394.5 394.2 397.2 400.4 402.6 406.2 406.5 404.5
244 221.5 204.8 191 171.1 154.8 155.1 154.6 154.5 154 155.2 160.1 159.7 168.8 182.6 203.9 230.5 267.1 306.2 355.6 396.3 439.2 446.5 445.2 444.6 454.5 469.2 467.1 470.3 490.9 510.9 526 536.3 532.3 534.2 540.9 549.2 547.9 543.2 533 531.1 534.8 541.3 543.6 553.8 550.8 532 523.9 525.6 531.4 538.3 549.6 567.8 571.8 586.3 600.6 607.7 605.2 607.8 617 635.3 651.4 661.8 668.6 674.7 682.4 674 638.6 592.7 555.2 517.7 480.7 448 425.4 403.7 392.1 382.8 375.2 375.1 381.9 390.5 393 409.2 431.1 450.7 470.1 490.3 507.1 531.1 555.1 580.6 615.5 650.6 684.5 718.2 751.1 770.1 767.9 766 762.8 759.2 753.7 745.2 729.7 717.2 722.7 733.8 739.8 744 746.3 749 753 754.6 753.2 748.5 741.4 732.8 723.3 708.7 660.5 607.4 561.8 526.4 479.1 446 425.8 417.1 411 407.4 398.5 397.4 398 399.6 402 407.9 407.2 406.8 404.8 405.3 404.2 403.7 403.1 396 388.1 377.3 355.7 319.5 280.5 247.9 238.1 238.1 238.1 238.1 238.1 238.1 238.1 238.1 238.1 238.1 238.1 238.1 238.1 238.1 238.1 246 263.1 281.7 313 322.7 324.9 336.5 340 353.3 365.4 381.3 385.4 397.9 398.7 407.3 413.4 419.9 409.5 402.9 397.1 395.7 394.7 393.1 394.7 392.5 395.9 402.1 402.4 403.8 404.5 404.3 410 414.3 414.2 416.1 415.2
255.2 232.8 208.7 191.5 170.9 155.6 155.1 155.2 154.8 155 158.3 163.4 162 169.2 180.6 201.3 227 259.9 303 352.2 395 427.4 431.7 446.9 445.9 449.4 465.5 471.7 474 494.3 512.1 532.1 546.4 549.4 547.2 549.3 552.1 559.7 550.4 538.9 540.6 538.4 535 535.3 541.6 556.5 557.3 553.9 553.4 543.4 556.4 571.6 579.8 576.3 590.2 598.6 603.3 594.9 602.9 612.4 629.7 650.8 663 679.4 692.1 690.9 677 631.1 590.5 554.7 518.7 481.1 455.1 430.9 412.1 401 391.9 387.4 387.8 392.5 404.8 400.3 418.5 439.1 459.3 478.7 497.9 515 536.8 560.5 590.2 624.5 660.4 693.6 726.5 760.5 776.4 776.2 771.9 767.3 761.9 756.8 749.3 735.4 733.2 738.1 743 746.6 748.2 749.1 752.1 754.1 755.5 753.4 748.1 740.4 730.5 720.5 708.5 671 620.1 575.7 532.5 494.9 457.9 430.7 417.6 410.8 403.6 395.9 385.4 383.8 387.8 391.3 394 395.3 393.7 391.3 392.8 393.5 390 388.1 387.1 382.4 366.1 326.3 309.2 277.4 238.1 238.1 238.1 238.1 238.1 238.1 238.1 238.1 238.1 238.1 238.1 238.1 238.1 238.1 238.1 245.1 257.5 274.1 301.5 327.6 333.1 331.6 338.7 346.4 359.2 371.6 381.3 390 402.8 400.2 408.3 413.5 419.3 415.6 408.8 402.8 397.7 396.1 394.2 398.9 397.5 404.4 413.8 415.1 414.4 414.6 419.6 422.2 422.2 424.9 425.9 430.8
267.1 244.4 214.2 193.1 170.5 155.6 155.2 155.3 155.4 158.6 157.7 161.4 170.5 172.8 179.9 198.2 224.3 253.8 288.6 328 369.3 418.2 421.7 432.1 439 444.3 460.7 474 485.3 499.2 510 529.3 550.4 559.3 553.8 552 555.7 561.8 554.9 549.5 551.4 546.7 527.8 525.1 532.3 548.3 560.5 562.9 566.8 558.8 559.3 572.1 584.6 581.2 584.3 583.1 584.6 592.7 598.2 614.2 630.8 650.7 666.2 684.9 694.3 693 668.3 624.9 583.2 546.2 511.8 482.5 459.9 436.4 415.9 411.7 403.8 401.8 401.2 406.6 415.3 408.6 427.4 447.1 466.2 487.1 507.2 524.4 545.5 570.9 599.6 634.6 671.1 704.5 736.4 768.7 781.3 779.9 776.1 771.4 765.6 760.4 754 747 744.2 745.6 748.4 750.5 751.5 750.9 751.7 752.4 752.1 749.7 745 736.6 726.8 717.8 706.5 688 645.5 600.5 556.6 510.7 478 444.2 425.4 416.9 406.3 396.4 383.4 372.8 376.4 378.3 382.5 385.5 382.1 379.5 380 377.1 377.4 375.7 375 364.4 354.7 316.4 287.8 254.4 238.1 238.1 238.1 238.1 238.1 238.1 238.1 238.1 238.1 238.1 238.1 238.1 238.1 238.1 238.1 251.8 264.3 284.3 310.5 332.9 336.1 333.2 340.7 351.7 358.5 367.8 383.7 393.8 409 403.5 408.9 417.7 428.2 425.3 414.4 409.3 406.2 400.8 398.3 399.2 402.4 411.6 417.6 422.2 422.8 421 431.3 434.2 434.1 435.7 438.5 442.3
264.6 241.7 215.5 191.2 169.9 155.9 155.7 155.8 155.8 157.2 159 161.5 165.5 170.5 185.1 202.8 221.7 251.6 283.3 318.3 360.4 389.8 403.5 419.2 435.4 438.2 451.3 465.3 481.7 495.4 505.9 521 539.9 548.9 553.2 551.5 557.6 555.4 557.6 551.1 549.7 537.9 524.1 522.8 523.2 530.8 548.3 558.5 563.8 562.9 562.3 563.6 567 566.8 564.6 569.2 575.3 583.9 596.4 615.1 632.5 651.3 668.3 682.2 689.4 690.3 670.2 629.6 589.4 547.9 512.1 483.3 465.7 445.5 430.8 420.5 416.6 417.1 416.1 422 423.7 417.9 438.9 456.3 474 493.9 513.3 534.2 555.9 578.8 608.3 644.2 680.7 717.1 750.4 776.4 785.6 785.5 781.4 776.2 770.8 763.2 757.2 751.1 749.2 749.6 753.6 753.9 752.8 750.9 748.9 748.2 746.3 742.6 736.5 730.2 721 713.2 703.1 690.5 667 629 583.7 529.5 504.8 468.6 441.7 425.6 403.5 394 377.3 367.2 365.5 370.5 373.7 372.6 368.7 370.9 366.6 365.6 363.9 362 362 352.4 339 298.6 264.1 238.1 238.1 238.1 238.1 238.1 238.1 238.1 238.1 238.1 238.1 238.1 238.1 238.1 238.1 238.1 243.4 254 270.1 292.3 309.2 326.3 330.5 334.2 345.3 354.1 357.7 367.3 382.4 390.8 400.1 408 411.2 423.3 430.8 432.8 420.6 415.3 415.8 411.9 407.4 406.9 407.6 413.2 423.2 424.4 426.9 428.2 439.1 446.1 446.7 451.4 454.9 450.7
271.5 240.5 216.3 190.7 168.1 156 156 156.2 156.1 156.9 161 160.6 163.7 174.7 199.8 219.6 224.5 247.2 274.9 304.2 347.4 379.8 403.9 411.5 422.3 425.5 441 453 462.6 471.3 486.4 502.6 522.2 546.8 545.9 548.4 548.5 546.8 551.6 543.5 541.7 531.9 519.9 516.5 523.6 518.5 529.1 550.4 563.4 559.8 562.2 557.6 551.9 549.4 551.1 556.3 567.2 577.1 591.1 615.3 633.9 649 658.6 669.5 677.7 681.4 670.3 631.9 593.3 550.9 515.5 492.2 479.7 462.3 445.1 434.7 434.3 433.8 433 436.5 433.1 429.7 446.8 463.3 481.7 501.4 520.6 537.9 563.9 589.8 616.6 661.8 697.6 728.1 761.4 786.1 793 790.4 786.7 780 774.6 766.6 759.5 754.2 751.5 751.9 754.3 754.8 752 749.5 746.6 743 739 733.7 729.5 723 714.7 707.8 698.9 691.3 675.8 641.5 599.1 561 528.8 489 464.9 442.7 412.4 389.7 373.8 363.7 362 363.3 366.1 361.2 357.5 356.7 354.8 352.3 349.6 345.6 345.4 337.8 323.7 283.5 248.9 238.1 238.1 238.1 238.1 238.1 238.1 238.1 238.1 238.1 238.1 238.1 238.1 238.1 238.1 238.1 245.9 258.5 272.1 292.2 308.3 319.1 329 334 350 359.3 361.6 368 386.7 393.7 407.3 408.6 411.1 425.6 433.7 432.7 426.4 420 420.6 421.5 416.9 416 418.3 416 422.7 427 430.1 435 444.9 448.6 453.4 455.1 457.7 454.6
273 240.9 218.1 191.4 166.5 156.5 156.1 156.6 156.6 157 159.9 161.5 175.3 181.1 201 220.5 225.6 242.7 269.2 294.8 338 361.7 392.3 397.9 410.5 417.6 424.7 431.6 437.8 451.3 471.1 488.6 504.3 523.2 534.4 537.7 533 534 537.1 535.6 535 524.2 524.3 518 510.7 514.1 518.2 523.7 532.1 539.3 540.6 540.4 536.4 534.3 538.1 546.6 561.5 573.8 589.2 609.5 627.5 641.3 648.5 658.1 664.4 667.7 665.5 633.9 594.3 560.7 529.8 507.7 496.5 481.9 462.2 452.6 451.8 452.2 449.6 450.6 444.1 441.5 456.9 469.8 488.1 509.1 529.7 551.1 574.7 598.9 631.3 671.9 701.3 736.3 771.8 793 796.8 794.1 789.3 781.7 775.7 770.3 760.7 755.3 751.7 750.8 751 751 748.6 744.9 741.2 735.9 731.4 726.4 721.1 713.6 707.8 702.1 697.7 688.4 678.9 660.5 620.2 590.9 552.3 529.9 488.1 457.4 429.1 393.1 375.1 361.5 355.8 358.4 357.5 351.6 345.7 346.4 341.8 339.5 332.8 330.3 327.8 319.7 300.5 261.1 238.1 238.1 238.1 238.1 238.1 238.1 238.1 238.1 238.1 238.1 238.1 238.1 238.1 238.1 238.1 238.1 250.2 263.6 278.7 295.1 309.9 325.6 328.8 333.1 344.3 356 367.1 372.6 395.8 395.2 403 412.7 413.3 425.1 433.7 431.1 426.5 425.2 424.4 424.8 425.4 423.4 426.3 422.5 423.5 430 434 440.7 451.4 456.6 457.3 457.8 457.9 458.3
269.4 241.4 215.9 192.6 168 157 156.5 156.5 156.9 157.3 158 159.9 174.2 195.2 200.8 213.6 228.9 238.2 258.5 284.7 316.3 350.4 375.5 383.6 397.2 404.3 410.2 413.3 421.7 438.3 454.4 475.7 486 501.4 513.1 521.3 517.3 514.3 516.1 518.1 519.3 511.8 514.1 501.2 492 509.3 509.2 512.8 515.7 522.8 524.8 524.8 521.5 519.9 522.8 534 553 567.7 586 606.9 618.5 626.1 636.2 645.9 650.1 650 647.4 633.5 597.4 565.9 535.7 530 513.4 502.1 482.7 468.6 472.2 470.6 464.5 466.8 457 454.7 464.8 479 496.5 516.3 539.9 560.2 585.3 613.1 645 684.1 729.9 756.4 784.7 798.7 801.8 795.8 791 782.1 774.1 768.8 762.8 754 750.2 748 746.2 742.6 740.1 736.6 733 728.9 722.8 716.6 710.5 705.1 700.2 695.6 692.3 686.9 678.8 673.4 643.2 617.6 602.4 560.5 517.2 479.8 455.7 397.8 374 359.7 350.2 351.9 348.9 342.6 336.4 333.3 330.8 326.8 322 319.1 311.7 301.2 270.8 238.1 238.1 238.1 238.1 238.1 238.1 238.1 238.1 238.1 238.1 238.1 238.1 238.1 238.1 238.1 238.1 240.1 254.2 266.3 281 295.5 310.2 324.8 329.3 334.8 344.2 357.2 365.6 375.7 390.7 397.4 400.3 408.7 415.9 423.9 427.6 425.5 429.6 432.2 427 430.2 431.8 427.1 426.1 424.3 428.9 438.1 443.8 450.5 458.2 466.1 468.3 461.7 463.1 460.9
267.6 235.9 211.8 188.6 167.9 157.7 156.9 157 157.4 158.3 158.9 159.5 164.2 180.6 192.7 203.8 222.2 229 247.4 273.5 302.2 327.8 354.1 369.7 379.7 384.8 390.4 399.8 407.2 427.1 440 449.8 466.6 478.6 497.8 505.4 500.7 498.7 498.2 503.2 495.8 499.8 493.7 483.8 467.3 490 494 502.8 503.8 504.8 506.6 506 505.5 508.3 520.4 539.6 556.1 571.1 586.4 598.9 607.9 615.7 625.5 632.2 633.2 630.7 629.2 617.1 591.5 568.3 556.8 549.1 530 516.8 498 489 492 489 484.7 482 466.5 470.4 475.8 486.3 501.4 522.1 547.1 568.1 590.9 632.9 660.8 705.5 747.8 776.2 789.2 799 801.4 795.2 785.6 778.3 769.7 764.3 758.7 752.5 748.1 744.4 738 734.3 731.3 727.5 721.8 715.5 711.8 706.8 700.2 692.9 689.4 687.1 683.6 681.8 675.5 672.4 667.5 647.3 617.9 583 539.2 492.6 451.3 405.7 377.1 358.9 349.2 340 336.6 334.8 329 322.9 317.1 313.6 310.2 306.5 298.1 274.9 251 238.1 238.1 238.1 238.1 238.1 238.1 238.1 238.1 238.1 238.1 238.1 238.1 238.1 238.1 238.1 238.1 241.6 254.1 268.7 283.9 301.9 315.4 335.6 337.8 339 347.9 363.1 369.4 376.3 390.3 398.8 409.2 414.7 416.2 424.6 424.2 423.2 424.5 428.3 425.2 427.7 428.8 432.8 429.5 430.6 436.8 445.3 449.8 463.9 465.7 471.1 475.4 472.5 465 463.2
263.6 232.6 207.1 184.4 167.7 158 157 157.5 158 159.2 159.2 160.2 161.1 168.4 183 195.4 204 221.9 235.9 259.7 282.9 305.7 322.9 342.2 353.2 360.1 370.2 381.1 393.4 405.6 415.2 426.6 440.8 453.2 464.3 477.2 476.7 485.1 478.6 480.6 480.3 480.4 473.4 465.3 445.2 465.1 475.2 487 490.6 496.3 497.3 489.9 499.8 512.8 525.4 543.7 555.6 566.4 578.3 585.9 594.6 602 609.7 615 615.3 615.3 613.4 604.9 586.8 579.9 577.2 571.1 558.6 537.5 522.9 517.1 510.8 507.9 503.3 498.8 479.8 484.1 493.2 495.6 511.1 531.2 560.4 579.1 612 645.4 683.2 730.2 763.6 781.3 785.5 790.3 790.1 785.6 781.7 772 765.7 758.6 751.8 747.2 744.4 740.8 732.4 722.6 721.8 716.4 710.5 705.4 702.1 697.8 690 679.5 675.3 674.4 672.5 671.3 667.2 667.4 666 654.9 630.8 599.6 549.1 496.7 458.5 406.7 376.2 357.4 343.6 342.1 333.6 321.4 316.3 315.5 309.1 303.7 298.5 291.5 278.2 256.3 241.2 238.1 238.1 238.1 238.1 238.1 238.1 238.1 238.1 238.1 238.1 238.1 238.1 238.1 238.1 238.1 238.1 244.2 257.6 270.5 288.2 305.5 327.3 346.6 347.5 347.3 356.9 364.8 375 378.9 388.7 406.8 411.8 416.4 418.4 430.2 430.2 426.6 425 424 423.5 424.2 430.2 431 432.1 436 450 448.8 455.5 472.6 478.8 477.4 478.8 480.7 472 469.1
262.9 231.4 204 179.5 159.7 157.6 157.3 157.8 158.3 159.2 160.3 161 162.1 163.3 172.2 187.9 197.3 209.1 223.5 243.3 264.5 292.2 311 324.3 333.6 339.8 347.2 359.5 369.8 380 392 400.2 412.1 422 433.1 441.4 443.3 446.7 444.4 451.6 454.6 453.5 450 440.4 420.4 440.1 460.9 470.9 487 493.9 489.1 487.7 499.9 512.6 523.4 539.2 545.2 558.3 570.1 574.8 579.2 586.4 593.5 598.7 601.5 601.5 600.3 594.4 586.7 588.2 591.8 591.2 588.6 567.8 562.7 539.1 535.9 532.6 524.4 513 496 493.5 505.3 512.7 523.7 542.8 568.1 594.5 629.3 663.6 711.9 751.2 775.1 779 780.1 779.4 780 777.9 772.2 767 757.4 751.4 745.1 739.3 736.1 732.3 724.5 717.7 709.7 703.8 698.8 694.8 690.7 685.6 678.3 667.3 660.3 661.5 661 657.6 657.4 655.9 658 651.5 638.7 606.6 558.3 507.3 457.2 415.5 385.2 362.5 342.3 338 332.5 325.1 309.8 295.7 301.2 291.1 286.2 279.6 260.5 244 238.1 238.1 238.1 238.1 238.1 238.1 238.1 238.1 238.1 238.1 238.1 238.1 238.1 238.1 238.1 238.1 238.1 248.4 264.3 278.7 293 314.3 337.2 351.5 355.2 360.4 361.5 370.5 378.4 389.2 390 410.9 415.7 423.5 426.6 432.5 434.3 430.2 430 426.6 423.8 424.8 425.4 430.6 433.8 446 453.6 452 460.9 479.9 486.8 489.8 485 489.1 486.4 478.9
273.1 237.3 202.4 178.6 158.7 158.4 157.7 158 158.6 159.5 160.6 161.5 162 162.8 166.6 176.6 188 198.9 209.5 226.9 247.9 269.6 294.8 311.9 320.1 324.6 327.3 336.2 344.5 353.8 364.6 370.1 381.9 390.7 400.2 405.2 407.9 409.2 409.4 420.5 423.9 423.2 421.3 413.6 397.3 425 443.3 457.8 475.3 475.8 477.5 486.4 497.3 516.6 519.8 528.3 535.5 549.3 556.5 562.5 566.7 574.1 579.9 588.1 590.2 592.5 590.3 586.9 588.9 591.4 593.6 598.6 608.8 603.5 602.9 571.9 572.2 578.8 547.3 526.5 511.3 509.1 514 526.1 538.4 554 579.2 609.6 642.8 678.2 712.5 748.3 768.3 772.4 773.3 773.9 771.3 767.3 763.8 758.8 749.5 744.5 736.1 730.9 726.2 722.3 716.9 708.3 698.4 691.8 687.8 683.1 678.1 673.2 666.8 657.8 648 647.6 647.5 644.7 647.7 643.4 644 644 635.9 609.5 568.7 512.8 461.2 422.5 395.8 372 350 338.1 329.5 318.5 309 296.3 282.7 282.9 276.1 264.5 247.4 238.1 238.1 238.1 238.1 238.1 238.1 238.1 238.1 238.1 238.1 238.1 238.1 238.1 238.1 238.1 238.1 238.1 240.4 255.3 273.6 289.3 308.5 320.5 331.7 344.8 362.8 362.8 368.8 375.6 382.8 386.6 392.8 414.4 421.7 423.7 431.1 439.1 436.8 443.5 437.8 433.1 428.1 424.6 429.6 441.9 438.5 445.5 457.7 455.9 468.8 481.3 491.2 497 493.9 493.7 491.9 484
265.2 233.1 206.7 181.5 158 158.2 159 158.5 159 159.8 160.8 161.7 162.9 163.6 165.1 171.5 181 190.4 200.4 214.8 230.2 248.9 270.3 289.6 300.7 309.8 312.4 317.8 324.7 330.6 337 342.9 353.2 362.3 370.6 378 375.9 375.1 378.9 384.9 388.1 388 386 383.3 379.9 404 431.5 448 448.6 448.1 468.5 482.4 498.8 508.3 513.9 518.5 527.6 536 543.8 552.3 557.6 564.3 570.8 578.5 581.7 582.2 584 583.4 586.4 590.7 595.1 603.3 617.9 625.6 629.4 608.7 593.1 589 571.1 545.3 526.4 521.4 524.2 535.2 547.2 567.6 589.8 618.1 648.8 685.2 722.9 757.2 763.4 764.6 764.4 763.9 763.1 758.8 755.3 747 740.8 734.5 725.6 718.5 714.9 710.7 706.5 701.2 690.9 678.5 675.7 671.7 667.3 662.1 654.2 647.8 641.3 637.7 637.1 636.9 634.7 633.9 634.3 634.9 628.9 611.8 569 510.9 468.1 434.2 401.5 379.1 358.2 343.1 328.5 315.3 303.3 291.6 281.2 272.3 265.8 255.4 238.1 238.1 238.1 238.1 238.1 238.1 238.1 238.1 238.1 238.1 238.1 238.1 238.1 238.1 238.1 238.1 238.1 238.1 248.4 261.7 282.5 298.2 322 331.9 346.5 347.7 358.7 361.4 376.3 385.7 389.7 390.1 396 415.4 424 426.3 440.5 447.1 441 445.1 442.1 440.6 444.3 442.1 442.3 446.4 447.4 451 453.4 466.5 474 480.8 490 495.4 495.7 492.9 489.6 481.3
261 236.1 214.8 178.7 156.6 157.3 158.6 159.4 159.8 160.7 161.9 161.4 162.5 163.8 165.3 167.5 174.5 183.1 192.7 201.9 212.4 228.2 243.9 260.7 275.8 285.2 293 300 307.3 311.2 317.1 322.3 330.8 336.3 342.1 343.5 343.9 345 346 352.3 352.6 352.4 352 353.5 357.7 380.8 404.5 423.9 416.1 446.7 462.6 476.5 488.8 497.3 501 510.4 518.2 524.9 533.5 541 550.4 556.1 563.7 570.2 574.3 576.3 580.7 584.3 588.2 589.2 598.3 605.9 620.7 634.5 648.5 642.5 616.7 601.8 586.5 561.4 540 539.7 544.3 548.2 558.1 576.1 602.1 627.1 659.5 706.5 740.7 758 758.2 757.1 754.5 754.2 753.7 748.8 743 736.9 730.7 723.4 711.1 703.8 700.1 698 696.9 690.9 680.6 672 665.1 660.1 655.5 649.8 644 639.3 633.9 627.4 626.7 626 624.8 626 628.6 620.9 614.8 601.1 579.7 529.8 490.6 453.2 420.9 393.5 368.3 345.1 326.8 308.6 294.7 285.5 277.2 270.7 262.9 248.4 238.1 238.1 238.1 238.1 238.1 238.1 238.1 238.1 238.1 238.1 238.1 238.1 238.1 238.1 238.1 238.1 238.1 238.1 255.2 270.7 290.2 309.5 329.9 353.7 356.9 359.1 366.2 372.5 379.1 389.8 398 401.2 402.6 408.7 426.3 429.3 443 444.6 441.5 446 447.8 449.5 457.2 455.3 450.5 453.2 463.2 469.7 472.9 474.1 491.8 491.5 496.2 499.9 499.8 497.3 487.8 478.4
256 228.4 201.2 170.1 156.6 157.2 158.2 159.2 160 160.5 161.3 162.3 162.9 164 164.7 167.5 170.7 175.6 182.4 190.5 201.2 214.7 225.1 235.7 248.5 261.5 271.7 280.4 288.6 294.7 300.5 305.6 308.6 313.5 316.9 317.9 314.8 315 315.3 318.1 318 319.4 323.5 326.7 338.7 357.5 375 386.5 406.8 435.9 456.5 467.6 480.1 488.1 493.1 499.7 506.1 512.6 520.4 530.1 538.3 547 557.6 567.4 575.2 578.9 583.6 587.8 592.1 596.8 603.5 614.6 630.6 645.8 661.1 668.2 644.3 620.2 595.4 573.1 557.1 557.4 560.9 566.4 579.2 598 634.6 651 685 706.4 744.3 752.5 752.2 749.8 746.6 743.7 740.1 737.1 731.6 727.2 718 709.7 700.3 692.4 684.2 683.4 682.8 676.5 668.5 662.6 656.1 650.3 645.1 638 633.9 627.7 622.1 616.7 615.4 614.7 615.1 614.7 616.2 608.4 600.6 596.5 589 561.5 516.6 470.9 439.6 409.9 377.4 347 320.6 304.5 289 280.9 276.1 269.5 261.5 251.3 243.6 238.1 238.1 238.1 238.1 238.1 238.1 238.1 238.1 238.1 238.1 238.1 238.1 238.1 238.1 238.1 238.1 238.1 258.9 277.9 299.1 316.3 341.7 368.1 376.4 371.8 381.7 390.4 401.8 402.3 397.7 401.8 406.5 414.6 420.5 430.8 444.2 446.2 443.3 444.1 457.2 455.8 461.5 465.5 459.6 454.8 471.8 479.2 480.8 483.8 493.4 493.9 498.3 498.7 495.9 491.3 483.8 477.1
243.1 214.9 188 161.1 156.6 157.6 158.5 158.7 159.4 160.2 161.4 162.9 165.1 165.5 166.4 167.2 167.7 171 176.4 183 190.6 202.4 211 218.6 229 238.8 251.2 261.3 272.4 280 285 286.7 291.2 292.4 294.5 293 288.9 287.4 289.2 291.4 294.4 294.1 298.1 306.2 317.4 333 347.5 362.1 385.2 415.5 439.2 455.3 467.7 475.4 483.3 489.4 494.2 504.8 516.6 528.3 540.2 549 559 569.6 578.5 582.2 586.4 592.3 597 603.4 613.2 627.3 638.8 657.3 672.1 681.3 667 636.3 601.5 589.6 584.6 576.1 579.6 584.7 603.5 622.7 659.4 679.3 720.7 751.8 750.9 751.7 748.9 744 739.5 734.8 730.7 726.5 721.5 713.6 704.7 695.4 687.5 681.2 672.6 667.8 666.3 664.5 658.7 651.2 644.5 639.5 634.7 628.6 623.5 617.4 611.5 604.7 604.8 604 604.4 604.1 600.2 592 589.4 590.6 583.3 574 550.2 491.7 455.2 419.6 381.1 345.6 319 300.5 288 279.9 275.7 271.6 269.2 255.9 246.8 238.1 238.1 238.1 238.1 238.1 238.1 238.1 238.1 238.1 238.1 238.1 238.1 238.1 238.1 238.1 238.1 244.1 262.1 286 304.9 325.5 348.4 376.1 383.9 390.2 391.3 400.4 407.3 414 417.7 404.8 402.5 406.9 417.2 427.3 441.7 444.8 445.9 448.2 457.5 463 463.8 467.3 462 464.1 470 476.6 481.2 487.3 489 489.5 492 498.3 493 486.7 479.9 473.1
234.5 206.8 179.4 157.1 156.6 156.9 157.9 158.4 159.6 160.2 161 165.1 167.1 168 170.6 170.4 172.2 172.1 170.7 177.9 183.4 191.9 198.7 205.9 214.3 223.9 234.7 244.8 254.4 262.9 269.2 270.6 273.6 275.5 275.3 270.1 263.7 262 267.1 264.7 269.3 277.1 283.8 290.7 299.4 313 326.6 344.1 367.7 392.8 418.4 437.2 450 463.3 470.6 478.6 488.4 497.7 508.7 520.4 532.3 545 560.4 572.4 581.1 586.8 590.7 597.5 606.7 612.1 618.3 634.2 648.6 666.3 681.4 695.4 695.3 646.6 619.2 606.9 618.8 599 602.4 610.9 630.1 653.6 683.3 725.3 766.8 765.7 758.7 753.1 746.3 739.8 733.2 726.2 721 716.7 709.3 700 689.8 684.2 678 670.4 662.3 652.6 652.9 648.5 643.7 639.6 632.5 629.2 623.6 617.2 609.8 605.3 602.1 598.2 594.6 593.1 591.3 590 585.1 583.2 576.9 572 571.5 566.7 548.7 510.8 469.7 429.3 395.2 347.8 319.1 303.4 291.9 285.6 278.5 275.8 274.5 263.3 250.4 238.1 238.1 238.1 238.1 238.1 238.1 238.1 238.1 238.1 238.1 238.1 238.1 238.1 238.1 238.1 238.1 249.9 267.1 291.8 308.7 332.3 351.4 373.9 388.2 407.5 408.5 413.4 422.4 421.3 421.2 415.8 404 405.2 414.5 426.8 434.2 442.8 449.6 453.5 456.6 461.1 463.2 466.3 465.9 465.5 472 479.3 486.9 489.4 489.6 489.7 490.6 488.6 485.7 482.7 477.6 469
228.1 200 172.9 156.6 156.6 156.6 157.2 158.1 158.6 159.7 160.7 167.6 173 179.1 177.3 176.5 174 174.3 174.3 174.5 177.8 181.5 186.9 194.9 202.2 211.6 221.2 229.1 237.2 246.6 253.8 255.7 257 257.3 251.4 246.6 248.7 263.9 268.3 282.5 289 297 303.3 302.1 299.3 303.9 313.1 329.3 350.8 373.1 396.3 409.1 429.8 448.2 459.4 472.4 480.1 489.7 501.9 513.4 525.4 538 553.7 572.3 582.8 590.1 595.9 603.8 612.8 621.4 630.5 639 650.2 668.8 685.9 702.1 707.4 662.9 633.2 625.6 638 624.2 639.4 653.3 679.1 689.6 722.8 759.6 764.6 767.5 761.5 753.7 744.4 735.2 726.7 717.2 710.4 703.3 692.6 685.4 678.9 670.7 663.8 657.6 651.5 644.3 637.5 636 631.9 627.3 621.5 615.9 612 605.2 599.7 594.9 589.9 587 583.1 578.5 576.6 576.2 573.8 568.1 562.8 557.3 549.8 548.9 535 508.1 468.7 427.4 389.2 357.6 328.6 310.2 300.6 291.8 285 283.6 279.8 266.4 250 238.1 238.1 238.1 238.1 238.1 238.1 238.1 238.1 238.1 238.1 238.1 238.1 238.1 238.1 238.1 238.1 256 274.3 296.6 313.4 336.8 358.4 374.8 391.7 413.4 423.8 420.6 432.3 433.5 430.8 425.8 419.3 414.8 416 427.7 437.7 440.8 447.8 454.8 463.7 463.5 465.4 467.4 474.7 485.3 484.5 483.9 491.7 495.9 494.3 490.8 492.1 486.5 484.3 479.7 474.8 466.7
220.9 191.9 165.4 156.6 156.6 156.6 156.6 158.1 157.7 158.6 160 169.4 180.9 189.7 188.2 185.4 179.7 175.7 176.1 177.8 179.7 178.6 182.5 186.8 192.6 202.6 210.7 216.8 221.9 231.4 237.6 241.4 237.6 233 233.2 247.8 258.7 270 281.7 292.3 303.4 314.8 324.2 329.6 326.8 328.6 332.5 338.8 347.4 358.1 377 392.2 415 437.4 453.4 463.6 473.1 482.1 491.9 504.6 517.5 527.6 546 564.3 580.8 591.8 603.6 610.1 619.4 628.5 643.5 653.8 663.8 672.1 685.3 702.7 714.5 682.1 652.6 645.3 650.5 651.7 670.1 691.7 708 732 763 784.4 778.1 770.8 763.3 756 745.9 732.9 723 711.2 700.7 689.5 680.1 672.1 665.6 659.4 652.9 647.6 643 637.8 632.3 627.5 623.6 620.7 613.9 602.2 599.5 593.1 588.8 584.1 579.6 575.3 570.7 566.6 564.5 558.6 555 553.3 545.4 541.4 533.7 520.8 517.1 496.6 463.6 438.9 411.7 379 349.4 329.1 314.1 305.2 296.5 295.5 284.7 265.6 249.2 238.1 238.1 238.1 238.1 238.1 238.1 238.1 238.1 238.1 238.1 238.1 238.1 238.1 238.1 238.1 244 266.3 290.5 305.2 320.2 343 361.2 375.4 395.5 416.4 430.6 427.9 436.8 438.3 438.8 433.5 428.4 422.6 425.3 429 436.3 441.6 444.3 453.8 462.8 473.7 474.4 487.1 489.9 488.3 488 491 497.7 498.9 496.5 492.4 490 482.3 476 473.1 466 459.2
213.1 183.5 156.9 156.6 156.6 156.6 156.6 156.6 157 157.8 161.6 169.3 186.9 196.4 199 199.3 193.3 184.1 179.4 178.7 182.4 184.1 180.8 182.4 185.3 189.7 198.8 205.9 214.4 220 220 219.9 219.7 228.9 240.5 251.7 263.7 275 288 303.8 318.4 328.5 341.6 355.5 360.2 359.2 360.1 367.2 372.1 371.1 372 385.5 408.9 430.1 445.8 454.8 465.6 475.9 485.1 494 505 516.4 532.9 553 576.1 589.7 606.9 618.1 628.4 636.6 655.9 673.4 677.6 685.6 690.7 701.6 715 697.1 675.9 681.2 681.1 684.3 700.7 725.7 745.3 763.4 791.4 790 781.4 772.5 764.9 758.9 750 736.1 723.1 718.7 710.3 701.9 691.5 677.3 664 658.9 650.6 645.3 638.6 633.9 632.3 629.3 625.3 622.1 617.6 611.8 601.2 592.4 582.2 575.3 570.3 564.8 557.7 551.3 547.3 540.6 534.6 526.2 521.2 521.3 508.2 497.1 490.7 482.4 467.4 464.3 437.3 408.7 366.8 351.6 333.1 320.8 314.3 307.4 285.1 267.5 253.5 238.1 238.1 238.1 238.1 238.1 238.1 238.1 238.1 238.1 238.1 238.1 238.1 238.1 238.1 238.1 251.9 272.4 296.8 306.9 324 347.3 371.4 379.9 400.4 413.8 425.9 433.4 444.1 447.4 448.4 445.6 438.7 427 431.5 436.1 435.5 440.5 448.2 457.7 471.1 478.6 487.9 494.6 493.4 488.8 493.5 493.9 497.3 495.6 495.6 492 488.1 480.7 471 464.3 458.4 452.6
203.8 171.4 156.6 156.6 156.6 156.6 156.6 156.6 156.6 156.6 161.6 172.1 190.7 202.2 211 213.8 210.7 200.2 195 190.3 193.6 190.9 186 181.7 182.9 186.4 193.1 194.6 198.7 205.4 209.4 210.5 220.7 229 242 253.3 266.3 276.9 293.9 315.2 332.2 346.2 363.1 375.5 385.5 391.9 387.9 398.3 399 399.8 390.2 385.1 401.8 418.7 432 445.5 458.3 468.1 476.8 486.2 496.9 506.1 519.9 537.7 560.2 582.5 605.7 625.4 635.6 648.3 663.6 680.2 688.8 697.9 701.8 702.1 712.2 713.7 705.6 718.6 716.2 732.1 740.3 771.6 785.2 790.6 791.2 789.8 784.1 776.2 768.1 762.7 755 745.9 738.1 732.9 726.2 719.2 707.8 694.6 686 674.9 664.6 655.9 648.6 642.6 639.7 636.9 634.1 632.1 623.6 615.4 605.5 595.2 584.1 577.3 570.6 563.1 552.2 535.9 517.1 519.3 512.3 497.9 491.1 486.2 481.7 478.1 477.2 474.9 472.8 468.2 460.3 437.3 400.9 378.3 359.5 347.1 343.2 318.2 289.9 272.3 260.4 238.1 238.1 238.1 238.1 238.1 238.1 238.1 238.1 238.1 238.1 238.1 238.1 238.1 238.1 238.1 255 279 301.3 313.4 331.2 349.3 369 389.3 406.4 417.9 423.9 432.6 437.2 444.8 446.4 451.3 442.3 436.3 435.9 440.5 445 445.8 453.7 464.5 474.8 480.6 489.2 493 489.5 489.2 490.6 492.5 496.1 495.2 490.7 488.6 484.7 476.3 467.9 461.1 453.4 449.3
189.6 160 156.6 156.6 156.6 156.6 156.6 156.6 156.6 156.6 160.2 175.1 192.3 205.8 219.3 228.5 234 225.7 214.3 210.5 206.7 204.2 197 190.8 186 187.7 189.6 190.6 195.5 200.1 206.3 204.9 217.5 227.4 239.2 250.8 264.3 277.5 296.7 322.2 339.6 359.8 379.7 390.7 403.6 415.2 419 426.7 424.3 424.6 415.7 401.8 400.4 405.3 420.3 436.2 448.4 455.3 466.8 476.6 488.3 499.2 510.3 522.3 543.5 567.2 594 619.2 637.5 656.5 678.4 695.6 707.1 713.2 713.4 715 713 719.9 731.2 745 755 764.1 774.1 784.8 791.4 791.6 789.7 788.3 784.7 778.8 771.1 765.9 760.5 754.6 747 742.1 737.4 729.8 723.5 714.1 701.6 692.8 683.4 672.5 663.2 657.8 653.6 649.8 643.3 641 633.5 624.8 611.2 599 588.5 580.1 570.2 560.6 551.5 540.3 525.1 506 485.7 474.6 466.8 461.4 457.8 459.3 460.7 459.6 462.7 456.8 455.1 452.5 445.2 434.7 385 382.1 393.3 334.3 295.2 276.3 263.5 238.1 238.1 238.1 238.1 238.1 238.1 238.1 238.1 238.1 238.1 238.1 238.1 238.1 238.1 238.1 259.3 283.8 308.1 319.1 338.1 352.2 364.1 385.5 408.2 427.4 429.7 442.3 446.3 460.2 459.4 452.4 454.6 446.9 440.8 442.2 452.1 450.6 463.4 470.8 474 477.1 482.9 489.3 489.4 490.7 491.6 492.3 495.2 493.2 490.8 486.7 480.9 475.6 467.8 458.1 453.8 447.9
176.2 156.6 156.6 156.6 156.6 156.6 156.6 156.6 156.6 156.6 160.7 174.6 192.7 213.4 230.8 240 252.6 250.3 236.9 228.6 224 218.2 209.8 201.2 197.2 198.2 201.7 202.1 198.1 195.6 199.9 200.7 212 220.5 236.7 248.8 260.6 276 301.3 325.3 344.2 368.8 390.9 410 422.1 432.5 444.2 455.9 452.3 448.6 436.6 428.7 418.3 410.7 414.7 428.2 438.7 446.4 455.6 466.9 477.4 488.8 499.7 512 525.4 548.2 577.2 604.3 629.9 658.2 684.3 712.2 721.6 730.1 728.8 723.7 719.1 726.9 739.7 752.7 764.7 773.8 779.4 786.3 787.7 787.2 787.3 785.6 781.8 777 771.3 767.5 764.5 761.4 756.6 749.6 745.6 739.1 735.4 726.2 720.3 711.1 704.7 695.5 679.5 672.1 668.1 663.2 656.7 647.9 643 634.1 619.2 607.5 593.7 583.8 569.7 560.5 551.7 540.5 528.5 516.4 502.5 498.5 492.2 477.9 460.1 443.1 430 434.9 440.1 446 445 446.5 449.1 453.6 423.7 399.7 391.2 344 301.2 282.4 284.4 238.1 238.1 238.1 238.1 238.1 238.1 238.1 238.1 238.1 238.1 238.1 238.1 238.1 238.1 251 266.3 286.9 308 319.4 334.4 347.1 364.1 384.6 407.8 425.8 436.8 446.5 454.5 466.3 467.3 466.6 461.2 455.8 447 454.8 457.1 459.3 466.6 470.3 473.6 478.2 481.3 486.8 495.8 493 492.6 497.4 500.4 494.6 491.5 487.4 479.1 473.2 464.8 458.8 453.8 446.4
167 156.6 156.6 156.6 156.6 156.6 156.6 156.6 156.6 156.6 165.3 179.5 196.3 217.8 239 253.9 268.8 273.4 259.2 250.3 241.5 236.4 225.1 216.6 211 211.2 212.7 216.8 213.2 208.7 203.9 199.4 209.4 218.8 229.6 244.6 259 278.6 300.9 323.6 350.1 377.4 402 425.1 440.7 457.4 472.2 485.7 476.5 467.4 459.6 452 437 428.9 413.5 419 429.6 437.3 445.6 455.4 466.5 477.4 488.2 498.2 509.8 528.5 556.8 588.4 616.8 646.5 676.8 707.1 724.1 736.5 736.9 726.8 727 738.7 749.2 758.8 767.9 776.3 780.9 784.2 782.8 776.1 773.4 772.8 766.4 763.9 763.9 764 765.9 768.7 764.8 758.9 753.2 747.7 743 733.8 727.1 722.1 717.2 708 697.4 689.6 679.2 670 663.3 652.4 645.4 636.3 622.9 609 598.4 585.7 575.9 568.1 558.8 552.3 542 528.8 519.3 513.5 505.5 491.1 477.2 460.9 440.1 421.2 415.3 426.6 430.3 437.7 445 445.9 426.2 412 388.2 339.5 310.2 294.2 274.5 238.1 238.1 238.1 238.1 238.1 238.1 238.1 238.1 238.1 238.1 238.1 238.1 238.1 238.1 254.8 278.3 294.8 311.1 320.4 337.6 348.2 365.2 389.2 411.1 424.9 441.1 458.8 460.8 467.7 478.5 480.6 468 460.6 451.5 455.4 460.1 461.2 469 472.1 475.2 478.4 484.2 491.6 491.8 492.6 494.3 499.5 501.7 501.7 493.2 489.2 483.5 474.8 468 462.1 455.8 449.9
159.5 156.6 156.6 156.6 156.6 156.6 156.6 156.6 156.6 156.6 169.7 183.8 199.8 221.4 244.6 275 291.7 304.9 281.4 271.2 259 251.8 248.3 238.3 231.1 223.8 227.6 235.5 232.3 223 214 210 204.3 219.4 227.5 239.5 254 274.2 295.4 318.1 346.5 378 410.2 437.7 468.1 490.4 510.8 506.5 495.4 487.9 475.4 464.1 450.7 444.8 431.3 423.4 419.2 430.4 435.4 445.3 453.8 465.1 475.2 483.8 494.9 511 536.8 566.8 598.7 632.6 663 693 715.8 718.4 711.9 724.8 737.5 747.2 756.2 763.2 770.3 776.9 779.3 779.7 768.7 755.6 749 744.8 744.2 739.3 743.5 749.8 762.4 774.1 775.4 769.4 757.7 750.5 741 734.7 726.2 721.8 719.3 714.1 702.5 694.5 684 675.2 665.6 654.8 643.2 633.1 624 613.1 600.4 587.3 583.9 575 568.2 560.8 550.4 538.9 526.4 521 516.6 504.1 488.8 464.5 447.2 426.8 407.9 406 416.4 421.2 430.9 430.4 420.3 412.9 387.2 346.9 313.1 293.1 257.3 238.1 238.1 238.1 238.1 238.1 238.1 238.1 238.1 238.1 238.1 238.1 238.1 238.1 238.1 255.5 283 306.2 321.7 326.3 350.2 367.7 377.5 394.8 416.4 428.6 440.9 456.3 467.6 473.3 477.1 483.7 475 456.4 453.4 459.4 460.7 463.4 471.6 476 476.5 480.1 485.9 492.1 493.8 494.1 495.5 501.7 501.7 499.4 494.6 489.5 484.7 478.1 472.9 465.7 456.5 449.9
158.2 156.6 156.6 156.6 156.6 156.6 156.6 156.6 156.6 156.6 173.9 191.1 214.6 231.5 254.3 278.1 302.7 323.2 305.8 291.2 285.5 278.8 271.3 259.4 247.4 241.9 244.3 250.7 250.9 239 230.1 222.5 207 213.1 227.9 241.4 249.6 269.4 289.1 313.7 341.9 375.5 412.3 446.9 484.7 516.9 531 526.6 516.8 503.1 490.1 477 464.7 456.5 442.2 429.3 423.9 423.7 423.7 434 442.4 451.2 458.5 470.2 479.6 494.2 514.8 545.2 578.6 613.2 641.4 671.8 683.6 680.9 690.5 721.7 738.1 748.9 758.2 765.5 771.9 775.9 772.3 762.9 744.6 725.7 717.8 715.9 712.4 706.8 715.6 728.1 748 757.8 776.1 769.4 758.2 740.7 721.9 712.6 713 710.5 713.8 708.5 703.9 694.9 684.1 674.5 662.9 651.1 637.7 627 616.9 605 596.9 586 581.3 576.7 574.3 560.8 554.3 547.3 533.1 524.8 519.3 506.9 495.3 462.1 445.5 425.5 405.7 388.8 401.3 411.4 419.7 421.4 411.2 410.6 378.6 350 310.9 284.1 250.7 238.1 238.1 238.1 238.1 238.1 238.1 238.1 238.1 238.1 238.1 238.1 238.1 238.1 238.1 258.2 283.1 315.7 331.3 337.9 358.4 376.6 383.4 395.3 418.8 431.8 445.7 457.1 471.2 473.1 477.4 477.1 470.7 459.2 456.8 459.8 462.5 466.6 474.1 478.8 480.7 483.8 488 497.4 497.2 501.5 498.2 499.9 501 499.2 493.9 488.5 483.4 479.1 475.1 465.6 456.5 451.9
157.7 156.6 156.6 156.6 156.6 156.6 156.6 156.6 156.6 161.5 180.1 199.3 221.2 245.7 264.1 292 321.6 345.1 338.9 318.6 309.6 304.1 293 279.7 271.7 265.8 262.5 264.3 265 257.4 245.6 228.9 213.8 213 222.1 245.5 253.7 265.5 286.8 309.8 339.1 370.6 407.3 443.1 483.2 523.6 548.7 544.2 533.8 522 505 490.1 477.4 465.4 451.5 435 429.9 423.7 423.7 423.7 429.6 443 447.4 458.5 467.5 479.6 495.9 523.1 555.4 589.2 620.8 640.2 639.6 649.4 684.8 713.9 736.7 748.6 758.7 765.2 769.5 763.8 749.8 734.3 716.9 693.6 683.7 681.6 677.3 675.3 685 702.2 716.9 722.1 725.5 724.1 719.8 712.2 693.5 683.2 682.6 683 687 686.9 696.6 686.6 676.9 667.5 655.4 641 624.4 611.1 596.9 589.3 582.6 575.4 571.1 565.6 568.2 561.4 558 550.3 536.7 526.2 520.3 505.1 492.1 465 443.8 419.4 397.9 380.6 389.1 398 404.1 402.2 404.3 407.4 374.2 338.7 303.5 274.8 246 238.1 238.1 238.1 238.1 238.1 238.1 238.1 238.1 238.1 238.1 238.1 238.1 238.1 245.2 262 283.9 311.1 332 350.2 369.3 377 387.8 404.9 434.1 460.9 477.3 475.3 475.9 478.7 475.3 478.2 467.2 458.3 463.8 464.5 465.5 470 470.9 476.3 481.2 485.1 493 501.9 508.2 509.7 506.3 501.3 504.8 501.8 494.6 488.6 483.6 480 475 469.3 463 454.7
157.9 156.7 156.7 156.7 156.9 156.9 156.9 158 158.9 168.1 186.7 204.9 227.6 256.9 281.1 305.1 335 366 371.5 348.4 343.5 336.8 320.8 305.8 302.7 290.8 283.4 282.3 280.8 270.8 253.8 234.5 219.5 217 222.8 235.2 255.3 268.7 285.1 306.9 332.4 363.4 399.1 433.3 469.7 512.1 542.7 559 551.4 538.4 521.4 503.8 487.6 474.2 459.8 447.7 434.9 423.7 423.7 423.7 423.7 427.7 437.5 446.9 454.2 462.7 480.3 505 534.1 567.8 594.6 594.7 612.7 649.8 686.1 717.8 735.6 747.3 755.3 760.2 759.1 742.2 723.4 709.1 684.6 666.5 647.8 646.1 641.5 641.7 652.1 669.2 678.7 682.4 684.9 681.6 678.3 670.8 660.3 649.3 648.1 651.2 652.7 656 667 666.5 658.3 643.7 631.9 614.5 597.9 581 571.4 561.8 557.7 553.8 553.1 551.1 549.4 546 550 556.3 541.6 534.1 513.4 493 476.3 462.6 441.6 414.8 396.5 377.7 375.5 384.7 387.4 386.7 396.5 393.7 362.1 332.7 299.7 274.6 243.7 238.1 238.1 238.1 238.1 238.1 238.1 238.1 238.1 238.1 238.1 238.1 238.1 238.1 252.9 268.3 282.4 306.2 328.4 354.5 376 380.8 398.9 425.8 443.2 473.8 491.7 495 494.9 485.4 479.7 471.8 466.6 461.3 467.4 472 474.2 472.7 472.5 477.4 482.7 489.2 497.7 508.3 511.7 510 505.9 504.8 504.5 497.6 492.9 488.7 484.5 482 479.5 475.4 469 455.3
158.3 157.7 157.6 157.5 157.6 157.6 157.8 157.8 163.1 174.3 193.3 211.6 236.6 264.1 293.9 327.6 360 394.1 406.8 388.2 386.9 377.1 360.3 346.1 330.3 313.6 303.2 297.6 292.9 279.3 265.6 240.9 225.6 219.3 224 235.6 248.4 269.7 290.5 307.5 329 358 390 423.1 458.6 495.6 532.3 568.4 570.2 556.6 539.7 516.1 498.4 482.9 469.4 455.6 439.6 428.1 423.7 423.7 423.7 423.7 431.6 434.6 440.9 450.6 467.5 488.5 514.2 543.3 554.1 578.2 615.9 649.3 684.7 713.5 731.9 743.6 751.5 760 752.2 721.7 695.3 676.4 647.7 631.7 616.2 611.1 607.9 610.3 619 628.9 638.8 639.4 640.1 640.1 637.3 630.9 623.7 614.6 610.2 615.8 617.1 621 625.4 625.1 623.2 603.9 595 579.8 563.6 549.6 538 526.3 524 522.3 521.9 521.8 519.8 518.1 515.2 512.3 513.7 516.4 509.7 486.1 469.1 454.1 434.8 411.4 393.3 379.8 365.4 375.4 372.9 376.6 382.9 376.8 347.9 321.6 299 281 245.3 238.1 238.1 238.1 238.1 238.1 238.1 238.1 238.1 238.1 238.1 238.1 238.1 238.1 251.3 271.7 286.4 302.6 327.7 363.4 376.8 387.7 408 449.5 457 481.5 497.2 496.3 498.7 487.1 479 473 468.1 465.4 476.3 481.3 485.3 477.9 480.5 481.9 488.5 492.2 503.9 511.7 511.4 509.6 507.7 508.3 507.6 498 492.4 488.6 486.5 485.4 484.5 479.8 470.5 443
158.3 158 158.1 158.2 158.3 158.2 158.2 158.4 164.9 178.3 197.6 221.3 247.9 274.2 306 339.5 373.2 411.5 431.3 428.9 443.6 424.9 404.4 375.3 351.5 336.2 324.5 317.1 305 291.3 272.9 250.8 235.6 222.6 222.7 233.4 246.8 265.1 287.9 311 331.7 354.4 382.7 415.2 449.7 484.8 520.6 555 586.6 576.7 557.1 536.5 510 491.6 475.6 465.1 450.4 436.8 423.7 423.7 423.7 423.7 423.7 423.7 431.9 442.8 462.3 477.2 496.2 515.2 539 570.3 604.6 643.2 676.9 706.3 727.1 740.4 746.2 756.4 755.7 718 676.7 643.5 616.1 598.5 584 577.2 577.5 584.6 589.4 593.7 597.3 602.1 600.2 599.9 597.1 592.9 588.4 579.1 576.2 578 579.7 586.6 583.6 582.6 580.2 565.9 555 545.2 528.9 516.8 502.5 492.5 491.5 488.3 487.5 485.8 486.4 484.4 483 479.1 479.1 477.6 480.6 479.2 459.9 444.1 431.1 407.9 389.5 374.7 357.3 362 363.8 363.3 367.9 364.4 337.8 314.2 298.8 268.8 243.8 238.1 238.1 238.1 238.1 238.1 238.1 238.1 238.1 238.1 238.1 238.1 238.1 238.1 251.3 277.1 291.6 307.3 327.1 354 378.7 393.5 418.4 454.1 472 482 488.6 493 500.8 489.5 489.6 479.9 475.6 476.3 486 484.6 490.2 500.9 497.4 495.1 500 500.9 507.3 511.9 513.1 514 510.4 506.8 504.1 498.8 492.7 491.2 492 491.7 488.3 482.7 465.6 442.9
158.6 158.5 158.7 158.8 158.6 158.5 158.5 158.6 167 184.9 206.3 234.2 257.7 286.1 323.5 369.1 395 431.9 461.1 473.6 478.6 458.4 430.5 403.2 383.1 363.2 345.6 332.9 318 300 278.6 262 241.5 228.9 223.7 230.7 247.5 264 286.6 311.7 330 351.6 378 408.1 441.5 476 510.8 545 581.8 596.6 576.3 552.9 526.2 505.2 487.7 473.1 457.1 446.7 432.4 423.7 423.7 423.7 423.7 424.7 437.1 442.9 454.3 469.8 485.8 503.2 532.6 561.5 596.7 630.4 665.1 695.5 719.2 732.7 741.8 745.8 742.9 702.4 667.3 638.7 610.5 578.7 560.2 552.5 554 563.1 571.8 570.3 567.3 567.4 566.1 564.1 558.9 555.8 548.5 543.5 540.7 540 539.6 549.3 542.9 542 538.7 532.7 516.5 508.1 494.3 484.8 471.1 461.4 460.6 457.6 457 456.1 455.5 453.2 452.2 451.3 448.5 447 446.7 446.9 434.4 427.2 423 403.2 384.5 370.5 351.4 349.5 353.8 350.8 349.7 343.6 327.6 308 298.8 266.5 243 238.1 238.1 238.1 238.1 238.1 238.1 238.1 238.1 238.1 238.1 238.1 238.1 238.1 255.6 282.4 298 312.3 328.1 352.4 371.7 394.1 423.3 448.4 466.5 473.3 477.9 492.6 503.7 493.1 500.4 487.9 489.9 489.4 501.3 506.6 509.4 509.5 504.9 500.8 504.5 506.1 508.4 511.6 514.9 516.6 515.5 506.4 501.9 495.8 496 495.6 496.1 495.4 490.2 483.9 473.1 445.2
159.6 159.1 159.2 158.9 158.8 158.8 158.8 158.6 170.2 192.9 216.4 240.1 264.8 300.2 347.4 381.9 420.2 450.5 482.4 503.1 504.8 483.8 457.3 432.3 411.9 387.9 363.6 344.5 329.1 310.7 292.8 272.8 255 237.1 227.3 232.8 250 267.6 284.8 304.5 327.2 353.8 381.1 414.3 448 483.9 522.6 555.8 584.7 606.9 593.8 569.6 546.1 521.5 502.9 482.4 465.2 455.2 441.3 423.7 423.7 423.7 423.7 424.9 431.2 438.3 449.4 461.6 474.6 493.1 519.1 547.6 582.4 615.7 648 680.3 710.4 726.4 735.8 728.1 700.8 671.3 642.2 616.6 583.5 559.4 544.3 535.8 535.2 544.2 551.5 553 550.4 548 541.7 538.1 531.3 523.7 515.6 509.6 506.5 504.4 505.7 506.9 503.6 501.1 500.5 495.1 481.4 472.9 460.3 450.9 440.7 433.9 430.5 429.4 429.7 428.5 428.8 426.9 429.2 426.8 426.5 423.3 420.9 415.8 411.3 404.9 401.1 389.3 375.7 364.2 353.2 339 343.6 340.4 334.4 328 316.1 313.5 295.3 272.1 247.1 238.1 238.1 238.1 238.1 238.1 238.1 238.1 238.1 238.1 238.1 238.1 238.1 238.1 262.6 287.7 302.7 319.3 329 353.5 370.7 391.3 415.7 437.8 447.2 459.3 470.8 484.8 506.5 509.5 509.5 503.7 500.4 500.5 520 517.7 516.9 505.8 502.8 502.3 506.4 508.5 510.8 513.1 516.3 513.5 510.8 504.9 502.7 500.9 500.3 503.3 502.4 498.3 491.9 484.3 464.9 435.1
160.4 159.7 159 159.1 158.9 158.7 158.9 160.6 173 195.8 221.6 245 273.4 311 355.1 392.4 428.5 463 497.5 525.9 526.7 503.2 477.2 451.7 431.5 408 382.8 359.2 340.7 320.5 301.6 283 267.6 249.3 234.2 233.7 250 260.4 283.3 300.6 326.9 353.4 380.4 411.6 449.3 488.8 526.9 568.2 602.6 626.3 611.9 586.7 564.8 540.5 516.4 497.5 477.2 459.1 441.2 423.8 423.7 423.7 423.7 423.7 427.9 434.7 445.4 451.7 467.6 482 502.7 530.7 562.4 593.1 626 661.4 695.3 713.6 724.1 718.8 683.3 638.8 610.3 586.9 569.9 550.5 535 527.5 525.8 530.8 533.5 534 536.1 531 527.3 521 513.1 503.6 493.2 484.8 476.2 469.4 470.3 467 463 463.6 460.7 460 449.8 437.8 431.1 420.4 412.2 408.5 408.1 406.6 405.2 405.7 405.2 410.3 411.1 408.3 410.7 408.5 405.5 400.6 395.5 389.4 380 374.9 365.8 356 345.3 338.5 330.3 329.4 324.9 316.8 312.3 307.2 293.2 266.1 244.1 238.1 245.3 238.1 238.1 238.1 238.1 238.1 238.1 238.1 238.1 238.1 238.1 238.1 262.5 286.9 303.2 315.9 336.8 345.9 367 388.2 411.7 429.4 440.9 454.9 469.1 482.4 495.9 504.1 510.3 507.6 517.3 513.1 525.1 519.8 515 508.6 505.8 502.7 504 507.8 509.9 511.3 512.6 511.3 513.8 512.4 509.7 507.3 508 508.4 503.7 496 480.3 462.1 442.2 419.3
160.4 160.4 159.8 159.6 159.3 159.1 159.3 163.5 178 199.8 223.9 249.5 280.8 322.9 364.7 398.8 436.4 473 504 531.9 540.4 525.5 500.8 475.2 452.6 430.9 403.9 378.3 351.6 329.3 307.8 291 274.4 254.5 239.4 233.1 244.7 262.3 276.6 298.1 321 346.4 374 406.3 443.4 479.6 519.1 559 604.9 642.5 633.3 605.9 585.1 559.8 534.7 511.7 487.4 468 452.1 432 423.7 423.7 423.7 423.7 424.3 428 431.8 437.8 456.8 471.8 491.6 514.9 542.7 571.8 609.9 647.7 676.3 694.5 708.7 715.1 678.7 644.6 606.4 579.3 563.7 547.8 531 525.5 523.5 523.8 523.7 519.3 518.2 517.8 511.8 505.9 495.5 485.9 474.1 462.8 452.8 445.4 437.3 431.1 429.8 427.7 429 423.3 415.4 412 405.3 397.1 390.6 391.6 390.2 389.1 388.5 390.9 388 393.2 394.4 395.2 394.1 391.1 388.8 386.6 382.6 376.8 367.9 360.5 354.4 347.6 339.1 332.9 320.6 320.6 316 310.1 306.2 296.5 282.9 265.7 246.8 240.3 248.9 240.3 238.1 238.1 238.1 238.1 238.1 238.1 238.1 238.1 238.1 238.1 253.5 274.6 294.8 310.8 329.4 343.7 370.3 391.1 413.2 430.5 441.3 453.9 476.4 480.9 492.2 500.6 509.6 514.9 522 517 519.1 512 507.3 502.8 503.3 501.4 500.8 502.9 508.7 510.9 511.9 513.7 515.3 514.6 513.2 513.6 514.9 512.1 503.2 485.3 463.5 442.4 422.2 401.9
160.5 160.8 160.2 160 159.8 159.6 159.9 166.6 183.1 203.6 228.8 257 292.6 338 376 410.6 445.7 478.8 511.3 539.9 550.2 543.9 524.2 498.8 474.6 449.8 424.1 399.8 376.5 344.1 321.6 302.6 281.5 263.7 245.9 236.4 238.9 247.7 271.4 292.9 316.8 341.1 367.9 400.3 434.7 473.1 513.8 568.1 611.1 651 657.1 631 606.3 581.1 556.3 527.5 501.8 479.1 457.5 440.7 423.7 423.7 423.7 423.7 423.7 423.7 424 436.8 449.1 461.8 481.3 502.2 527.5 559 593.2 628.7 646.9 678.5 699.7 711.7 704.6 676.4 627.4 592.9 571.3 555.9 544.2 534.1 528 524.3 519.5 510.9 504.4 502.9 495.9 488.3 478.6 467.9 456.8 445.9 432.6 425.4 417.4 408.1 404.5 403.5 400.6 397.2 390.8 388.4 382.2 379.1 377.1 375.1 375.3 375.9 375.6 375.4 376.3 377.5 378 378.5 377.3 375.9 374.7 372.2 368.8 364.4 356.7 349.6 344.2 335.9 330.2 322.3 314.2 310.5 308.7 303.6 298.9 285.1 272.3 260.4 244.9 244 245.3 245.7 238.1 238.1 238.1 238.1 238.1 238.1 238.1 238.1 238.1 238.1 253.6 273.2 290.8 307.5 322.6 349 378.1 393 412.7 427.5 442.1 458.2 472 486.6 495.6 506.2 512.5 518.8 512.1 510.6 515 512.6 503.2 499.1 500.7 503.7 500.6 501.2 510.1 511.2 512.2 515.6 518.6 521.9 521.5 522.9 527.2 519.1 500.1 477.3 452 428.7 404 386.5
161.4 160.9 160.2 160.3 160.3 159.6 162.9 172.8 187.6 209.7 236.1 270.1 308.7 345.3 386.3 421.7 453.7 487.5 519.1 547.5 560.1 562.2 551.2 527.2 506.5 477.4 445.2 421.8 391.2 358.1 331.3 314.5 291.6 272.3 250.9 240.5 239.3 243.7 260.8 282.2 306.8 330.4 357.8 389.2 424.3 460.6 501.8 550.8 597.6 647.3 669.5 660.8 633.1 606.3 583.1 551.8 523 493.5 467.6 454.3 435.1 423.7 423.7 423.7 423.7 423.7 423.7 425 438.2 454.8 469.5 489.3 512.2 542.5 575.3 599.5 639.6 671.7 696.2 710.3 722.8 708.6 661.1 627.3 595.4 578.1 565.1 555.6 544.3 531.9 522.2 510 496.1 491.9 481.2 467.6 461.1 446 435.5 422.8 412.1 407.5 398.1 392.9 388.7 387.1 383.8 380 376.3 374.1 370 366.7 363.5 361.9 361.7 361.4 361.2 360.3 361.2 362.1 363.7 363.7 364.5 364.1 361.9 359.8 357.3 353.8 347.7 339.9 337 329.3 322.5 315.4 299.9 299.4 296 291.9 283.3 273 263.6 250.8 243.5 240.1 239 238.1 238.1 238.1 238.1 238.1 238.1 238.1 238.1 238.1 238.1 238.1 247.3 263.5 282.2 301.2 319.1 347.1 372.1 392.5 415.7 426.1 444.6 461.7 471.5 482.8 493.6 504.1 513.1 513.4 507.3 503.9 508.1 508.2 499.9 497.8 498.3 498.7 496.5 501.2 511.6 513.4 516.3 525.8 529.7 530.5 534.6 539.8 534.2 523.9 499.3 467.1 438.5 412.6 391.9 373
161.8 161.2 161 160.8 160.2 160.3 168.7 177.9 196.2 217.6 242.5 276.1 315.9 356.3 393.9 429.7 463.3 497.8 529.7 551.3 567.1 579.1 579 558.7 533.6 499.6 468.1 439.1 401.8 370 342 325.4 305 283.8 259 245 241.3 243.3 255.2 280.1 292.9 321.5 351.3 383.5 410.5 452.4 494.4 544.3 602.2 638.1 670.2 679 676.2 633.7 602.7 571.3 542.4 510.1 483.7 462.9 440.5 430.4 423.7 423.7 423.7 423.7 423.7 423.7 432.4 445.5 461.2 480.4 502.9 529.7 559.7 596.3 635.3 667.1 691.3 710.2 724.7 729.4 695.2 658.6 637 621.6 607.3 592.1 555.4 536.6 526.8 514.5 501 487.1 461.5 450.8 438.4 425.8 411.4 401.3 396.3 390.6 381.4 377.3 374.3 372.1 369.1 365.6 364.2 360.9 358.3 354.5 351.5 349.1 347.7 347.5 347.1 346.5 349 348.8 349 350.8 350.2 349.7 348.9 347.3 344.1 340.8 337.1 331.5 327.7 319.6 314.3 308.5 293.1 282.7 279 273.6 269.7 262.8 251.1 243.7 240.5 238.1 238.1 238.1 238.1 238.1 238.1 238.1 238.1 238.1 238.1 238.1 238.1 238.1 241.4 256.4 275.6 299.8 319.2 343.3 367.8 389.4 412.1 426.5 439.2 453.7 467 483.9 489.5 493 497.4 503.9 501.8 499.4 501.4 503 497 492.3 493.1 492.7 495.2 501.2 510.7 516.8 521.1 533.7 539.1 542.1 545.9 547.1 534.8 512.2 486.3 453.8 425.2 400.8 382.9 365.8
