ncols 200
nrows 82
xllcorner 340000
yllcorner 525300
cellsize 50
297 294.3 292 292.2 296.6 299.7 295.5 293 294.4 296.1 297.4 294.6 296.1 296 295.1 294.4 293 288.8 287.3 284.9 283 280.6 278.3 276.2 273.5 270.1 268.2 266.4 265.6 265.3 265 264.7 265 266 267.2 268.7 270.3 270.6 274.6 278.5 276.9 276.7 276.2 276.3 277.5 278.5 277.8 276.5 276.2 276.4 277.8 279.2 279.9 279.8 280.1 278.3 273.8 267.8 266.6 268.4 269.6 270.8 270.9 268.1 263.5 259.1 254.8 250.8 245 234.7 228.3 222.5 222 218.5 214.4 213.4 211.3 209.2 208.6 207.3 206.1 205.7 205.3 205.5 206.3 205 204.1 203.9 203.6 202.2 201.3 199.9 200.2 203.1 202.9 202.5 205.3 210 214.4 218.1 221.8 225.4 224.3 221.7 219.3 217 215.4 222 228 236.7 242.9 244.6 243.9 245.3 248.1 248.8 249.8 248.2 248 247.3 245.1 243.4 241.7 239.4 237.2 235.3 233.9 231.6 223.9 223.8 224.7 224.7 224.9 222.7 232.2 230 231.5 230.8 228 224.4 221.5 221.6 220.6 219.3 216.8 216.5 214.8 212.7 212.1 211.9 211.3 208.3 204.9 200.3 197.9 197.3 196.8 196.8 196.8 192.6 191.8 188.2 185.9 182.8 179.6 177.9 177.2 176.8 177.7 180.7 182 184.3 186.4 188.1 187.4 186.7 185.4 184 184.1 181.4 178.2 176.7 174.2 175.6 175.6 176.5 177.2 178.1 177.4 175.3 171.4 167.8 166.6 165.6 163.6 161 158.8 158.6 159 159.6
293.8 292.4 291.3 291.7 296 299.6 296.5 292.8 290.6 292.2 293.8 290.7 289.1 290.3 289 288.1 288.5 286.1 283.7 283.1 281 280.2 278.5 276.1 273 269.7 267.7 266.2 265.8 265.4 265 264.8 265.7 266.1 266.9 268.1 270.2 270.4 274.4 277.1 276.2 276.3 275.8 276.2 277.6 279.1 278.3 277.4 277.3 276.9 277.6 278.2 279.9 280.9 281.1 277.5 270.2 267.5 268.4 269 269.6 270.4 269.6 266.2 261.7 257.3 252.8 249.6 245.2 235.1 228.6 224.3 223.8 218.1 215.4 212.8 210.4 209.7 210 208.2 206.8 206.5 207 207.2 208.1 208.6 207.2 205.9 204.9 203.6 202.2 201.4 200.7 201 201.7 202.3 205.4 210.1 214.7 218.5 222.4 225.6 225.8 223.8 221.4 219 216.9 218.8 224.8 230.9 237.6 244 241.4 244 246.7 250.1 251 249.4 249.3 249.6 247.1 245.2 243.4 240.8 239.3 237.6 235.3 229.4 226.5 224.5 226.3 222.3 222.4 223.9 233.9 230.4 231.2 230.8 228.9 225.4 222.1 222.1 221.6 221 219.2 217.4 216.5 215.4 214.7 214.3 213.6 211.7 208.2 205.6 202.2 198.5 198.5 199.1 199.4 197.4 191.5 188.6 186.6 184.5 180.4 177.9 176.7 175.8 176.2 179.4 180 182 184.4 188.4 188.3 187.5 186.6 184.1 184 183.4 180.7 178.1 176.7 175.3 175.3 175.9 176.7 177.8 178.2 176.5 174.1 171.6 169 167 165.2 162.7 160.1 158.7 158.6 159.8
290.3 290.6 290.2 291.5 295.1 298.7 296.5 293.7 290.1 289.3 290.4 288.7 284.9 284.8 285.8 285.8 286.7 284.2 281.7 280.5 279.4 279.8 277.9 274.7 271.3 268.6 266.8 266 265.6 265.2 265 264.7 266.1 266.5 266.1 268.3 269.8 271.2 275.9 276.2 275.8 275.6 275.7 276.4 277.5 279 279.2 279.7 279.1 278.7 277.8 277.5 279 280.2 278.9 273.3 270.3 270.8 268.7 268.7 268.8 269.6 268 263.8 259.7 254.4 249.4 245.6 238.6 233.4 227.9 225.5 223.3 217.6 215.7 212 212.1 210 211.4 210.1 207.8 208 208.2 208.4 210.4 211.3 209.3 207.4 206.1 205.2 204 202.9 202.2 201.7 202.1 202.7 206.2 210.6 214.8 218.9 222.9 225.7 226.6 225.4 223.4 220.1 217.9 217.7 221.4 227.1 231.9 238 240.6 242.4 246.1 250.8 252.2 251.1 250.7 250.7 248.8 247 245 241.6 239.6 238.5 237.3 234.8 228.4 229.8 238.5 239.6 226.7 222.8 226.6 240.5 232.8 231.9 230.5 226.6 223.6 222.8 222.5 222 221.2 220.6 219.1 218.2 217.2 216.5 215.9 215.2 212.6 210.7 205.8 201.8 201.3 201.8 202.1 200.8 195.4 191.6 187.7 184.2 182.3 178.8 176.3 175 175 175.4 176.5 180 184.1 186.9 188.2 186.5 186 185.9 185.1 182.7 180 178.3 177 175.9 175 175.3 176.5 177.7 177.9 176.3 174.7 171.7 171.4 168.1 166.2 164.4 161.5 159.3 156.6 157.8
289 289 289.8 291.4 294.1 297.5 296 293.2 289.8 287.4 286.8 285.5 283.9 283.4 283.9 285.2 284.7 282.1 280.5 279.3 278 276.1 272.3 270.7 268.9 268 266.7 265.9 265.5 265.2 264.9 264.7 266 266.1 265.5 268.3 268.6 272.3 276 276.2 276 276.2 276.3 277.3 278.1 279.8 281.5 281.5 281 280 278 277.8 278.7 278.9 277.2 272 273.9 272.6 270.1 269 269.1 267.9 265.6 261.5 256.8 252.4 250.3 246.2 237.4 231.7 228.2 225.4 220.5 217.5 214.8 212.8 212.8 210.8 211.9 209.8 208.7 209 209.3 210.1 212.9 214 211.9 209.7 208.5 207.2 206 204.6 203.7 203 203.4 204.2 205.1 209.3 214.6 218.7 222.6 226.1 227.1 226.2 224.7 221.7 219 218.8 219.6 223.3 228.1 232.4 235.7 240.4 246.1 249.9 252.9 252.8 252.1 251.8 249.8 248.9 248.6 244.3 243.1 242.2 242.3 240.4 242.4 246.5 247 247.1 231.8 224.5 224.6 236.1 234.8 233.3 231.8 228.3 225.3 223.6 223.2 224.1 224.3 224.4 223.5 222.4 220.7 219.6 218.7 217.8 216.9 213.2 208.4 205.9 204.3 203.6 203.7 203.2 198.6 193.4 191.1 187.3 185.4 180.9 177.7 175.3 174.5 174.4 174.7 177.6 181 184 185.3 185 184.6 185.3 187 186.1 182.2 179.4 177.6 176.4 175.8 174.7 176.2 177.5 177.5 176.8 175.4 172.3 171.3 168.9 167.9 166.5 163.9 159.8 156.3 154.9
288.8 289.3 289.8 290.8 293.2 296.5 295.6 293.3 290.4 286.5 285.9 284.9 283.4 283 283.2 283.6 282.8 281 279.2 277.1 276.4 277.8 277.6 275.3 271.9 269.9 267.9 266.3 265.2 265 264.8 264.6 265.5 266.1 266.4 268.7 269.2 271.5 274.3 276.5 278.3 276.9 277.4 278.3 279.5 281.4 283.5 283.9 282.8 281.3 279.5 280.2 280.5 278.4 274.4 273.9 275.3 274 271.6 270.2 268.5 264.8 262.3 258.9 254.5 251.4 248.5 242.7 235.9 231.2 227.4 225.2 220.9 216.8 214.1 213.7 212.3 213.4 213.4 211.4 210.5 210.4 210.4 213 215.4 216.8 214.3 212.8 211.4 209.4 207.8 206.4 205.4 204.7 204.9 205.6 205.2 208.4 214.4 218.4 222.2 225.9 227.6 226.8 226.1 222.8 220.5 220.4 220.8 221.9 224.4 227.7 232.7 238.5 244 249.4 251.3 253.6 253.6 252.7 251.5 251.4 249.9 248.1 247.1 246.3 246.8 245.4 242.5 249 253.9 252.4 240.5 235.6 228.3 233.8 236.3 234.9 233.5 231.3 227.4 224.8 225.7 227.7 227.8 228 227.7 226 224.4 223 222 221.2 217.8 215.1 212.4 210.2 208.6 206.1 205.4 204.4 200.9 195 191.8 189.3 187.4 185.4 181.7 178.7 175.5 173.9 173.7 174.4 175.7 180 182.3 185 184 182.7 184.3 187.7 185.8 183 181 177.9 177 176 176 175.6 176.4 177.4 176.8 173.1 170.3 168.4 167.2 167.8 165.6 160 159.5 156.5
288.5 288.6 289.1 289.3 292.6 296 296.3 293.7 289.5 284.8 284.5 283.8 282.8 282.5 282.3 282.7 281.3 279.7 278 277.9 279 279.6 278.7 276.2 272.9 271.6 268.7 265.8 264.6 264.4 264.4 264.6 265.9 265.8 267.2 269.2 270 271.2 273.3 275.9 277.7 279.4 276.5 277.9 280.7 283 286 286.4 284.8 283.4 283.3 283.4 282 280.1 274.5 279.3 277 274.4 272.4 271 267.2 263.1 259.9 256.6 252.9 249.6 246.3 242 237.1 230.3 228.9 227.1 220.8 215.1 213.8 213.3 212.9 218.4 215.9 213.3 212.4 212.2 212 215.1 217.8 219.4 216.3 214.7 213.9 212 210.1 208.9 207.7 206.6 206.1 207 206.4 208.3 214.2 217.9 221.7 226.3 228.2 227.3 226.7 224.2 221.7 221.3 222.3 220.9 222.3 226.3 231.5 237.4 244.2 248.6 253.9 254.1 254.6 255.9 256.9 255.6 254.2 252.5 251.2 250.1 250.5 248.5 246.5 248.9 254.1 256.2 254 239.6 231.7 234.4 237.3 235.8 234.5 231.9 228.8 226.4 227.7 230.8 231.6 231.2 230.5 229.6 228.3 226.5 225.2 223.3 220.9 218.9 216.7 214 209.3 207.6 207.4 205.1 202 196.3 192.2 190.2 189.5 187.7 184.8 180.8 177.3 174.7 173.5 173.4 173.4 174.4 176.7 180.3 180.7 179.7 180.9 186.2 186.5 184.8 183.5 181.6 178.5 176.7 175.5 174 173.1 173.6 172.5 170.3 168.7 168 166.5 166.9 163.7 164.2 162.6 158.9
288.1 288.1 288.3 289 292.1 295.4 296.6 293.5 288.3 284.6 283.3 282.6 282.1 281.5 281.3 281.3 279.7 279 278.1 278.6 279.3 280 278.8 276.6 274 273.5 271 265.5 264.3 264.1 264.2 264.4 264.3 265.9 269.5 269.3 270.1 272 274 276.4 277.4 277.3 277.4 278.6 282.1 284.5 287.5 288.4 287.6 285.7 285.7 286.3 285 280.6 281.6 280.5 278.1 274.8 273 270.7 266.2 262.2 259.2 255.2 250.5 247.1 244.8 240.6 234.6 232.3 226.3 219.9 217.7 216.2 214.6 214.2 214.6 219.3 216.7 215.1 214.4 214 214.1 218.1 220.3 221.9 218.4 216.6 216.3 214.7 212.7 211.5 210.1 209 207.8 208.3 207.3 208.1 213.7 217.5 221.2 226.4 228.7 227.8 227.2 226 223.1 222.1 223 221.6 223.2 226.1 230.7 236.1 243.4 247.8 254.6 255.8 256.9 259.8 260.4 259.2 257.7 256 254.6 253.8 254.2 253.7 250.7 249.1 257.9 259 256 240.8 234.9 242.9 238.4 237.4 236 234 230.4 228.4 231 232.8 233.4 233 232.9 232.1 230.8 226 228.2 226.2 224.6 221.7 219.3 214.6 210.8 209.4 209.1 208.1 203.8 198.1 194.2 192.1 190.3 190.1 188.1 184 180.6 178 175.4 174.5 173.5 173.1 173.8 176.8 180.2 177.4 178 181.2 187.1 185.9 185 183.6 181.2 178.1 176.2 174.8 172.9 171.8 169.9 167.7 166.8 167 165.9 164.8 165.1 166.7 164.4 162.1
287.7 287.8 288.2 288.8 291.5 295 296.4 293.6 286.2 283.8 282.7 282.2 282 281.3 280.6 280 279.7 278.9 279.3 280 280.6 281.3 279.1 276.7 274.8 274.2 272.1 265.4 264.5 264.2 264 264.1 264.2 268.2 270.9 270.3 270.9 272.8 274.8 277 277.2 277.1 278.3 279.7 283.8 285.9 287.8 290.9 290.6 288.7 286.4 287.7 283.6 286.3 285.3 282.7 279.3 275.6 272.6 269.3 264.9 260.6 256.6 250.8 249.2 246.3 242 238 235 229.8 222.9 225.9 225.6 223.4 220.5 216.3 218.3 220.8 218.3 217.5 216.3 216 216.5 220.5 223.6 223.8 221 219.1 218.9 217.3 215.4 214.4 212.2 210.6 209.4 209.2 208.9 208.1 212.1 216 220.1 225.7 228.7 228.5 228.3 227.7 224.8 223.3 223.5 223.4 224.1 226.2 230.3 235 241 249 254.8 256.9 259.2 261.8 262.7 261.5 260.2 258.1 258.1 258.9 259.3 257.8 253.7 251.1 257.1 257.3 256.3 244.1 238.2 243.7 240.3 239.1 238.3 236.7 232.6 230.2 230.3 235.8 235.1 235.7 235.3 234.9 233 228.9 230.8 228.9 227.1 223.9 219.4 215.3 213.7 212.1 211.2 209.3 207 198.7 197.4 195 192.2 190.7 190.4 187.9 183.7 181.5 179.2 176.7 175.6 173.9 173.2 175.3 177.8 177.6 179.1 179.4 183.9 186.6 187.1 185.1 182.9 180.5 178 175.5 173.5 173.8 170.2 167.5 166.3 166.7 166.7 166.6 165.2 164.1 165.3 163.4
287.4 287.6 288.2 288.7 291.3 294.7 295.9 293.6 287.7 283.1 282.2 282 281.8 281.2 280.8 280.6 280.6 279.4 280.2 281.2 281.8 281.8 279.6 276.5 273.8 273.6 270.1 266 264.8 264.2 263.9 264 265.4 270.2 271.5 271.3 271.8 273.7 275.9 277.7 277.3 277.3 278.8 281 283.8 286.7 287 286.7 288.7 284.2 286.5 286.6 288.3 288.3 286.2 283.4 279.2 275 271 267.8 263 258.8 253.4 251.2 248.5 243.4 239.4 237.8 234.1 227.6 224.1 228.6 227.3 225.4 223.1 218.6 221.2 222.8 220.6 219.4 217.6 217.1 218.8 222.7 226.1 226 223.1 221.8 221.8 219.9 218 217.3 215 212.4 211.3 211.3 210.4 209.1 212.8 216.6 220.3 225.1 228.4 229.4 229.7 229.1 226.3 224.6 225.9 225.1 225.6 227.2 229.3 235 240.3 246.3 253.3 258.4 261.4 261.6 263.8 263.2 262.8 261.2 261 261.6 262.4 260.1 254.9 254.4 253.8 249.1 245 241.6 240.1 245.6 240.7 239.3 238.5 237.6 235.3 232.3 232.4 235.8 237.4 237.6 237.4 236.9 233.8 233.7 232.5 230.9 227.8 223.9 219.5 216.5 215.2 214 212.3 210.9 206.1 202.3 199.2 196.2 193.6 191.4 188.8 187.2 185.7 183 181.6 179 177.5 175.5 173.6 173.3 174.8 176.8 177.9 178.5 179.4 183.5 184.7 186.4 186.2 182.7 179.4 176.9 176.3 179 179 170.3 167.5 167.6 169.8 169.4 166.1 164.4 163.6 162.9
287.9 287.5 288.1 288.7 291.6 294.7 294.9 292 287.5 284 282.3 282 281.8 281.7 281.6 281.4 281.2 280.2 280.8 282.3 282.6 281.6 280 276.9 273.7 271 269.5 266.2 264.4 264 263.9 263.9 266.5 270.6 271.2 270.7 272.5 275.3 278.1 278.7 278.2 277.6 278.7 280.9 283.8 286.2 286.6 285.7 285.3 286.1 289.7 289.9 287.7 286.4 283.1 281.6 278.1 274.3 269.1 263.7 259.2 254.3 252.9 250.2 247.8 244 240.1 237.5 230.7 226 227.2 229.7 228.2 226 223.6 220.6 223.6 223.7 222.4 220.3 220.2 218.9 221.1 224.7 228.1 228.2 225.2 224.4 224.4 222.3 221 220.2 217.6 214.9 213.5 213.1 211.8 210.6 212.8 216.4 219.9 223.6 227.4 228.8 230.6 230.1 228.3 225.9 227.5 226.8 228.5 228.3 230 235.1 238.1 244.2 253.7 260.9 259.8 262.4 266.2 266.8 265.6 264.5 263.3 263.4 264.3 261.5 256.6 253.6 253.2 247.2 239.8 241.2 246.8 247.8 241.7 239.9 239 238.2 237.9 235.5 232.1 233.1 238.8 239 238.7 237.7 235.1 232.7 231.3 230.1 227 223.9 220.4 217.4 215.9 214.4 213.3 211.7 206 203.4 199.9 197 194.4 190.3 187.4 186.3 184.1 183.1 183.4 180.7 179 177.4 175.5 173.5 173.2 178.5 179.2 177.4 176.2 177.8 180.4 182.3 186.3 185.9 182.6 179.9 177.9 176.2 172.5 168.6 168.8 169.3 170.2 169.6 167.4 165 163 162.3
288.4 287.4 288.1 289 291.7 294.1 293.6 289.7 286.2 284.2 282.6 282.4 282.4 282.3 282.2 282.3 281.6 280.5 281.1 282.5 282.7 281.4 280.3 277.3 274.8 272.3 270.3 267.1 265.2 263.9 263.9 264 266.7 270.8 270.5 271.2 273.4 276.2 277.9 279.2 278.5 277.7 278 281 284.1 285 285.7 285.5 285.5 286.7 291.2 289.2 286 283.8 281.6 279.9 275.8 269.8 267.6 262.9 258.6 257.2 254 249.9 247.4 245.6 240.3 234.3 228.7 229.8 231.9 230.6 228.3 225.6 223 223.4 224 224 222.8 222 222.3 221.3 223.9 227.3 230.1 230 227.8 227 227 224.9 223.4 222.6 220 217.2 215.6 214.6 213.4 212.2 213.4 216.1 218.9 222.1 225.8 228.3 230.6 230.6 229.8 227.4 229 229 231.2 232 233.2 235 237.9 245.3 253.3 258.8 259.5 263.3 266.1 269.9 269.5 268.7 267.6 265.9 265.3 262.9 257.8 249.5 243.2 241.7 239.9 244.8 247.4 246.5 243.7 241.2 240.3 238.8 238.6 233.9 232 233.8 239.3 241.4 239.6 237.6 234.6 231.6 230.1 228.7 226.4 223.4 220.6 216.6 213.7 212.1 211.4 210.7 207.2 206.7 201.5 196.9 193.4 189 185.3 183.4 183.7 183.9 184.7 181.6 179.1 177.4 176.6 175.8 173.4 172.9 172.1 178.1 177.8 176.2 177.2 178.7 180.3 184.3 186.4 183 178.1 173.1 170.5 170.8 170.4 170.2 170.4 169.8 167.8 164.4 162.5 160.7
288.7 287.2 287.8 289.3 291.7 293.1 292.9 289.9 286.9 284.1 283.3 283.3 283.3 283.7 283.9 283.1 281.9 281 281.1 282 282.5 281.3 280 277.8 275.6 273.3 271.9 269.2 265.9 263.8 263.9 264.4 266.9 270.4 270 271.8 274.2 275.8 277.5 279.1 278.3 278.1 277.9 279.2 281.6 283 284.3 284.8 283.8 287.9 289.4 286.7 283.4 284.3 279.5 275.4 271.8 271.8 269.4 264.3 259.9 258.8 253 248.2 247.7 245.8 239.1 231.5 235.3 235.8 233.6 230.5 227.4 225.3 223.7 224 224.6 224.6 223.4 224.3 224.1 222.9 226.1 229.2 232.1 232.3 230.6 229.9 229.5 227 225.4 224.7 222.3 218.5 217.1 216 215 213.8 214.2 216.2 218.5 220.9 225.2 228.3 230.6 231.2 231.4 228.5 229.8 230.3 232.5 235.2 236.6 236.4 240.9 242.2 249.9 254.7 259.2 261.7 268.8 269.6 272.2 271.7 271.4 270 267.1 263.3 259.2 252.6 246.5 245.9 245 250.9 252.5 248.6 245.9 243.6 242.9 239.2 237.4 236.1 235 233.9 234.2 237.1 237.1 236.1 233.6 231.2 229.6 228.1 225.5 223.3 220.5 215.6 212.2 209.9 208.7 207.9 207.4 206.2 201 196.8 193.5 191.3 186.4 181.2 181.7 183.5 184.9 183.7 180.5 178.5 176.7 175.4 174.6 175 173.4 170.9 176.9 177.9 177.4 176.2 175.8 178.2 181 180.5 179.3 176.2 172.3 173.7 172 170.3 169.9 169.2 168.5 165.5 162.3 159.1
288.8 287.7 287.6 289.7 291.8 292.6 292.7 290.4 287.4 285 284.3 284.4 284.6 285.4 285.1 284.4 283.3 282 281.9 282.1 281.9 281 279.4 277.7 275.9 274.6 273.6 270.7 266.2 264 263.7 264.6 268.2 268.5 271.4 272.7 274.3 276.2 278 278.4 278.2 278.4 277.9 278.3 279.2 281.1 281.3 281.7 284.2 285.1 286.8 286.1 287.9 286.9 284.7 280.2 275.4 273 268.7 263.9 261.8 258.5 251.9 249 246.2 241.4 234.9 234.6 239.4 236.9 234 230.8 227.9 226.2 225.3 224.8 225.5 225.7 225.5 226.4 226.2 225.7 228.1 231 234.1 234.6 233.4 232.7 231.8 229.2 227.3 226.7 223.7 220.7 219.3 217.9 216.4 215.3 215 216.2 218.5 220.8 225.2 227.9 230.4 232.2 233 230.2 231.1 231.7 233.7 236.8 236.7 238.1 242 243.1 245.6 252.1 257.8 260.8 265.9 271.5 270.6 274.6 274.5 273.8 271.7 267.7 263.6 262.6 256.1 261.4 257.9 255.4 252.8 250.8 248.3 245.8 244.3 239.8 238.1 239.2 238.1 235.7 233.9 233.4 232.6 232.5 231.7 230.7 229.1 227.5 224 220.7 217.7 214.7 209.9 208.3 207.5 207.3 206.5 204.1 199.5 195.6 193.6 191.5 187.7 181.4 179.1 181.1 183.1 182 181.1 181.7 179.2 178.1 176.1 176.3 176.8 172.5 169.4 176 177 176.1 174.5 175 175.5 177.4 179 178 177.4 174.9 172.4 170.5 168.3 167.4 167.4 165.9 161.7 159.7
288.9 288.1 288 290.1 291.5 292.2 292.5 290.1 287.8 285.8 286.2 285.3 286.3 286.5 286.4 286.1 284.5 282.8 283.2 283.2 281.6 280.5 279.7 278.8 277.8 276.8 275.4 271.8 266.8 264.7 263.6 265.1 268.3 270 271.1 273.3 275.8 276.9 277.6 278.1 278.2 277.9 277.5 277.8 278.8 279.6 281.8 284.3 284.5 284.5 286.2 288.2 287.8 286.9 285.2 279.5 277.2 273.8 268.8 265.8 262.3 258 250.9 250.3 245.1 237.1 234.7 239.4 240.1 236.7 234.1 230.9 228.8 226.7 226 225.8 226.7 227.2 227.3 228.8 226.6 228 230.1 233 236 237 236.2 235.6 233.6 230.9 228.8 228.1 225 222.9 221.6 220.1 218.7 217.2 215.8 216.6 218.9 221.5 225 227.6 229.8 232.7 234.3 232.3 232 233.1 235.5 238.2 239 239.2 242.3 244.6 244.8 250.1 255.8 259.7 263.7 269.9 275.7 273.3 276.7 276.1 274.7 271.8 268.7 266.7 266.8 266.3 262.1 258.6 255 252.9 249.1 246.6 244.7 241 239.1 239.9 240.1 237.4 235.6 233.6 231.9 230.8 229.9 229.8 228.6 225.4 221.6 218.1 215.9 213.4 209.9 207.6 206.2 203.9 202.1 200.2 197 193.2 190.7 189.8 188.8 183.2 178.3 178.6 180.8 181.1 181.3 181.3 180.7 177.8 176.3 176.7 176.6 174.4 170.2 167.8 169.8 172.9 174.5 174.3 172.2 172.4 174.2 176.1 176 173.9 171 168.9 167.2 165.9 164.6 164.3 162.6 161.4
289.3 287.6 288.1 290.4 291.9 292.1 292.2 290.2 288.3 289.3 288.7 286.9 288.1 288.7 288.6 287.4 285.3 283.8 284.5 284.5 282.9 281.7 280.9 280.2 279.7 279 277 273.2 267.6 265 264.2 266.3 269.4 271.3 271.7 274.3 276.2 276.8 277.3 276.7 276.5 276.5 277 275.2 279.7 280.8 281 284.1 284.2 283.6 285.3 286.7 286.8 285.8 283.3 278.5 277.3 273.2 269 266.2 262.9 256.7 252.8 249 243.7 235.8 237.9 243.1 240 235.7 233.1 232.5 230.9 228.2 227.5 227.4 228.4 228 228.9 230 228.2 230 231.7 234.9 237.8 239.5 239 237.7 235.5 232.1 230.5 229.3 226.7 225.1 223.8 222.4 220.9 219.5 217.6 217.6 218.5 221.2 225.6 228.3 228.5 231.7 235.1 234.1 232.6 234.7 236.9 239.6 241.6 242.5 245.2 245.1 247 247.8 253.4 258.1 261.2 266.4 272.4 279.5 273.6 274.5 277.2 274.8 272.3 269.8 269.5 267.1 264.4 259.7 255.8 252.9 249.4 246.5 243.9 242.9 241.4 241.4 241.6 238.6 234.5 233 231.5 230.5 229 227.7 225.6 223.3 221.6 218.3 214.2 211.3 209 206.6 204.1 200.6 197.6 195.2 192.6 189 186.8 186.5 187.7 182.5 176.9 175.3 178.3 179 179.1 179.1 179 178.4 175.7 176.4 176.5 175.2 172.9 170.5 167.5 164.7 166.5 169.8 174 171.5 172 172.3 172.1 171.2 169.3 167.9 165.8 165.2 163.8 162.9 162.1 160.7
287.7 287.3 288.7 290.6 292.1 292.4 292.1 290.8 290.5 292.1 291.8 288.5 289.8 290.9 290.6 288.8 286.5 285.1 286 285.5 284.7 283.7 282.6 281.9 281.5 279.7 277.9 273.2 268.7 265 262.7 268.8 270.5 272.2 271.7 273.6 276.9 277.5 277.4 275.5 276 276.8 276.2 273.2 276.2 278.7 282.5 283.8 283.1 283.5 285.4 286.9 285.5 284.6 281.2 279.8 278.3 273.4 269.3 265.8 262 257.5 252.6 248.8 244.9 236.2 241.2 244.1 240.7 237.1 234.6 235.1 232.7 230 229.2 229.3 230.2 230.6 231.4 231.4 230.4 230.9 233.1 236.6 239.6 241.7 241.2 239.9 237.3 234 232.4 230.9 229.2 227.3 226.1 224.8 223.3 221.1 219.4 219.5 220.2 220.7 225.7 228.7 229.5 231.8 236.1 235.4 234.4 237.6 239.1 241.1 243.3 244.8 247.8 248.9 249.9 248.4 251.1 255.6 259.1 262.8 267.7 272.3 279.6 279.7 278.7 277.3 274.8 272.4 270.7 268.1 264.5 260.2 255.7 251.8 247.4 246.6 246.8 245.8 244 242.1 242.2 241.3 237.5 232.9 231.6 230 227.8 226.3 224.3 222.4 221 218.9 214.6 211.4 208.5 205.7 203.3 199.8 194.5 189.2 186.3 185.6 184.8 184.2 184.4 182.6 175.2 172.3 174.4 176.1 176.3 176.6 178.4 177.9 174 175.3 175.9 175.2 174.3 171.8 169.4 168.2 164.9 161.9 166.8 169.8 172.6 170.2 168.9 169.3 169.1 165.3 163.2 161.8 161.8 161.5 161 159.8
286.1 287.1 288.7 290.1 291.5 292.3 291.9 291.1 292.9 293.9 293.4 291.5 292.1 293 292.5 290.3 288.2 287 289.5 287.1 286.6 285.9 284.7 283.7 283 281.2 278 273.9 269.2 264.5 262 269.1 271.4 273.3 272.5 274.1 275.8 276.7 275 275.4 273.8 272.7 269.7 270.7 273.7 279.3 281.3 283 282.1 283.4 285.5 286.6 287 284.6 280.9 280 276.1 271.2 268.3 263.6 259.9 256.6 252.8 251 245.1 237.2 242.3 245.4 241.6 238.7 236.8 237.3 234 231.7 230.9 231.1 232 232 232.1 232.2 232.1 231.9 234.5 238 241.6 244.2 243.5 242.2 240 236 234.2 232.5 232.4 229.7 228.2 226.9 225.5 223.2 221.2 221.4 222.3 222.2 226.2 229 230.8 233.8 236.7 236.7 235.3 239 241.4 243.6 245.6 247 248.6 249.7 250.8 249 252.1 254 256.7 258.8 263.2 267.3 270.9 273.8 276.1 279.5 278.8 276.8 273 269.9 265.2 260.1 253.2 249 248.5 248.6 248.1 247.3 245.3 243.3 241.7 240.4 237.9 235.2 232.4 230.5 228.4 226.4 224.6 222.3 220 219 215.9 212.4 209.3 205.5 202.4 199.2 193.7 188.5 185.5 184.3 183.8 183.6 183.5 182.8 177.5 176.3 170.5 176.4 174 174.3 177.6 178 177.9 171.9 171.3 172.3 173.2 172.3 171 167.5 165.1 161.9 159.5 160.7 164.1 169.9 166.5 164.7 163.8 161.8 159.9 159.2 158.7 158.9 159.7 159.3
286 288 289.3 289.8 291.1 291.4 290.4 291.1 294.5 295.9 293.3 291.4 293.7 295.5 294.2 291.3 289.9 288.3 288.8 289.1 288.1 287.8 287 286.3 284.8 281.3 277.3 274.2 269.8 265.8 262.3 268.2 271.9 271.9 271.1 271.2 273.5 276.7 273.4 273.8 273.3 270 264.9 268.9 270.5 276.5 279.3 280.7 281.6 283.2 284.8 285.3 286.3 283.3 279.6 279.1 273 269.6 266.8 262.3 257.9 255.5 254.6 253.7 244.2 238.2 243.4 245.4 242.4 240.4 238.9 238.8 235.5 232.7 231.7 232.9 232.7 232.4 232.4 233.2 233.2 233 236.1 239.7 243.2 246 246.2 244.5 242 238.4 235.7 234.8 234.4 232.2 231 229.3 227.6 225.7 223.8 223.1 223.2 223.7 226.3 230.4 231.3 233.9 237.3 237.6 237 240 242.8 245.2 245.7 246.9 249.1 252.3 254.1 250.6 253 255.2 256.9 257.7 260.9 263.8 266.8 268.6 269.7 271.3 272.8 272.9 270.5 267.7 263.4 258.6 254 250.8 248.9 248.8 247.7 246.4 245.4 243.6 242.3 240.9 240.3 237.9 233.8 231.1 229 227 224.8 222.5 220.1 218 215.4 212.3 208.9 204.9 200.1 196 193.1 188.6 185.9 184.7 183.8 185.7 184 182.6 178.5 172.1 169.5 168.2 170.4 173.8 176 175.3 175 176.9 173 168.7 167.3 166 168.3 170.6 165.1 166.2 165.3 157.8 156 156.1 166.6 163.9 161.6 161.5 161.7 160.9 157.7 157.6 155.7 157
286.4 288.8 289.9 289.9 289.4 289.1 288.1 292.6 296 296.9 293.6 293.5 295.7 297.4 296.3 294.2 290.8 290 290.4 290.9 290.1 289.4 288.7 287.8 285.6 281.5 277.6 274.3 270.6 267.7 268.2 260.8 266.7 271.2 269.4 269.8 271.9 272.4 272.7 272.1 271.7 266.5 263.1 264 271 274.8 275.7 277.5 281.7 283.6 284.1 284.5 283.7 280.8 279.7 278 271.8 268.3 265.6 261.6 258.7 256.2 255.4 249 241.2 241.2 247.4 245.7 242.8 241.2 241 240 237.3 234.4 233 234.2 233.7 233.3 232.9 234 234.1 234 236.9 240.4 244.2 246.8 246.9 245.8 244.3 240.3 237.4 238 236.4 234.8 233.6 232.3 230.5 228.4 226.3 225.3 224.5 224.9 226.8 231.4 231.8 233.5 236.9 238.6 238.3 240 243.4 245.7 246.2 246.3 249.4 253.2 255.3 253.4 253.2 255 256.3 257.3 258 260.3 262.7 264.5 265.5 265.8 267.1 267.2 266 263.2 260.3 257.6 254.4 251.3 249.3 249.3 249.2 248.6 246.8 244.7 243.2 241.8 241.9 240.4 236.7 234 231.2 228.1 225.1 222.6 219.7 214 212 208.1 204.4 203.2 200.8 194.8 192.1 189.3 188.8 189.5 184.4 181.3 180.2 180.9 179.1 172.4 166.5 164.3 165.2 169.1 170.3 174.7 179.4 177 172.2 170.8 169.1 166.3 165.8 165.9 168.9 168.5 167.1 168.3 166.9 164.3 159.4 161.7 161.4 156.8 160 156.9 155.4 154.5 151.4 152.3
288.2 290.7 290.3 287.8 287.3 286.7 289.1 292.4 295.5 296.8 293.5 294.4 298.1 299.8 298 296 292.4 291.8 292.6 292.7 291.9 291.2 290.1 288.6 285.2 282.2 278.3 274.4 272 268.2 270.2 269.5 259.9 265.2 266.7 268.7 269.2 268.7 271.1 270.2 268.5 265 262.2 261.6 265.9 269 271.1 273.2 281 283.2 283.9 282.3 281.1 278.9 279 274.8 270.5 267.1 264.7 261.1 257.8 256.2 251 243.9 243.9 249.2 249.1 246.4 243.4 241.9 242.4 241.1 239 236 236.2 235.7 234.8 234.2 233.7 234.2 234.9 234.9 237 241 244.5 247 247.8 247.5 245.6 240.4 239.6 240.8 238.6 237.3 236.1 235 233.5 231.8 228.9 227.1 226.6 225.9 229.5 232.3 233.7 234 237.5 239.9 239.3 239.3 243.9 246.2 247.3 247.6 249.6 253.9 257.2 255.7 253.2 254.6 255.8 257.7 256.8 258.1 260.2 262.4 263.9 263.1 262.3 263.9 263.7 260.8 258.5 257.3 255.3 253.6 251.1 251.8 251.3 251 249.4 246.4 244.4 242.6 242 241.3 238.7 235.8 232.9 229.2 224.9 222.5 219.6 215.8 212.4 211.4 210.1 207.3 203.4 197.7 196.3 194.8 188.5 184.5 182.4 180.4 178.1 177.4 177.9 172.9 166.4 163.1 162.6 161.7 161.1 167.4 171.9 176.8 177.7 174.2 170.5 167.2 166.9 165.7 164.5 163.2 162 160.8 159.8 158.8 155.8 157.1 156.7 156.6 155.7 154.4 153 151.9 149.7 147.7
290.2 292.2 290.7 288.1 285.2 283.2 288.4 291.5 294.3 294.9 293.3 295.9 300.1 302.3 301.1 298.5 294.4 294.1 294.8 294.6 294.1 292.3 290.1 287.7 283.9 280.7 278.1 275.5 272.5 271.4 271.5 269.4 264.8 259.7 260.2 264.8 268.6 268.9 269 269 268.6 264.8 261.7 260.5 260.4 262.5 263.7 268.6 276.2 279.3 280.6 281.1 277.8 277.9 276.7 271.1 268.2 265.1 262.9 259.3 255.8 250.6 245.7 245.3 251 251.9 250.4 247.3 244.8 243.4 243.3 242.2 241.5 238.2 239 237.6 235.2 234.8 234.3 235 235.7 235.4 238.1 242.2 245.5 248.2 248.6 248.6 247.5 244.2 242 242.8 241.5 240.3 239.2 237.9 235.9 235 231.9 230 229.5 227.2 230.9 233.8 235.2 236.1 239 241.3 240.1 241.6 244.3 247.1 248.5 248.6 248.9 253.5 257.1 257.2 253.8 254.1 256.4 257.7 255.7 256.7 258.8 260.9 261.8 261 259.1 259.7 259.7 259.4 257.7 256.7 254.7 251.4 248.9 246.9 246.4 245.2 244.5 242.8 244 243.6 242.4 241.8 238.8 236.1 233.4 230.6 225.5 222.8 218.3 217.1 215.2 214.7 210.3 205.9 203 200.2 196.6 192.9 189 185.2 182.8 180 177.4 175.1 174.5 171 166.6 162 162.7 161.9 160.7 160.1 161.9 168.6 174.8 173.3 170.6 165.5 163.9 164.4 164.3 165.1 166.9 168.2 167.5 164.5 160.8 156.2 155.3 156.7 155.9 152.8 150.4 149.2 147.6 145.5
291.4 293.5 291.5 288.2 283.6 281.1 286.3 290.1 291.6 292.4 292.8 297.3 302.3 304.5 303.5 301.1 298 295.2 296.5 297 295.3 292.9 290.4 286.5 282.8 279.6 277.1 274.8 274.9 274.9 272.6 269.5 266 262.8 259.4 259.6 265.9 269.5 269.9 268.5 267 264.6 261.9 260.9 260.6 260.7 260.4 264.3 268.4 272.7 274.4 273.9 274 273.7 272 269.3 264 261.6 259.4 256.4 250.8 245.4 245.6 252.5 253.5 253.3 252 249.7 246.8 246.1 245.5 245.4 244 240.4 240.5 238.3 236.6 235.2 234.8 235.8 236.8 236.5 238.8 243.6 246.6 249.3 249.8 249.8 249 246.5 244 245.5 244.4 243.3 242.2 241.2 239.6 238.3 235.6 233.2 231.5 228.8 231.7 235.3 236.5 237.7 240.2 242.4 241.5 243.9 245.4 248.1 249.7 250.4 249.8 253.6 256.7 257.3 255.6 254.2 254.9 255.2 254.6 255.4 257.3 258.8 259.1 259.4 257.9 257.7 256.6 256 256 256.3 255 253.1 250.9 248.7 246.6 244.6 243.7 243 240.8 241.7 241.1 240.7 238.6 235.3 232.6 229.7 225.7 221.9 218.9 216.4 216.1 217.1 213.3 209.6 206.5 202.3 197.1 193.2 191.6 186.3 183.6 180.3 177.9 175.1 172.6 168.1 166.1 160.2 159.3 163.7 162.3 160.5 159.3 159.3 165.4 168.6 169.1 165.7 163.8 162.9 163.4 164.4 166.5 167.6 166.6 163 159.9 156.6 157.1 160.1 159.8 145 144.3 142.4 142.2 142.3
292.5 294.3 291.6 287.9 283.7 278.7 282.8 288.1 289.4 289.2 292.4 296.6 303.5 306 305.8 302.9 299.5 298 298.3 298.4 296.8 294.2 290.1 285.8 282.7 281.6 278.2 276.5 277.3 277.1 274.4 270.7 267.2 263.3 259.1 259.5 265.4 269.9 270.1 268.5 266.6 265.3 262.3 261 260 259.8 260.6 263.1 265.6 267.7 270.1 270.8 270.6 270.3 267.2 263.5 259.8 257.7 255.6 251.4 245.5 245.6 252.1 255.5 256.1 257.2 255.9 252.5 248.8 249.9 249.5 249 245.4 243 241 238.7 236.6 235.6 235.3 237.1 238.4 238.6 238.8 243.3 247.6 249.8 250.8 251.4 250.5 248.2 245 247.3 247.9 246.5 245 244.7 243.9 242 239.2 236.6 233.9 231 232.9 236.5 238.3 239.6 241.8 243.4 242.2 245 247.4 248.9 250.7 252.1 251.9 254.7 256.5 257.7 257.5 256.2 254.7 253.5 253.1 253.7 255.2 256.5 256.7 258.4 258.2 257 257.6 256.7 256.8 256.9 256.2 255.1 251.4 249.4 245.7 243.9 244.9 244.7 241 238.6 235.4 234.9 233.3 231.1 229.4 228.1 226 223.1 220.5 218.4 217.6 216 210.4 209.6 208.4 205 198.7 193.4 191.8 188.8 182.1 178.7 175.1 172.2 170.5 167.3 163 159.2 157.2 156.1 158.4 160.7 161.8 159.6 158.6 158.5 163.7 167.6 165.8 165.5 163 164.3 165.9 165.7 165.1 163.2 160.7 160.1 159 153.6 148.1 154.2 143.2 140.8 140 138.9
293.9 295 291.6 288 284.2 279.4 277.3 284.2 284.6 286.6 290.4 296.1 304.3 307.2 307.2 304.9 302.3 300.9 300.3 299.8 298 294.5 290.1 286.4 283.4 283 278.5 278.2 278.6 278 275.5 271.6 266.4 262.3 259.4 259 264.7 269 269.5 267.6 266 263.2 261 260.2 259.8 259.5 260.3 262.2 264 266 267.8 268.6 269.4 269 264.7 259.4 255.6 253.7 250.2 246.6 248.6 252.1 254 258 259.9 261.4 258 253.5 252.5 253.1 252.6 251.1 246.6 243.8 241.7 239.3 236.9 236 235.6 238.3 239.1 239.1 239.8 242.7 247.2 250 251.3 252.5 252.8 249.7 246.7 249.2 250.7 249.1 248.6 248.3 247.6 245.1 241.7 239.1 236.7 234.1 234.8 238.3 241.7 242.9 244.2 245.8 244.5 246 249.4 249.7 251.7 254.8 253.8 254.8 256.4 257.9 258.6 257.6 256.2 254.8 253.4 253.2 252.5 253.9 255.2 256.5 257.8 256.7 257 257.5 257.6 257.4 257 256.3 252.9 250.2 249.2 248.9 247.1 246.2 243.6 240.7 238.4 235.4 232.2 230.9 227.9 217.6 224.5 222.7 220.2 218.6 217.6 216.7 214.2 209.9 207.5 204.7 200.1 193.3 190.6 185 180.9 178.3 174.1 170.9 167.3 165.4 160.9 158.4 156.6 154.5 154 154.7 158.6 162.8 158.8 156.8 157.8 162.7 161.8 161.8 160.9 162.5 165.3 164.6 163.6 165 163.8 160.6 160.1 153 149.5 147.7 143.2 140.7 139 138
294.5 294.9 291.7 288.2 284 278.3 275.5 278.7 283.1 283.8 287 294.2 303.7 306.5 306.9 305.9 304 301.8 301 299.6 297.2 294 290.2 287.1 284.9 283.5 279.3 279.7 280 278.8 275.9 272.4 265.6 262.5 260.1 259.2 264.4 267.7 268.5 267.1 266.6 264.1 261.2 260.6 259.6 259.5 261.1 260.4 261.3 264.2 266.5 268 270.1 268.8 262.2 256.9 252.8 248.8 247.1 249.2 252.4 253.5 255.2 258.6 262.8 263 259.1 256.3 255.7 254.7 253.4 251.2 247.1 244.1 241.7 239 237.2 236.2 235.9 238.8 239.2 239.2 240.8 242.8 246.3 249.2 252.1 254.2 254.3 252.4 250.1 251.5 253.1 252.4 252.2 251.7 250.6 247.6 244.1 242.7 240.1 237.6 237.1 240.5 243.8 245.7 246.8 248.8 247.4 247.2 250.8 252.2 253.6 256.2 254.9 254.8 255.7 257.7 258.8 258.2 256.1 254.5 253 252.9 250.2 251.8 252.4 254.8 255.9 254.8 256 256 256.3 256.2 256.4 256.8 254.9 252.5 250.9 249.7 246.7 246.5 243.5 240.9 239.6 237.2 234 232.3 229 217.5 224.2 222.8 220.8 219.1 217.3 216.2 212.9 211.2 208.3 204.5 196.3 191.6 189.2 186.5 182.3 180.1 176.6 172.6 168.9 166.2 163.6 159.9 159 156.1 153.7 153 154.1 158.7 161 157.2 156.2 155.6 157.9 158.8 160.5 164.3 166.3 164.6 163.2 162.9 162.7 161.2 160.4 157.6 155 150.4 146 142.4 139.8 139
293.8 292.6 290.8 287.6 283.6 280 275.1 276 278.7 281.6 285.2 290.6 298.5 302.3 303.7 303.8 303.3 302 300.7 298.4 295.9 292.8 289.7 287.3 286.1 283.6 280.4 280.7 280.7 278.6 275.8 273 266.8 259.7 258.2 258.2 264 266 266.9 267.5 266.8 263.9 261.8 260.7 260.6 261.2 264.1 262.7 261.5 262 265.6 268 270 267.5 260.2 254.9 250.8 247.7 248.8 251.5 253.4 255.6 258.7 262.6 264.3 263.1 259.5 257.1 256.3 255.1 253.6 251.3 246.5 244 241.8 239.2 237.4 236.9 236.6 238.5 239 239.4 241.2 243.3 246.1 249.5 252.8 255.3 256.1 255 252.9 253 254.1 254 254.5 254.4 253.1 250.3 247.2 247.5 244.6 240.4 240.1 242.9 246.2 247.8 248.2 251 250.4 249 251.7 254.3 256.2 257.7 255.4 254.8 253.9 256.1 258.2 257.7 256.2 254.3 251.8 251.6 250.6 251.9 252.5 253.2 253.9 254.6 255 256.4 256.6 256.2 255.9 257.7 255 253.7 253.4 251.2 248.9 245.7 242.6 240.8 241.9 232.5 229.8 227.9 225 217 224.1 222.4 220.7 218.8 216.6 212.2 208.3 205.1 202.4 199.7 194.2 191.7 189.6 187.6 184 180 176.9 173.7 169.6 165.6 164.2 159.9 159.2 158 155 151.6 152.5 154.2 161 158.7 156.5 154.6 152.6 155.2 159.5 164 167.4 163.8 163.3 161.7 162.2 160.6 161.1 157.3 155.9 152.8 148.5 145.3 142.6 139.9
291.7 290 288.2 286.6 283.2 279.3 274.5 274.8 277.3 280.1 284.2 287.3 291.5 294.3 295.5 297.1 299.7 298.5 296.6 295 294.5 292.3 289.8 287.2 286.3 284 281.4 280.7 280.6 278.8 276.2 273.4 266.8 261.1 257.4 257.9 260.5 264.7 266.6 268.3 266 262.5 260.7 260.4 260.8 263.7 265 262.6 261.1 260 264.1 265.9 267.8 264 257.6 253.8 249.7 248.5 250.8 253.5 255.4 257.4 261.5 265.1 265.9 265 262 258.8 256.6 255.4 253.9 251.4 247.3 244.6 242.1 239.6 237.6 237.3 237.2 238.2 239.5 240.1 240.5 243.7 246.8 250 253.3 255.6 257.1 255.1 253.2 253.6 255.9 255.3 255.7 254.8 255.2 253.3 251 251.4 249 243 243.4 246 249.3 249.8 251.7 253.6 254.8 251 253.1 256.4 258.6 259.7 257.6 256.8 254.6 255.5 256.9 255.1 253.9 253.9 252.7 250.5 248.8 248.3 249.2 251.1 252.1 252.7 251.5 253.6 255.1 255.7 255.2 255.3 256.1 255.8 256.1 254.2 251.4 248.4 245.4 242.3 240.8 234.6 228.7 226.5 223.6 222 225 222.7 220.6 218.8 216.9 213 209.8 205.9 202.5 196.3 193.1 190.6 188.4 186.3 183.2 178.9 175.3 171.9 166.6 162.6 160.4 158.1 158.1 157.5 154.6 150.8 150.4 153.4 159.2 159.8 158.1 158.8 154.2 151.9 152.8 159.8 164 160.1 163.3 163 159.5 163.1 163.2 159.9 157.4 155.2 151.2 148.2 145.3 142.5
288.9 287.4 286.2 285.2 281.9 278.5 273 273.6 276.1 278.6 282.6 282.3 285.3 286.7 286.5 290.9 294 292.4 291 291.2 291 289.8 288.5 286.7 286.2 284.4 281.5 280.5 280.1 277.9 275.9 273.2 266.2 260.6 257.1 257.6 258.5 262.4 267.4 269.9 267.1 261.4 260.9 261.7 262.4 265.6 265.2 262.2 261.6 260 259.5 260.6 261.1 259 254.4 252.5 249.9 249.2 252.2 255.4 257.7 260.4 263.6 267.4 268.3 267.3 264.1 260.6 258.3 256.4 256.1 252.1 248.7 245.7 244.3 240.7 238.4 237.5 237.8 238.6 239.7 241.1 242.3 245 247.9 250.9 253.8 255.8 256.9 255.2 254.1 254 255.5 256.8 258.2 259.3 258.3 256.9 255 254.6 251.5 247.8 247.1 249.4 250.4 252.1 254.4 257 257.5 254.1 255.9 259 260.9 262.4 261 260.3 259.3 257.4 257.2 256.5 255.9 255.2 253.6 250.4 247.8 247.6 248.5 249.7 250.8 251.3 250.8 252 252 256.6 255.9 255.8 254.7 255.1 258.6 257.2 253.8 250.8 248.2 244.7 241.9 239.3 233.2 233 230.6 227.7 225.6 223.9 223 219.9 217.7 215.8 212.4 209.4 206.3 198 192.9 189.1 185.5 182.5 179.3 176.3 172.8 168.7 164.8 162.1 159.6 158 156.8 155.4 153.2 151.3 150.5 151.3 157.1 160.2 159.1 158.7 155.8 153.9 153.3 153.3 156 155.7 155.9 158.5 161.2 159.5 163.4 159.8 158.7 158.3 154.5 151.2 147.9 144.7
286.3 285.5 284.7 283.4 279.1 276 273 271.5 273.9 277.2 279.5 277.2 279.2 280.1 279.9 285.5 288.2 287.1 284.1 286 287.5 286.9 286.4 284.9 285.7 284.2 281.6 279.6 278.5 276.8 274.4 270.9 266.3 261.2 257.4 257.3 258.1 259.5 269 270.9 267.4 263.8 263.8 264.3 264.1 265.3 264.4 263.8 263.3 261.6 260.5 261.2 260.4 256.3 253.4 253.4 251.8 250.9 255.3 258.5 260.3 262.2 263.3 265.1 267.4 266.3 265.1 261.6 261.2 259.6 257.8 253.9 251.2 247.5 247 243.1 240.8 237.9 238.9 239.9 240.5 241.9 243.9 246.2 249.2 252.1 254.8 256.7 257.3 255.6 255.2 255.4 257.2 258.5 260.4 262.2 261.5 259 257.8 257.7 254.4 250.1 250.8 253.1 252.8 254.4 256.4 259.5 260.7 258.8 259.6 262.7 262.1 264.8 266.5 264.3 262.5 259.7 259.4 259.2 258.1 256.2 254.6 253.4 250.3 247.2 247.8 248.6 249.7 250.8 250.2 250 251.3 252.6 254.9 257.6 256.7 256.9 255.8 259 257.7 254.5 251.5 247.9 245.6 242.4 239.7 236.8 234.3 231.6 229.4 227 225.9 222.3 219.1 216.4 210.5 205.6 203.2 198.3 195.1 191.5 187.5 183.7 180.9 177.3 173.4 170 166.1 163 160.8 159.7 158.1 156 152.7 150.6 148.8 151.1 155 160.6 159.7 158.9 157.4 156.2 155.5 154.4 153.1 150.2 154.1 150.7 154.5 157.6 157.5 162.1 158 156.7 157.9 154.6 150.4 146.9
284 283.2 282.4 281.1 277.6 273.9 271.1 270.8 272.9 276.1 276.6 274.1 271.5 272.1 273.3 276.5 279.8 279.5 278 280.6 283.2 284 283.4 283.2 284.9 283.8 280.5 279.6 276.4 273.6 271.8 268.9 264.5 259.5 256.5 256.8 257.7 260.7 270.7 271.9 268.1 265.5 266.5 265.9 265.7 266.2 265.1 266.3 265.6 265.4 265 266.4 263.3 259.8 258.1 257.5 252.4 251.9 255.2 257.4 260.9 264.9 268.6 271.9 271.1 268.8 266.7 264.8 263.6 261.9 259.2 255.6 253.1 250.2 248.6 245.5 243.9 239.8 240.1 241.2 241.3 242.7 244.3 247 250.3 253.4 255.7 256.4 257.2 256.8 256.5 257.7 259.1 260.8 263.3 264.9 264.7 262.3 260.8 260.5 257.3 255.4 254.2 257.7 257.2 257 258.2 262 263.8 263.5 263.7 264.8 266.8 269.3 269.8 268.1 266.6 263.2 262.7 262.5 261.6 258.8 256 254.7 252.6 249.5 248.1 248.9 249.4 250.4 247.9 248 248.6 251.5 253.3 253.2 260.4 258.6 258.3 258 253.3 251.1 248.8 247.4 249.3 245.9 239.6 236.9 236.7 235.5 232.1 227.2 222.9 220 216.5 213.8 210.9 207.9 204 199.9 197.8 194.1 190.4 186.5 183.3 179.2 175.2 171.7 168.4 165 163.5 162.7 160.3 157.5 154.8 151.2 147.9 149.5 153.4 159.7 160.3 159.3 157.5 155.3 157.3 156.4 154.9 152.7 148.1 147.1 148.7 152 155.2 155.1 163.3 157.3 159.9 157.8 153.6 149.2
281.6 280.7 280 278.7 274 271 269 269.3 271.7 273.6 273.8 271.7 268.5 267 266.1 267.1 269.6 269.7 270.1 274.4 277.1 278.2 276.7 281.7 283.6 281.3 278.8 276.5 274.9 271.9 269.7 267 262.7 259 256.5 256.4 257.3 261.8 269.9 270.3 266.8 268.1 268.3 265.6 267.4 267.5 267.8 268.7 268.6 267.6 267.7 267.1 263.5 259.9 259.5 258.4 251.6 254.8 256.5 259 262.5 266.5 270.8 274.2 272.8 270.6 268.4 266.6 266 265.1 261.3 258.1 254.8 252.6 251.1 248.6 246.1 241.9 241.8 242.5 242.2 243.3 245.2 247.6 250.3 253.8 256.5 257.5 258.9 258.7 258.9 260 261.5 263.6 265.8 267.8 268.2 266 263.9 263.5 263.4 262.6 260.2 261.9 262.6 261.3 266.4 265.4 267 267 266.2 266.2 267.8 272.7 273 271.5 271 268.4 266.6 265.6 264.3 261.9 258.5 256.3 254.6 252.3 250.5 250.7 250.9 251.8 250.9 248 246.5 248.5 251.2 252.7 253.8 256.5 258.8 258.1 257.4 257.5 254.4 251.3 246.5 242.5 240 236.5 233.7 231.5 229.7 227.6 225.3 222 219.1 216.3 213.7 211.2 206.7 202.3 198.7 195 191 187.5 184.6 181.2 177 173.1 170.6 168.4 166.7 164.9 162.5 158.6 155.9 151.7 147.8 147.6 151.5 153.6 157.9 157.5 156.5 153.8 157.3 152.8 151.6 150.3 146.8 147.7 148.2 146.4 145.3 145.4 151.9 163.9 164.4 160.6 156.2 151.9
279.6 278.3 277.6 275.8 270.9 269.1 267.4 268.4 268.4 267.6 268.3 268.5 267.9 266.9 265.8 265 264.6 264.5 264.7 265.2 268.8 269.8 274.5 277.2 280.1 277.9 275.2 273.1 273 271.6 270.1 267.8 263.2 258.9 256.4 256.5 258.2 260.3 264.2 265.2 268.3 271.3 268.3 265.9 267.9 270.5 272.4 272.7 271 269.1 268.8 266.5 261.8 258.8 258.6 256.8 251.1 252.8 258.9 260.7 263.1 267.2 272.2 276.5 275.1 272.9 270.6 268.9 268.4 267 263.8 260.9 257.5 255.1 253.5 251.8 247.7 244.3 244.6 244.7 243.8 245.2 247.4 249.4 251.6 255.3 257.5 259.1 260.2 260.3 261 262.4 264 266.4 268.7 269.9 271.4 272 270.3 270 270.5 270.4 267.9 270.1 270.1 267 263.1 265 267.9 269.2 269.5 268.7 268.2 271.4 276.5 275.7 275.3 273.3 270.7 268.7 266.9 264 261.1 258.9 257 255.2 253.5 251.5 251.1 252.5 252.6 250.1 248.2 247 248.6 248.5 252 254.5 253.1 258.5 259.2 258.1 254.7 252.6 251.3 248.1 244.6 240.6 237.5 234.6 233.7 231.3 228.3 224.1 221.8 220 215.9 212 207.6 204.7 200.7 196.7 193.4 190.7 187.7 184.4 180.5 176.5 174.1 172.1 169.6 167.1 163 158.8 156.5 152 147.7 147.3 151 152.2 151.5 150 148.4 149.7 153 149.8 150 147.6 145.1 145.4 141.7 135.6 133.1 132.2 131.8 143.1 158.1 162.6 158.9 154.6
277.8 275.8 275.3 272.1 269.2 269 266.3 267.6 268.4 269.6 269.8 269.9 268.6 266.9 266 263.6 263.1 263.3 263.7 260.8 262.4 266.4 270.3 274 275.2 273.7 272.6 271.4 271.2 271 269.9 267.1 262.8 259.3 256.3 255.7 258.5 259.4 262 264.7 268.9 271.1 268.4 267.8 269.5 271.9 276.1 276 272.7 268.5 267.4 266.2 261.9 259 258.2 256.5 252.5 253 260 262.4 263.5 267.3 272.3 279 277 274.8 272.3 271.6 270.3 268.4 266.4 263.6 259.8 257.5 256.5 254.4 249.3 246.9 247.1 247.4 246.9 248.2 249.2 250.7 254.4 256.5 259.2 260.1 261.3 262 263 264.9 267.1 270.1 272.4 275.2 277.9 277.5 277.2 276.9 276.8 275.1 276.3 274.6 273.9 271.1 267.3 266.1 268.3 271.2 271.9 272.5 271.6 270.3 275.2 278.9 278.7 277.4 275.5 273.2 270.9 268.9 264.4 262.1 260.9 259.2 256.3 253.3 251.9 253.1 253.4 251.4 249.9 246.5 246 248.3 245.5 250.7 253.6 250.7 253.6 259.6 256.1 255.7 252.6 249.5 245.5 243.4 236.8 233.3 233 231.8 229.5 227.3 223 220 216.1 213.7 210.8 207.3 203.6 199.8 196.7 194.6 190.6 187.6 184.1 180.8 177.5 176 174 169.4 164.5 160.8 158.3 155.2 150.7 146 149.3 154 152.5 150.4 148.4 148 149.1 149.2 148 145.4 143.6 135.7 133 132.3 132 133.4 133.4 131.5 138.7 155.7 160.9 157
275.2 273.4 271.5 269 267.7 266.7 265.7 266.6 267.3 267.6 268.7 268 267.2 265 263.6 264.7 263.6 260.8 260.5 260.2 260.5 265 268.5 267.1 269.7 269.5 269.3 269 268.6 268.3 268.4 266 262.9 259.4 256.7 254.4 260 258 261.3 263.4 267.8 270.7 269.4 270.1 270.4 272.7 277.5 277.5 273.1 268.8 268.8 268.6 264.8 261.9 260.4 258 257.1 253.8 261.8 263.2 264.3 266.6 271.5 276.4 277.8 275.4 273.9 271.6 272.3 270.5 268.9 265.3 261.5 260.4 258.8 256.3 251.9 255.5 252.9 254.2 251.9 253 252.3 254.6 256.9 260.5 261.6 262.4 263.6 264.6 266.3 268 270 272.8 276.5 279.8 279.5 277.8 281 283.1 283.4 283.9 282.8 280.9 279.4 275.8 272.6 269.8 270.6 271.1 273.9 274.8 275.5 274.8 274.8 279.6 282.8 281.4 279.4 277.3 275.2 274 267.7 266.4 263.4 260.5 258.5 256.7 255.1 254.6 254.4 252.5 250.9 248.7 246.2 247.3 245.5 246.1 247.5 251.4 251.5 251.9 250.7 260 257.6 255 249.5 245.8 240.5 237.5 234 234.6 232.7 228.6 224.6 222.4 217.9 215.9 213.1 209.1 206.6 202.8 200 197 193.6 191.1 187.9 183.8 181.3 179.1 176.9 171.2 167.6 163.8 161.9 156 151.2 145.9 145.2 152.2 154.3 152.4 150.9 149 148.1 146.3 146.8 146.1 136.1 132.9 132.4 133.3 136.2 135 133.5 133.2 131.9 137.5 150.1 159.3
270.8 270.4 269.2 268.2 266.7 266.2 265.4 266.4 266.3 265.6 265.8 265.7 264.8 263.8 265.5 266.4 266.6 262.4 259.8 259.2 259.3 262.6 265.2 266.4 266.7 265.7 266.3 265.9 265.5 265.4 266.7 265.4 262.2 258.6 258.2 256.9 253.7 252.6 259.5 262.1 266.4 270.1 268.8 270 270.7 273.3 277.5 277.5 274.1 271.4 271.8 271.7 268.3 265.5 263.1 261.1 261.4 256.7 262 263.4 266.1 269 270.9 273.6 273.7 273.3 271.8 270.6 271.9 273 270.3 266.2 263 261.5 260.6 258.2 254.6 253.6 253.7 252.3 252.4 253.9 254.6 257.5 260.5 263.7 265.1 266.4 267.8 267.9 269.5 271.7 275.6 276.8 280.4 284.4 287.5 288.7 288.9 288.8 290.9 290.8 288.9 287 285 281.6 277.8 273.5 274 274.1 276.8 276.6 276.9 278.1 276.9 278.2 290.1 287.2 284.4 283 280.3 275.9 266.2 264.1 261.4 262.6 261.1 259.8 258.1 257.1 257.2 254.8 252.7 250.2 247.3 244.9 245.3 241.7 240.2 238.8 242.7 250.3 253.3 251.7 248.6 251.5 247.5 242.7 246.1 239.8 234.6 231.6 230.1 224.6 223.1 223.5 220 216.8 213.8 210.3 208 205.8 202.7 199.4 196.9 193.8 190.8 187.7 185.5 183.3 180.2 174 171.8 167.8 161.3 156.1 151.7 147.7 144.8 147.4 153.2 151.1 147.4 145.4 146.3 143.3 140.2 136.7 134.1 132.7 132.9 138.7 142.1 143.1 140.9 138.4 134.6 132.1 133.8 142.5
267.1 267 267 266.9 266.7 266 265.9 267.1 267.2 266 265.5 264.2 264.2 265.2 268.8 269 266.5 264.1 260.5 262.4 263.2 261.6 262.2 263.1 263.3 263.4 264.1 264.1 262.7 262.6 264.1 264.4 262.4 259.6 258 257.6 258.2 255.3 255.9 259.8 265 269.2 268.9 268.8 270 273.5 274.9 275.9 274.2 275.3 275.6 274.3 270.9 268.1 265.6 264.3 263.8 258.5 261.8 264 267.6 268.6 270.9 271.9 272 271.4 270.4 270.3 271.2 272.7 270.9 266.5 264 262.8 262.1 260.5 257.5 256.5 257 255.6 255.3 256.3 256.9 259.7 262.6 265.7 267.3 269 270.6 271.9 272.6 274.5 276.1 278.6 281 284.6 293.5 295.1 294.4 293.6 294.2 297.7 295.2 292.7 290 287.1 282.7 277.1 275.9 275.7 275.5 277.5 278.4 278.2 278.3 278.1 280.9 284.7 285.3 281.5 276.3 268.2 265.4 263.4 260.6 259.4 261.7 261.4 261.4 260.2 259.6 257.6 253.8 249.7 245.2 239.8 243.4 239.3 234.8 232.6 230.5 233.2 247.2 250.7 250.2 246.7 243.8 239.9 236.7 234.8 233 230.9 229.1 226.5 223 220.6 218.9 216.9 214 211.6 210.7 208.2 205.5 200.9 198.1 196.6 193.7 191 188.5 186 183.5 178.8 175.3 168.6 163.3 157.4 153.8 149.5 145.9 144.1 145.1 146.1 146 147.3 143.9 138.1 135.5 134.2 134 137 144.2 145.2 146.1 145.3 143.5 142.3 137.6 134.3 132.3 131.8
267.2 267.2 267.2 266.9 266.3 265.7 266.6 267.8 267.8 266.9 266.3 264.2 264.2 268 271.4 271.1 268.8 265.2 261.7 259.6 258.2 258.6 259.1 259.7 260.4 261.7 262.3 261.6 260.3 261.9 262 262.5 261.3 258.2 256.8 257.5 258.5 254 257.9 258.7 264.8 268.7 268.4 267.5 269.4 272.5 273.7 275.7 274.9 276.1 276.8 275.4 271.6 269.4 267.4 266.2 264.7 260.8 262.2 265.5 267.8 268.4 270.6 271.1 271.2 271.2 272.4 272.1 272.3 272.9 271.4 266.8 264.9 264.1 264.9 264.1 261.2 259.4 259.5 258.2 258.1 259.3 259.6 262.5 264.8 267.5 269.9 271.8 273.3 273.4 274.4 277.2 279.7 282 283.9 288.2 290 295 299.2 296.7 295.1 294.6 299.9 293.9 292.2 290.8 287.2 281.5 277.9 276.2 273.8 274 275.4 276.9 279.4 278.3 277.2 277 275.4 273 270.4 267.7 266.8 265.3 262.2 259.5 260.4 257.8 260 262.2 260.9 258 249.3 243.1 237.8 236 240.2 236.6 229.5 226.4 224.8 223.3 225 233.9 238.9 240.8 243.9 244 240.7 239 235.5 234.1 233 230.8 227.3 224.1 221 219.5 216.9 213.1 214.3 209 206.6 201.8 198.5 197.9 196.3 192.5 191.2 188.7 185.7 184 176.9 171.9 162.6 157.8 155.3 151.5 148.1 145.6 145.2 146.2 147.7 148.6 135.9 133.8 134.3 133.5 133.4 145.4 147.6 148 148.8 149.1 146.5 143.9 140.7 136.7 133.2 131.9
267.7 267.5 267.1 266.6 266.2 267 268.4 269.5 269.6 268.6 265.7 264.2 265.3 270.2 273.4 273.6 270.9 266.4 262.1 259.4 258.4 258 258.6 259.1 259.6 260.1 260.3 259 258.3 259.2 260.5 260.1 259.5 256.1 255.4 253.9 255.7 253.6 253.3 257.2 262.5 267.1 266.6 267.3 270 271 273.3 275.6 275.3 275.7 276.6 275.1 272.3 269 266.3 265.3 264.1 261 261.5 264.5 267 266.7 268.4 269.5 270.7 272 273 272.9 273.6 273.8 269.3 266.1 265.2 266 267.4 267.1 264.8 263.3 262.3 259.5 260 261.8 262.2 262.8 264.9 265.1 266.6 271.8 272.7 273.5 274.7 278.3 280.4 283.3 285.2 288.5 289.3 290.8 293.8 293.6 295.4 296.2 293.3 290.4 289.4 288.9 289 285.2 281.2 276.9 273.8 271.8 271.3 272.4 274.2 276.9 276.1 275.1 273 270 268.6 268.2 268.2 267.8 266.3 263.4 260.6 256 252.7 251.2 251 248.2 243.4 239.2 234.8 230.3 231.1 229 223.4 219.8 221.3 220.5 217.4 214.5 218.3 221.1 224.2 224.9 226.8 226.7 225.6 228.4 229 227.8 226.9 225.6 224.6 222 219.6 216 212.5 208.9 205.1 202.1 198.5 196.8 197.2 193.3 194.1 192.7 187.3 183.2 176.9 169.6 162.9 158.5 155.3 152.6 148.3 143.2 144.9 146.4 145.1 134.1 134.9 134.7 134.6 138.8 144.9 149.8 150 150.3 150.5 149.6 147.7 146.2 145.1 140.3 135.7 132.6
267.8 267.5 267.2 266.7 267 268.7 270.2 270.5 270.9 269.4 265.4 264.2 266.6 271.6 275.6 275.3 272.5 268.3 262.8 258.5 258.6 258.1 258 258.6 259 259.2 258.3 257.6 257.1 256.6 257.7 258.1 258.7 255.2 256 256.2 253.9 251.1 250.2 251.6 258.5 263.5 264.4 264.5 266 269 272.4 274.9 275.4 275.3 274.8 273.6 271 268.6 266.5 264.1 261.9 259.9 260.3 263.4 264.9 265.8 265.4 267 268.4 270.7 272 272.3 272.7 273 267.7 264.7 263.6 263.3 265.3 269.1 266.9 263.4 260.7 261.2 260.7 260.8 261.6 263.9 266.2 267.3 265.3 266.3 270.2 272.3 274.8 274.9 279.9 281.7 282.4 283.5 285.5 288.4 293.9 294.9 294.1 298.9 298.4 296.4 293.3 289.4 287.6 286.6 282.9 279.3 275.8 272.9 270.5 270.1 270.6 271.5 272.1 271.4 269.6 267.3 266.7 267.2 268.4 269.2 268.3 266.8 265 260.1 255.5 251.2 248.3 246 241.6 237.5 233.3 227.9 225.1 222 218.1 215.2 216.3 218.7 216.9 213.4 210.2 211.6 214.2 216.5 218.5 219.4 220.4 218.5 217 216.4 218.8 220.4 222.5 222.1 221.9 219.8 217 212.1 208.3 205.1 201.2 197.5 194.2 191.9 187.8 194.3 191.2 187.5 173.2 167.3 164.5 159.8 154.6 150.3 147.1 143 138.2 140.6 134.5 135 134.8 137 143.5 145.4 149.3 152.3 153.9 154.3 153.6 152.8 151.4 147.5 147.5 144.9 139.8 135.1
267.6 267.3 267.1 267 268.7 270.3 272.1 272.7 272.7 269.6 265.4 264.2 266.6 271.8 274.9 274.8 271.8 268.8 263.7 259.6 258.2 258 257.9 257.8 258.2 257.8 258.6 257.1 257.1 257.9 258.1 256.5 257.3 256.4 256.6 254.9 255.5 258.6 251.4 249.7 253.7 260.2 261.5 262.7 264.1 268.4 272.3 273.9 274.8 273.9 272.8 271.3 269.3 266.9 263.8 261.6 259.8 257.9 257.9 259.8 260.8 262.5 263.2 260.3 264.8 268.4 270.1 268.9 269.5 268.6 265.4 262.1 260.7 259.8 260.8 259.8 260.6 265.4 265.1 263.6 261.7 261.2 264.2 266.6 269.7 271.4 266 263.2 262 260.5 258.6 260 265.2 270.8 277 277.8 279.9 280.4 280.5 287 293.2 289.8 296.1 299.9 298 295 292.1 289.5 282.7 276.3 273 270.5 269.3 268.9 268.7 267.9 267.6 267.8 266 264.1 262.9 263 263.4 263 263.6 266.6 267.4 265.4 258.6 253.3 249.4 245.3 241.5 236.3 229.5 225.2 221.5 215.7 210 210.2 211.7 213.5 211.5 210.9 208.1 206.1 207.8 209.8 210.8 212.7 212.3 211.5 210.1 208.6 208.1 206.7 204.4 209.8 218.7 218.4 214.9 210.5 207.3 204.7 201.9 198.7 195.8 193 189.3 185.3 181.5 177.3 173.6 170.3 164.5 160 155.1 150.7 146.9 142.6 136.4 134.7 135.4 135.4 138.3 146.6 148.9 151 153.5 155.8 156.7 157.5 158.1 157.3 155.7 151.1 149.5 148.1 144.6 140.3
267.4 267.1 268 270.3 270.1 271.9 273.7 274.3 273.2 269.3 264.3 264.2 266.1 272 275.8 277.6 273.5 269.7 262.6 258.6 258.1 258 257.9 258.1 258.4 258.5 259.7 259.9 259.6 259.2 261.6 262.1 262 257.9 255.7 255.7 255.6 255.3 250.6 250.1 252.1 257.2 257.2 260.3 263 267 270.4 271.6 271.7 271.2 268.9 268.1 266.1 263.9 259.6 256.7 255.7 254.8 254.4 254.7 254.7 254.9 256 256.4 259.3 261.7 263.1 260.4 260.6 259.2 258.3 258.2 258.7 258.5 258 259.9 264.8 265.7 266.7 265.2 263 261.8 267 270.4 270.2 269.6 266.3 261.1 259.7 258.4 255.4 255.1 257.9 260.1 260.3 265.3 271.4 274.3 269.4 269.5 271.7 277.4 282 282 285.2 284.9 283.3 281.1 276.8 268.7 268.3 264.3 262 262.9 263.2 264.1 264.4 264.1 262.7 260.4 258.3 257 256.3 255.9 254.8 256 258.9 259.6 259.1 255.3 249 241.5 235.5 231.4 226.6 223.8 219.8 215.1 208.8 204.6 206.7 207.4 205.4 204.5 203.5 201.4 200.4 203.4 203.9 204.9 204.1 204.2 203.8 201.9 199.2 197.2 193.7 192.6 198.2 202 201.3 199.5 198.1 198 197.9 195.7 194.5 192.8 189.6 186.2 184.9 180.7 176.3 169.4 164.3 159.3 151.4 144.4 137.7 135.6 135.3 136.1 141.4 148.2 149.1 149.4 150.8 152.6 155.3 158.3 159.2 160.7 161.5 161.1 159.3 154.8 150.2 150.2 147 144.3
267.3 268 269.8 272.8 272.6 273.9 275.9 277.3 274.1 268.9 266.5 264.2 268.5 272.2 276 279.4 274.7 269.2 261.6 258.2 258.2 258.1 258 259 258.8 259 260.2 258.8 261.6 262.3 261.1 261.9 260.6 257.4 255.5 259.3 260 254 249.4 252.9 254.9 255.2 256 259.5 261.8 263.5 267.7 267 265.1 263.6 261.5 260.9 261.6 260.1 257.9 256 255 248.3 242.2 250.7 251.2 255.9 255.6 254.9 256.7 256.8 256.7 257.8 259.1 258.7 256 254.2 255.1 254.8 255.2 256.7 258.2 264 267.1 265.5 260.9 262.1 267.5 268.2 267.7 265.4 261.4 256.6 254.8 254.4 251.1 250.5 250.6 250.7 252.3 252.1 253.7 255 259 261.7 261.7 265.8 269.5 268.4 267.4 266.9 267 265.7 263.8 258.9 257 257 254.7 254 254.8 254.6 255.6 257.4 258.6 257 254.3 251.8 249.8 250.7 249.6 248.7 248.3 248.4 248.8 245.5 238.9 232.3 229.6 227.7 223.8 221.9 217.8 213 207.3 202 198.5 201.1 199.2 198 197.1 195.6 194.5 196.2 197.8 197 196.5 197.5 194.5 193.9 192 189.5 186.1 182 182.2 183.4 184.3 183.4 181.7 182 180.2 178.4 178.5 178.6 178.5 177.1 174.9 176.2 171.3 163.1 156 147 140.7 136.5 135.5 135.4 135.8 140.3 146 149.5 151.9 152 153.4 154.6 157.5 161 162.6 164.2 164.8 164.6 163.2 159.9 152.3 151.5 150 147
267.4 270 271.7 273.9 274.8 276.5 278.1 279.9 276.1 271.7 267.6 266 269.4 272.6 277.1 278.1 273.9 269.5 260 259.2 258.3 258.2 258.5 260 259.8 262.6 263.6 260.7 261.9 261 261.1 261.3 258.5 256.8 258.3 262.1 259 252.4 248.8 249.2 250.4 252.5 254.6 259.1 258.7 258.9 262 262.2 262.3 261.7 258.9 250.5 256.3 243.3 230.4 224.2 223 222.2 222 225.5 242.1 252.7 255.3 252 253.9 254.6 254.7 255 256.5 255.8 252.3 252 252 252.4 252.8 252.7 253.2 254.5 256.4 256 255.4 256.2 259.8 260.8 259.5 255 251.5 248.5 246.9 245.7 244.2 244.7 244.3 243.9 245 245.7 248 249.6 251.3 254.4 255.2 257 258.7 260.3 257 254.4 254.8 255.3 254.8 250.7 248.5 248.6 247.5 247.5 248.7 248.8 249.5 251.3 253.2 253.4 251.7 249.2 246.9 245.7 244.3 243 241.3 237.8 237.1 235.3 232 224.5 223.2 222.4 219.6 216.6 214.1 210.1 205.1 200.7 195 196.1 195.2 192.5 190.9 189.7 188.6 188.5 191.3 191.5 191.6 190.4 188.3 187.2 186.4 184.6 178.9 175.4 170.2 168.9 170.2 170.4 169.2 167.1 164.8 163.3 161.1 159.4 158.8 156.8 153.4 154 153 148.6 141.9 137.3 136.2 136.4 135.9 136 135.1 145.2 148 150.9 153.7 154.9 156.1 156.7 161.1 164.6 166.1 167.7 168.2 168.1 167.8 165.7 155.8 153 152.2 149.5
270.3 271.9 274 274.6 275.8 277.6 279.4 280.6 276.9 272 268.3 266.4 268.8 272.3 276.9 276 271.7 267.5 261 260.3 259.4 258.5 259.1 260.1 261.8 265.1 263.8 262.9 262.6 261 261.8 260 257.5 256.8 260.2 263 258.4 252.9 248.6 249 249.5 251.8 255.6 258.9 257.3 256 255.6 256.3 256.5 256.3 253.4 248.9 237.8 226.1 229 230.2 233.7 242.8 236.8 220.4 236 247.9 252.3 247.5 249.8 251 250 250.1 252 250.3 249.1 248.9 248.5 247.2 246.6 245.2 244.1 243.3 243.1 245.9 246.7 248.3 248.2 246.7 244.3 242.8 241.9 240.4 239.1 238.2 236.7 237.4 236.7 236.6 237.4 239.1 241.6 243.9 245.3 247 247.9 247.4 247.5 248.8 246.5 245.2 244.7 245.7 245.8 243.2 241.3 240.9 240 240.1 242 241.4 245.2 247 249.2 250 250.2 248.2 245.6 243.3 242.4 240 236.7 232.6 229.8 227.8 225.8 222.4 217.5 215.6 214.4 211.5 209.2 206.4 201.8 197.7 192.4 188.9 190 188.2 186.8 185 181.7 182.7 184.8 185.4 185.9 184.7 181.1 179 178.8 177.5 172.4 169.3 162 160.1 160.4 160.8 159.5 156.7 154 151.5 149 147.7 147.8 146.7 144.5 139.3 137.5 137.1 136.8 136.3 135.8 136 136 136.2 145.6 147.8 149.5 151.5 155.1 156.5 158.6 158.9 163.7 168.2 170.2 172 172.1 171.9 171.2 169.4 159.5 154.7 154.8 152.2
273.6 276.7 277.4 276.5 276.5 278 279.3 280.5 278.9 274 269.4 268.3 268.9 271.7 275.2 273.4 269.4 265.4 260.8 259.3 259 258.8 260.1 261.2 263.6 265.9 264.9 263.6 263 261.5 260.4 258.2 257.6 258 263.5 266.4 260.7 254.1 248.3 248.5 248.6 252.1 257.6 258 255.5 253.4 251.3 248.4 244.6 239.3 245.6 233.8 228.9 237.6 239.8 237.4 239.1 248.9 249.3 221.8 227.7 246.4 248.4 243.4 243 245.2 243.1 242.6 243.7 244.8 244.4 243.8 241.1 240.5 239 237.2 235.9 235.5 234.6 235.5 236.9 239.3 239 237.3 235.7 235.3 234.4 232.3 230.6 231.9 229.8 229.8 230.2 230.4 230.3 232.3 232.5 235.4 235.9 237.7 238.6 237.1 236.1 237.2 237.7 236.2 235.2 234.7 235.2 234.1 231.5 231.6 231.9 232 232.9 233.7 240.5 243.7 245 245.7 246.1 244.5 241.3 238.7 237.8 235.6 233 229.9 226.6 223.4 221.9 220.1 213.1 208.6 207 205.6 204.2 201.9 197.7 194.1 190 182 181.1 182.1 181.4 180 176.1 176.1 177.6 176.8 176.2 175.7 175 174.2 172.9 170 166.2 161.9 156.7 155.7 155.3 154.3 153.9 150.6 147.3 144.8 144 145.1 144.7 142.2 138.9 137.4 136.8 136 136.8 136.6 135.6 135.7 136 144.3 148.1 149.6 151 152.5 154.8 158.2 160.1 161.2 166.1 170.6 174.7 176.1 175.8 175.1 174.3 172.5 163.3 156.4 157.2 154.8
276.6 279.6 279.4 277 276.1 277.4 278.4 279.6 278.9 275.4 271.9 268.9 268.6 270.6 270.6 268.8 265.4 261.4 259.4 259.1 259.1 260 261.1 263 265.3 265.8 265.5 264.4 262.5 261 259.8 258.4 258.1 260.6 266.6 268.4 261.5 255.1 250.4 247.9 247.9 254.2 258.8 256.6 253.6 249 245 239.6 231 229.7 228.4 228.1 237 246 246.2 238.1 244 250.3 251.4 221.7 220.4 240.8 245 240.4 236.4 237.5 237.1 235.8 236.5 238.1 238.4 238 235.6 234.3 233.3 231.6 231 230.4 229.4 228.6 227.1 227.6 227.7 228.2 226.3 218.1 222.4 219.3 213.6 222.9 220.3 220.8 220.8 221.4 219.3 222.7 222.9 225.9 227 230.2 230.7 229.3 227.8 228.2 229.8 229.5 228.2 226.4 225.6 225.5 224.5 224.3 224 225.9 227.2 228.1 235.3 239.2 241 240.3 240.2 238.8 236.6 231.4 232.3 229.6 226 224.6 221.9 218.3 210.8 211.7 207 201.9 199.1 198 196.3 195.2 193.2 189.8 186.8 181.1 173.6 176.1 177.6 176.1 172.3 169.1 171.4 171.2 169.7 169.6 169.8 168.6 167.4 164.8 160.8 155.1 150.8 149.6 148.9 148.6 148.1 145.2 141.6 140.2 138.3 136.5 136.5 136.6 136.5 136 136.2 136.8 136.9 136.6 136.9 136.6 142 146.7 149.7 149.9 151.2 153.5 156 159 162 164.1 168.2 173.2 177.5 179.9 179.6 178.8 177.4 174.7 166.4 158.5 158.8 157.5
279.7 280.8 280.1 277.2 276.8 275.6 276.4 277.6 277.9 276.3 273.4 270.2 268.8 266.8 265.3 263 260.7 260 259.6 259.3 260.3 261.7 263.5 266.3 268.2 267.8 268 264.5 261.7 261.4 260 258.5 259 264.4 269.6 269 262.9 256.8 251.5 248.8 248.7 255.3 258.3 255.7 250.9 246.2 240.9 232.2 235.6 237 235.8 238.3 242.8 247 247.7 245.5 248.6 254.2 248.6 237 217.8 235.7 242.1 238.1 233.2 232.1 232.8 230.5 229.8 230.1 233 232.4 232.5 228.9 228.2 227 225.8 225.8 224.8 222.1 216.1 217.3 216.4 216.3 210.2 203.8 204 205.9 201.6 213.1 212.9 213.5 211.9 211.1 209.8 212.4 212.4 215.8 216.9 220.4 223.3 223.1 221.1 219.1 222.5 224.6 224 220.3 218.4 219.5 219.6 219 220.6 221.7 222.3 223.8 229.5 231.7 233.7 232.7 231.4 230 227.1 220.7 222.2 218.9 216.5 213.5 207.9 206.9 197.5 198.5 197 193.7 192.9 191.5 191.1 189.7 188.9 185.8 183.8 179.1 173.4 165.3 171.3 169.8 167.5 165.3 166.2 166.5 163.5 162.5 162.5 159.5 160 157 155.3 151.3 148 144.7 142.2 140.7 140 139.8 138.7 138.1 137.3 138.2 137.5 137.3 137.4 137.5 137.7 138 138.3 138.3 138.3 139 142 145.4 150.4 150.2 151.6 154.2 157 160.4 163.4 166.7 169.5 174.8 178.3 181.6 181.8 181.1 178.8 176.2 167.9 161.1 160.1 159.7
280.9 281.7 279.9 277.5 277.4 275.2 274.3 275.5 278.7 277.2 274.1 270.7 266.5 263.4 262.2 261.8 260.4 260.7 261.3 261.6 263.2 265.4 267.3 269.9 270.6 271 270.3 264 262.6 262.6 259.9 258.9 261.3 266.2 271 269.2 265.3 259.3 253.4 249.2 247.6 254.6 253.5 253.2 248.9 243.5 236.2 238.3 239 239.6 239 240.2 243.3 246.7 248.4 250.7 255 255.2 245.7 234.5 216.1 233.6 239.4 235.8 230.7 228.6 229.2 226.2 224.8 227 229 231.2 230.6 225.4 221.9 220.2 219.5 221.7 219.6 216.8 208.6 205.7 204.3 203.4 200 196.1 192.2 193 191.1 200.4 205 208.4 208.7 204.1 202.5 203.3 204.6 207.1 209.4 211.5 214.6 217.3 215 210.8 215.5 217.9 221.6 221.3 215.1 212.4 213.1 212.4 214 215.7 216.2 218.8 222.2 224.1 224.7 224.6 221.9 222.9 219.6 214.1 211.5 208.4 203.8 198.7 195.1 190.6 189 188.8 187.9 185.5 186 186.8 186.5 185.3 183.7 181.3 178.8 175.6 171.5 164.5 159.6 162.9 163.2 161.1 162.2 162.9 161.7 157.1 155.3 152.5 150.7 148.6 149.4 148.5 147.1 142.5 140.6 139.7 140 139.4 138.5 138.5 137.8 138.5 139.7 140.3 142 141.4 140.7 141.4 141.3 140.6 140.7 140.1 143.9 146.8 149.4 151.3 153.1 154.8 157.9 161.7 165.5 168.1 170 175.4 178.8 182.1 184.2 182.5 179.7 175.9 168.1 162.7 160.9 160.6
280.2 280.5 279.4 278.3 277.5 276.3 275.5 275.9 277.4 277.1 275.1 270.9 264.5 262.1 262 262.6 263.6 264.4 264.7 264.7 266.5 268.8 271.4 273.9 275 275.1 270.6 265.1 264.7 264 260.7 259.6 262.5 268.2 272.4 270.7 266.5 261.5 254.7 250.6 246.6 243 244.2 244.6 243.9 240.8 236.1 240 240.4 240.2 239.7 240.7 244 247.2 249 252.3 256.8 253.1 243 231.5 215.6 231.1 236.8 232.9 228.7 224.5 224.2 221.8 223.1 227 228.4 230.2 226.6 221.6 216.7 215.7 214.9 214.9 216 216.7 210.8 202.5 199 197.2 195.3 191.7 188.7 186.6 186.1 186.1 196.6 205 207.2 204.5 200.1 197.6 199.4 201.4 203.7 206.6 209.6 212 210.9 206.4 209.3 212.8 216.8 220.1 218.6 213.7 210.1 208.5 208 209.1 210.5 212.2 215.5 216.5 217.1 216.4 214.7 215.6 215 214.5 209.4 203.8 198.8 197.3 196.1 191.3 187.7 183.9 181.6 179.6 174.4 181 181.9 181.5 180.1 176.5 170.3 169.6 166.2 163.6 156.9 159.7 160.3 157.8 157.3 159.1 160.6 157.4 151.3 148.8 146.7 145.2 145.7 142.8 141.1 140.8 140.4 140 139.6 139.1 138.1 140.2 140.8 141.5 144.6 145.3 147 148.7 147.3 146.5 145.3 143.8 142.2 140.6 144 147.1 149.2 151.7 153.5 155.5 160.5 162.8 165.1 168.4 170.3 175.7 178.6 180.9 183 183 180.4 174.8 167.7 164.9 162.9 162.3
281.8 280.3 279.4 278.3 277.1 275.6 274 272.8 275.7 275.9 274.8 268.6 263.1 263.8 265.3 266.9 268.5 269 269.1 269.3 270.5 272.8 275.6 278 278.8 277.8 269.4 266.9 267.3 267.1 263.8 260.5 264.4 270 274.1 272.2 268.6 262.7 256.3 252.4 250.3 248.5 245.6 245.2 244.4 242.5 240.5 240.6 243.4 242.2 241.1 240.8 246.2 248.8 250.3 253.9 258.1 251.1 241 228.2 219.7 227 233.8 230.6 226 221.5 218.5 219.2 224.2 226.1 227.2 227.4 223.2 218.1 212.8 212.9 212 212.2 214.2 215.5 211.7 203.4 198.4 196.1 192.9 190 187.8 186.1 185.1 185.3 184.8 190.2 203 204.3 201.7 196.5 193.8 195.5 199.4 202.6 204.6 206.8 207 203.9 204.7 208.5 212.5 214.8 217 217.6 214 209.4 206.1 206.1 206.1 206.2 208.7 209.4 210.7 210.5 208.2 209.5 210.9 213.5 210.7 203 198.7 200.7 199.2 196.4 192.5 187.7 183.6 182.2 170.8 173.7 176.5 174.1 173.7 170.3 165.8 164.6 159.8 157.6 154.7 154.9 156 151 149.3 148.4 152.2 154 149 147.1 145.3 144.5 143.4 142.1 141 140.6 140.2 139.7 139.2 138.7 139.1 143.4 146.3 147.5 149.6 149.7 151.3 154.2 153 151 148.7 146.6 143.8 142.5 144 147.6 149.5 151.4 153.8 156.7 162.6 164.4 167.1 168.6 171.8 175.1 177.6 179.1 180.5 182 180.2 177.3 171.1 167.5 164.6 163.6
281.6 280.4 278.9 277.8 276.5 275.5 273.6 271.1 272.5 274.2 271.3 265.9 265.3 267.1 269.7 272 273.8 273.8 273.3 274.7 276.1 276.8 279.6 281.5 282.2 277.7 270.6 268.4 271.5 268.9 264.7 260.9 264.2 272.7 275.4 273.6 269.8 262.9 257.3 254.2 252.9 253.7 252.6 249.1 246 242.7 241 242.3 246.9 244.5 243.2 242.8 248.5 251.7 251.7 255.3 259 251.9 240.4 230.9 214.4 216.8 230.2 227.4 223.3 219.1 215.4 218.4 223 224.8 225.3 224 219.3 214.5 211.5 211.6 211.2 211.5 215.2 216.4 212.9 203.9 197 193.9 191.8 187.4 186.6 187.1 186.1 183.7 183.8 183.8 190.2 201.4 200.7 196.1 190.1 190.9 193.5 197 199.3 202.4 203.9 203.7 203.1 204.6 207.8 209.3 210.5 213.9 215.1 211.7 207.9 207.2 207.1 205.1 203.8 205.3 205.4 204.6 202.5 203.8 205.2 209.1 209.8 202.8 197 198.7 199.2 198.9 196.2 191 186.1 180.5 172.6 163.3 168.8 168.6 164.5 164.8 161.1 160.9 154.3 150.4 148.9 149.5 147.7 145.2 143.7 143.2 142.8 141.5 143.2 142.9 145.5 145.2 143.5 142.3 141.2 140.4 139.9 139.4 138.9 137.2 147.2 146.2 147.8 149.3 153.4 153.3 153.9 157.5 157.4 154.6 151.7 149.4 146.7 143.8 143.9 147.6 150 150.7 152.9 155.3 161.1 165.9 168 169.8 171 174.4 176.6 178.4 179.3 180.1 180.7 178.6 174.8 170.4 165.8 163.9
281.9 279.9 278.3 277.3 277.3 276.3 273 269.8 270.1 271.1 267.9 266.1 269 271.4 274.5 277.2 279.6 279.7 278.8 280.1 281.9 281 283.1 284.3 283.4 276.5 271.8 271.4 274 271 266.3 261 265.6 274.3 276.1 275.2 270 263.5 259.1 255.9 255.6 255.8 253.5 249.5 246.5 242.6 241.3 244.8 249.4 247 246.4 246.8 251.3 253.1 252.9 257.3 260.1 252.7 242.8 232.8 224.3 213.6 217.9 222.2 219.7 215.5 213.7 216.6 220.6 222.8 222.1 219.5 215.2 211.6 210.4 211.9 211.6 212.1 218.2 218.4 213.7 204.1 196.4 192.8 188.9 187.5 191 197.2 192 183.7 183 183.4 182.4 190.1 201.6 195.4 188.6 187.9 191 195.2 198.2 200.7 202.2 204.1 203.6 200.4 203.7 205.1 206.1 208.2 208.7 208.7 205.9 204.4 205.3 204.7 200.8 200 200.7 200 198 198.7 199.7 203.4 206.3 200.9 194.5 192.6 193.4 195.8 196.8 192.3 186.3 179.9 171.8 163.2 161.5 165.4 161.8 159 155.3 151.5 149.3 148.2 147.7 146.7 145.6 144 143.6 143.5 142.9 142 141.8 142 141.6 142.7 142.8 141.7 140.7 140.4 140 139.3 138.5 143.6 149.5 148.2 148.1 150.6 156.8 157.4 155.6 162.3 160.9 157.9 154.7 151.9 149.1 146.4 144.4 146.7 149.7 150.6 151.7 153.9 159.8 164.7 167 170.3 171.3 173.1 175.6 177.7 178.4 179.2 179.5 178.3 176.8 172.9 167.9 163.7
283.1 280.4 278.2 277.4 277.4 276.3 273.2 269.8 268.1 267.4 267.8 269.4 272.1 277.5 281.7 284.1 285.9 286 286.3 287.3 285.8 283.7 285.3 285.9 281.7 275.7 272.8 276.3 276.7 274.3 268.8 261.5 265.9 273.1 275.9 274.9 269.6 264.9 260.9 258.8 257.1 256.1 253.3 250.8 248.2 243.5 242.2 247.7 251.3 249 248 249.4 254.4 256.1 253.3 257.4 258.2 249.8 242.8 236.3 225.5 218.4 212.8 212.5 213.5 213.1 212 214.8 217.2 218.1 216.9 214.6 211.1 209.6 210.7 212.6 210.4 213.6 219.7 220 213.7 204.7 196.5 191.1 188.7 187.1 205.6 202.4 196.8 190.4 182.4 182.8 182.3 181.7 198.3 197.1 188 186.5 187.5 191.3 195.3 197.9 200.3 202.1 203.1 198.4 199.3 201.6 202 202.6 202.8 202.7 200.2 199.4 200.5 201 199.8 197.5 195.8 195.7 193.1 194.4 195 197.6 200.2 196.1 189.6 188.4 188.4 189.5 191.7 190.2 184.9 178.8 171.9 162.4 157.3 157.5 157.1 152.9 151.2 150.6 149 148.1 147 145.3 144.4 143 144.1 144.2 144.2 144 142.8 140.7 141.3 141.5 141.3 140.9 140.5 140.1 140.1 139.7 139.4 149.7 149.3 148.6 149.1 151.4 156.4 158.3 156.7 164.5 164 160.2 156.7 153.8 151.2 148.5 146.1 148.1 150.2 150.7 152.4 153.2 156.7 162.4 167 170.1 171.1 172.8 175.3 176.9 176.5 177.1 178.2 179 176.8 172.1 169.3 165.6
283.8 281.2 278.6 277.8 278 276 274.1 270.8 269.2 269.4 270.7 272.9 277.9 282.9 286 289 292.2 292.5 293.2 291.9 287.2 283.3 283.9 283.1 279.5 276.9 274.7 279.5 278.6 277.7 271.1 263.3 263 268.2 272.4 273.1 268.9 265.3 262.9 260.5 256.7 255.5 254 252.8 250 244.9 243.3 248.4 252 249.6 250 252.6 257.5 257.2 253 254.7 253.5 247.5 243 238.2 226 218.1 216.3 215.2 211.3 209 209.3 209.7 212.9 213.5 211.6 209.4 209.2 210.6 211.7 212.2 209.4 214.6 218.9 220.3 214.2 205.7 197.3 191 187.8 200 209.9 205.8 199.8 198.8 196.2 185.5 181.5 181.1 190.4 197.4 190.9 186.8 184.8 186.8 192 194.4 196.8 199.1 200.6 198.8 196.2 196.9 197.2 197.6 197.7 197.6 195.5 194.4 195.2 195.7 195.3 194.1 192.1 191.6 187 188.8 190.9 192.5 192.9 190.1 185.7 183.2 183.8 184.8 185.3 183.5 180.6 175.3 169.8 160.4 154.2 153.3 151.9 150.8 150.1 148.4 147.1 146.4 146.4 145.4 144.7 143.9 146.6 149.8 145.7 145.3 143.9 142.5 141.2 142.4 141 140.8 140.3 139.9 139 142 148.9 151.8 150.4 150.1 149.4 152.3 155.6 157.7 157.2 163.8 165.4 162.2 158.3 155.3 152.7 150.2 148.1 147.9 149.1 150.1 152.2 153.3 155.1 160.3 165.1 169.1 171.5 172.9 175.2 176.2 177 175.7 176.7 178.2 176.1 171.9 169.3 167.1
284.3 281.7 279.3 278.5 279.1 277.9 275.6 272.9 272.1 272.5 273.3 277.6 283.1 286.8 289.6 293.7 297.3 298.8 297 292.3 286.5 282.5 279.9 278.3 276.6 276.7 276.9 280.5 281.7 280.4 274.6 265.7 260.2 262.6 267.2 269.5 266.9 265.8 264.7 262.1 256.9 254.5 254.3 254.8 251.8 247.4 245.9 247.8 251.1 250.8 251.6 255.9 260 256.1 251.1 249.3 248.1 245.2 240.1 235.9 227.8 222.7 219.3 215 213.1 211.7 209 207.5 205.8 206.8 208.7 208.8 209.5 211.3 212.1 210.7 207.5 210.7 213.9 215.8 212 205.8 195.4 190.1 189.8 206.9 213.3 208.9 204 202.1 197.8 186.9 182.1 181.2 181.9 198.1 194.7 190.3 184.2 183.4 187.5 190.6 193 195.1 196.9 197.6 195 190.7 190.1 190.8 192.4 192.4 191 190.1 190.4 190.2 189.6 189.3 187.5 186 183.5 182.3 185.6 186.7 186.4 186.4 182.9 179.2 178.8 179.4 179.9 178.7 176.4 172.5 168.4 161.2 152.8 152.1 151.2 150.4 149.8 148.9 146.5 145.9 145.8 145.4 145.1 150.2 154.3 153.9 147.1 144.8 143.4 142.4 142 140.8 140.2 140.3 140.6 145.3 149.6 151.6 153.3 155.4 154.2 152.2 150.6 152.4 155.1 157.1 156.4 162.7 164.4 161.1 157.6 156.1 154.4 152.1 150 147.6 149.1 150.8 151.3 152.9 154.4 158.7 163.6 167.5 171.3 172.9 174.3 175.4 176 174.8 174.8 177.6 176.1 173.8 169.6 167.1
285 282.6 280.1 279.5 280.4 279.6 277.7 276.2 275.4 275.8 277.7 282.2 285.8 289.2 292.6 298.1 302.8 302.6 297.3 291.7 285.7 281.6 278.1 277 277 277.9 276.7 279.2 284.2 283.5 278.3 270.2 263.5 258.9 262.4 263.6 263.2 266 266 263.2 259.3 256.6 257.1 256.3 254.4 251.7 250.6 250.3 251.4 251.7 251.9 257.8 256.8 251.5 246.8 243.3 242.5 240.7 235.9 233 228.2 224.5 220.8 215.2 211.2 210.2 208.7 207.6 206.7 204.2 205.9 209.2 210.1 210.4 209.6 208.4 204.4 206.1 208 208.7 208.2 198.6 192.2 189.2 200.3 213.2 216.1 210.8 206.2 203.2 197.5 191 182.2 179.8 191.2 196.9 196.7 194 188.7 183.5 183.1 185.4 187.3 191.2 193.1 195.1 195.4 190.2 185.2 184.7 186.4 186.6 186.7 186.3 186.9 185.9 184.4 183.9 181.8 181 179.8 176.7 179.9 180.9 180.8 181.1 179.2 176 172.5 174.5 175 174.1 173.2 169.9 166.3 162.1 153.5 151.6 150.8 150.1 149.4 146.9 146.3 146.2 146.3 146 145 154.1 154.4 154.7 150.1 144.5 143.7 142.7 142.4 140.6 139.9 143.9 144 153.7 156.7 156.9 158.9 159.6 158.6 154.7 151.6 152.5 153.7 155.2 154.7 158.1 159.4 158.9 157.6 155.8 155.2 154.2 151.4 149.5 150 151.5 151.6 151.9 153.2 157.6 161.6 166 170.3 172.4 173.4 175.6 176.1 174 173.4 175.3 176.7 174.2 171.1 167.1
286 283.6 281.1 280.9 281 281 281.1 280.1 279.3 280.1 282.6 285.8 287.7 290.3 295.7 301.3 305.5 300.7 295.5 290.9 285.4 280.4 278.5 277.8 277.7 278.7 277.4 281 287.1 286.4 283 274.3 268.5 260.8 259.1 258.7 262.7 265.8 265.9 263 259.5 258.5 258.6 259.9 258 254.9 254.5 253.5 253.1 252.2 250.9 254.4 252.5 247.7 242.3 238 237.2 235.2 231.7 227.4 227.1 223.3 217.2 212.1 210.5 209 206.3 205.4 203.7 203.2 204.2 203.6 205 207.8 205.9 203.7 201 198.8 197 195.5 194.4 192.9 191.6 194 208.8 218 218.4 212.6 208.1 203.7 197.1 190.7 180.3 179.8 188 195.4 198.5 196.1 191.5 185.5 179.5 180.7 181.6 186.6 189.2 192.1 194.4 192 186.8 183.6 181.3 180.5 181.3 182.1 182.7 182.7 180.7 179.6 178.1 175.7 174.6 174.8 174.3 176 176.3 176.7 175.9 173.3 168.1 168.2 170.3 169.9 167.1 164.3 162.5 159.8 153.9 151.6 150.5 149.4 148.2 146.8 146.9 145.1 146.9 145.4 154.4 155.9 154 154.4 151.2 144.5 143.6 143.1 142 140.5 141.9 145.4 149.9 157.3 161 163.5 164.4 163.4 160.7 157.2 153.4 151.4 152.1 152.4 152.4 152.4 156.6 157.4 157.5 155.7 155.7 154.3 151.9 151.2 150.9 151.6 152.8 153 153.9 157 160.3 164.5 169.2 171.1 172.1 174.3 175.8 174 172.2 173 174.6 173.4 171.3 167.8
286.4 284.5 282.6 282.3 283.3 285.4 284.6 282.2 282.9 284.4 287.2 289.3 288.8 290.4 295.1 300.1 301.9 297.2 293.6 290.1 285.1 279.9 279.2 278.4 279.6 280.5 278.9 283.1 289.5 289.9 287 279 272.5 264.5 259.8 258.6 262.3 265.3 264.6 262 259.4 259.2 259.4 261.8 259.6 255.7 256.1 255.2 253.8 250.7 247.7 248 248.2 243.8 238.6 233.5 231.3 229.7 225.8 222.6 225.7 219.2 213.4 211.1 207.5 206.9 205.8 204.3 204.4 203.3 200.5 200.7 199.5 196.3 202 198.9 197 193.1 195.3 194.2 193.3 192.1 191.1 206.4 215.7 222.9 219.2 214.1 209.3 203.8 196.3 190.4 178.6 179.1 183.3 194.9 196.5 192 189.2 186.2 180.6 177.9 177.9 181.8 184.9 188.7 192.7 194.3 190.1 182.9 180 179.1 177 177.9 177.2 178.5 177.6 176.8 176.3 175.5 172.3 168.9 169.7 171.3 172.4 172.5 173.6 171.1 166.8 160.6 163.1 159 158.1 157.6 155.7 153.9 152.3 150.9 149.6 148.5 147.7 146.3 147 146.5 146.9 151.1 156.2 158.1 155.4 154.1 153 147.3 144.3 143.7 142.3 140.1 143.2 147.9 153.1 159.4 164.5 169.2 169 166.9 163.2 159.5 156.2 153.9 152.2 151.9 151.6 151.9 154.4 155.3 156.2 155.8 154.7 152.6 153.1 152.6 152.1 153.2 153.3 154.2 155.1 156.2 159 162.8 167.4 170.2 170.9 173.3 175.7 174.1 171.8 172.7 172.7 171.8 168.5 167.7
287.4 285.6 284.9 288.9 289.4 289.4 288.2 285.8 287.2 289.3 291.8 292.3 289.4 289.5 292.7 296.8 296.9 293.7 291.1 288.5 283.4 280.5 279.4 278.6 282.4 282.7 279.7 283.9 290.2 292.1 290.2 282.6 275.8 268.7 261.4 258.9 261.6 263 262.4 259.9 257.9 258.6 260.2 261.8 257.8 254.7 255.7 255.3 253.6 248.3 244.2 241 241.3 237.6 231.9 229.3 224 223.5 220.2 217.4 218.7 213.1 210.7 207 208.2 208 209 207.4 206.6 205.3 202.4 201.5 200.4 198.9 199.4 197.9 196.9 197 196.3 198.1 200.4 205.6 210.8 217.6 221.7 224.5 220 214.3 208.9 202.5 195.9 190.3 181.2 177.9 184.5 195.4 192 187.5 184.1 180.9 179.6 175.7 174.5 175.5 180.7 184.6 190.2 194.4 190.9 184.6 179.1 177 175.8 174.8 172.8 174.2 173.9 174.3 173.6 174.5 174.1 172.9 170.4 165.5 164.6 169.6 169.4 168.6 165.1 158.3 155.9 155 154.1 153.7 153.5 152.7 151 149.8 149.1 148.6 148.1 146.7 147.3 149.5 152.5 151.7 156.9 159.1 157.5 154.1 154 149.1 144.7 144.1 143.1 140.2 144.2 148.4 154.4 159.6 164.7 170.3 172 169.6 165.2 160.6 157 154.5 152.4 151.2 151 151.3 152.3 153.5 154.7 155.4 153.6 153.3 154 154.2 153.4 154.4 154.8 155 155.7 157.1 159.4 162 165.5 168.5 169.5 172.6 175.6 174.1 172.1 171.2 170.9 169.7 170.3 170.3
292.2 293.3 295.5 295.2 293.7 292.1 290.4 290.3 292.3 294.7 296.3 294.5 290.4 288.2 289.1 289.9 290.4 289.7 287.6 286.3 282 281.7 280.2 280.2 284.5 282.8 279.6 283.9 289.8 294.4 292.2 286.1 278.5 269.9 262.4 256.3 258 259 258.4 256.9 256.6 257 259.4 259.6 255.5 252 253 253.6 250.2 243.8 235.7 232.8 227.7 225.7 224.1 222 220.4 216.3 212.9 213.8 211.9 210.7 210.3 219.7 218.7 217 212.4 207.5 206.4 205.3 204.6 203 201.8 199.7 194.7 201.6 207.8 211.1 208.3 207.9 206.4 207.2 211.8 216.2 220.2 222.6 219.7 214.4 207.4 200.3 195.8 191.2 181.4 177.4 181.9 191.8 187.4 174.7 173.6 172.7 170.8 170.1 168.8 172.5 174.9 181.5 187.3 192.5 190.1 184.4 179 176.9 175 172.9 171.7 170.6 171.5 172.7 173 168.8 172.2 172 170.6 168.4 165.3 162.2 165.1 163.2 159.2 156.2 155.2 154.1 153.1 152.4 152.6 151.8 150.2 149.7 149.6 149 148.5 147.8 151.7 154.1 154 153 156.8 160.7 161.7 158.7 157 152.1 148.6 145.9 142.9 141.2 143.7 150.2 155 160 165.4 171.4 175.4 171.9 166.6 161.3 157.2 154.2 151.4 150.6 150.9 152.2 151.9 152.1 153.8 153.6 153.6 154.3 154.8 155.3 155.7 156.9 157.6 156.5 156.8 157.8 159.8 162.1 165.7 167.8 168.7 171.8 175 174.8 173.2 171.6 170.9 171.1 171.8 171.7
297.8 299.1 299.2 298.5 296.9 295.7 294.7 295.5 298 300.6 299.2 296 291.9 289.1 288.7 287.5 286.8 286.4 285.2 284.1 284 283 281.2 281.7 285.6 282.7 279.3 282.9 288.1 292.9 292.8 287.6 280.7 271.4 263.4 255.7 250.8 253.4 254.5 252.1 250.7 255.3 258 256.8 252.1 250 250.7 250.2 243.8 238.5 231.6 226.8 223.5 220.7 220.1 218.5 216.7 215.8 217.7 214.6 215.2 214.6 217.7 222.7 220.5 218.4 215.3 208.6 206.2 205.4 204.8 204.1 203.7 202.2 200.3 204.2 209.7 213.7 212 210.8 208.3 206.6 209.7 214 216 217.8 217.6 213.8 208.4 199.7 194.4 188.7 182.7 177 177.2 182.1 176.8 174.7 173.4 172 172.7 170.7 169.9 170.5 172.3 177.8 183.5 189 188.2 183.4 179.1 176.7 174.6 172 168.5 167.9 169.4 171.4 170.3 168.1 163.7 159.3 159.9 162.2 162.9 159.3 158.7 157.7 156.4 155.7 154.6 153.4 152.2 151.4 150.9 150.6 150.1 149.8 149.6 149.6 147.4 154.6 155 156.5 156 155.3 157.5 163 165 161.7 158 154.4 151.1 145.1 142.5 141.4 143.6 150.1 154.2 160.1 165.7 172.1 176.1 172.3 167.8 161.9 154.9 151 149.8 149.6 150.2 151.8 151 151.2 153.4 154.1 154.8 156.3 156.3 156.6 158.6 159.9 160.8 160.2 158 158.4 159.9 163 165.3 167.2 168.2 171.6 174.8 176.1 174.4 172.7 171.8 172.1 172.7 174.4
303.6 302.7 301.8 300.8 300 300 300 301.7 304.3 303.8 301.6 297.4 293.6 291 290.1 287.6 286.5 285.7 284.7 284.5 285.4 283.5 280 282.3 284.8 281.9 279.5 280.9 285.4 289.6 291.1 287.8 282.1 273.9 265.1 257.9 251.7 247.1 247.5 245.1 247.8 253.4 253.9 251.5 247 245.1 245.6 244 239.2 233.1 225.4 231.2 234.7 227.8 221.4 217.9 221.6 224.6 221.9 218 217.5 219.3 224.5 224.7 222.2 219.7 216.6 211.9 207.4 206 205.4 204.9 203.8 201.8 204.8 204 209.7 212.9 210.7 212 210.6 206.6 207.4 210.8 212.1 213.4 212.7 210.2 206.1 199.2 193 188.8 185.6 180 176.6 175.5 176.1 175.3 173.7 176.8 175.5 169.8 168.2 170.4 171.3 174.2 179.7 183.2 183.8 180.6 177.2 176.3 173.6 170.5 167.6 165.4 166.6 165.1 162.3 160.8 160 158.5 157.4 157 156.6 157.2 156.6 156 155.2 154.6 154.1 152.9 151.8 151.6 151 149.4 149 149.8 149.6 147.5 155.8 155.8 156.7 158.9 158.4 157.6 160 165.1 166 162.6 159.7 154.6 152.9 145.8 143.6 141.2 144 149.4 151.2 158.2 164.6 170.5 174.3 170.5 166.5 160.6 150.3 148.6 148.8 148.6 149.3 150.8 150.4 151.2 152.1 153.8 154.7 157.8 158.1 158.5 159.6 160.4 162 162 161.4 159.5 160.3 161.3 163.4 165.9 167.7 171.2 174.7 176.4 175.5 173.7 173.4 173.3 174 176.3
307.4 305.9 304.6 304.1 303.4 304.8 305.8 307.8 308.7 307.2 303.2 298.9 295.6 293.6 291.2 288.8 287.6 286.4 286 287.1 286.7 282.8 278.6 281.6 283 280.3 280.1 276.9 281.3 285.8 288.2 286.6 283.4 276.6 268.4 261.4 250.8 244 242.9 242.9 243.6 247.3 246.9 244 240.3 238.8 238.9 236.3 229.4 226.8 236.6 240.7 241.5 240 231.1 231.9 230.8 226.4 220.3 219.2 221.1 225.3 229.1 226.6 223.4 220.7 218.5 213.5 209.5 207.8 206.5 205.5 206.4 209.4 208.6 207.8 206.7 208.4 210.5 211.7 211.6 209.1 206.5 207.2 208.3 209.6 208.9 206.1 202.9 197.1 191.2 188.4 182.7 179.6 179.9 179.6 180.3 176.5 178.1 183.7 179.5 169.5 167.8 168.8 169.8 171 175.7 178.2 179.4 177.3 174.5 173.6 170.2 169.5 166.2 163.5 162.3 161.7 160.8 158 157.3 155.5 157.4 157 155.5 154.8 153.1 154 153.4 153.3 153.1 152.5 151.5 151.4 149.9 153.3 156.6 156 154.9 161.9 160.7 158.2 159.5 161.9 160.6 160 161.8 165.2 166.3 164.6 160.9 155.5 151.3 146 143.8 141.5 145.1 150.1 152 154.7 161.3 166.3 169.1 167 162.7 154.8 149.1 148.2 148.3 148.5 149.1 149.8 150.6 151.4 152.6 152.6 154.4 157.2 159.8 159.9 160.2 160.6 162.3 163.2 163.4 161.6 160.9 162.1 163.2 164.9 167.2 170.6 174.8 177.5 177.4 175 174.4 174.5 175.6 177.8
311.4 309.5 308.4 309.7 309.7 310.2 311.2 313.4 313.5 310.3 305.6 300.7 298.1 295.3 292.6 290.3 289.5 288.6 287.8 289.8 287.6 281.8 277.1 279.1 279.8 280.9 280.8 275 278.1 282 285 286.1 284.5 278.5 270.8 262.4 251 243.1 242.3 241.7 239.9 241.1 239.3 238.7 234.2 232.3 231.3 229.5 229.7 235.9 240.4 242.3 240.8 240 238.2 236 231.5 226.2 220.8 221.1 224.6 228.3 231.4 228.9 224.8 222.8 219.8 215.2 211.1 208.9 208.1 208.4 209.5 211.5 210.2 210.3 209.1 209.6 211.9 213 212.3 211 209.2 204.8 205.3 208.2 208 204 200.2 196.4 191.4 188.3 182.1 183.5 185.2 185.3 190.9 192.8 189.8 185.3 180 174.9 165.6 166.9 169.2 169.7 171.4 172.9 173 171.9 169.7 168 166.9 164.4 163.5 162.2 161.4 157.5 159.1 158.8 158.1 157.3 155 156.2 155.9 155.6 155.1 154.2 154 153 151 152 156.3 159.7 160.7 162.5 165.8 165.2 163.8 166 164.2 161 162.8 164.8 163 161.8 162.7 165.5 168 167.7 162.7 156.9 153.6 147.6 144.4 141.6 147 151.1 152.1 152.5 157.4 161 162.6 161.8 154.6 148.9 148.1 147.8 148.6 148.9 149.6 150.7 151.4 152.6 153.3 152.9 154.2 157.6 160.2 160.2 159.6 160.7 162.4 164 164.5 162.4 162.3 163.5 164.9 166.3 168.2 171.6 175.4 178.8 179.6 176.6 175.4 176.2 177 179.1
317.1 315.8 317 316.4 317.3 317.8 318.6 319 317.6 313.3 308 302.9 299.5 296.4 293.7 291.7 290.6 289.6 289.9 291.6 287.1 282 276.3 273.9 276.6 280.4 279.3 272.1 273.5 277.9 282.6 284.7 284.6 279.4 272 262.8 252.3 241.9 238.6 238.5 235.2 234.6 233.2 231.7 230.5 229.6 229.5 231.8 234.7 238.5 241.5 241.5 237.3 235.9 236.1 234.5 231.5 226.2 222.2 224.6 228.1 231.4 233.6 229.2 226.6 224.8 221.5 217.8 213.3 210.6 212.7 210.8 212.4 213 211.8 212.3 211.9 211.9 213.4 214.8 214.5 214.8 212.4 207.7 203.4 205.9 207.7 203 199.3 195.9 191.8 186.4 183.5 189.1 188.1 186.5 190.7 194.2 192.3 186.8 179.9 178.9 168.4 166.1 166.5 168.6 169.3 168.8 167.5 166.4 165.8 164.5 163.7 163 162.4 160.4 163.6 162.3 161 159.7 159.2 159.7 156.9 156.5 157.9 159.4 158.8 161.3 163.5 163.5 163.1 164.3 162.6 162.8 163.3 166.2 169.5 167.6 167.2 167.9 165.9 163.7 166.1 168.1 166.4 164 164.4 164.7 168.5 168.8 164.1 157.9 152.7 147 141.6 142.3 148.3 152.9 151.4 151.3 154.3 156.2 155.9 154.2 148.4 147.9 148.2 148.2 148.7 149.7 150.9 152.2 152.8 154 154.3 153.6 154.3 157.3 159.9 160.5 161 161.3 162.8 164.2 164.8 163.2 163.4 164.7 166 167.5 170.1 173.1 176.7 180.5 181.4 179 177.8 177.2 177.9 180.3
324.1 323.6 324.3 324.1 325.9 327 326.9 325.1 321.5 315.9 309.2 304.6 301.2 298.4 295.8 293 291.8 290.7 291.9 292.1 287.1 281.7 276 272.3 274 277.5 275.4 271.3 269.7 273.2 277.1 278.1 279.5 277.1 269.7 261.3 251.7 239.2 235.1 234.4 233.2 232.4 231.7 231.2 230.3 230.1 234.7 236.8 237.7 239.2 241.1 239.6 235.2 232 231.9 233 230.8 226.5 223 227.8 231.5 234.6 235 230.5 228.5 226.5 223.4 219.7 214.9 212.1 214.5 213.5 214.4 215.2 214.5 216 214.9 213.6 214 215.3 217.3 218.5 216.2 209.5 204.1 203.3 204.4 201.6 198.7 195.5 193.5 185.7 191 192 190.2 188.1 190.5 193.8 194.3 187.6 181 177.8 175 169.4 166.9 167.3 167.7 166.8 165.7 165.4 164.7 163.9 163.1 162.1 167 166.5 167.9 166.6 166.8 165.9 162.4 162.7 160.6 158.4 157.9 162.5 164.5 165.7 167.4 168 168.6 167.5 165.4 165.4 165.2 169.2 172.7 170.5 169 168.6 164.7 166.8 167.6 170.3 169.6 166.8 165.7 165.3 167.8 168.9 164.6 157.8 153.4 143.8 141.4 143 148.4 154.5 152 150.5 151.7 151 149.9 149 147.6 147.9 148.2 148.9 150 151.5 152.8 153.9 154 154.9 155.4 155.1 155.2 156 158 160.9 161.7 162.2 163.1 164.1 164.7 164.4 164.8 165.9 167.2 169.5 172.5 174.7 178.1 182 183.5 182.4 180.3 179.5 179.1 181.2
331.1 331.1 333 334.3 335.8 335.8 333.9 330.3 323.9 316.9 310.1 306.3 302.9 300.7 298.1 295.2 292.6 291.6 293.8 290.6 285.9 281.2 275.6 270.8 271.9 272 271.7 270.5 267.6 269.5 271.3 271.8 271.9 269.7 264.4 258 250 238 234.7 234.1 233.5 232.7 231.9 231.6 231.4 230.8 234.9 238 238.2 238.8 240.3 237.9 234 231.5 229.3 230.9 228.4 223.8 226 231.1 234.2 236.5 236.4 231.7 229.8 227.9 224.2 219.5 216.3 217 216.7 216.5 216.9 217.7 217.3 217.5 217.1 215.9 214.8 217.8 220.4 222.8 218.5 213.3 207.8 202.6 198.9 196.7 195.6 193.5 193.3 184.8 193.1 195.1 193.1 190.3 191.6 194.7 194.5 185.8 181.4 177.2 174.3 168.3 167 163.4 163.7 161.7 161.6 162.3 163.8 167.1 171.7 172.8 170.4 168.8 169.6 170.1 171.6 171.9 167.9 170.1 169.1 169.5 168.4 166.8 168.1 169.8 171.2 171.9 172.5 171.6 168.3 167.8 167 171.9 172 170.8 169.5 167.5 166.1 168.3 169.5 172.9 171.8 168.4 167.1 166.8 167.5 167.8 164.7 158.2 151.3 141.5 141.6 143.4 146.3 151 150.7 150 150.8 150.7 149.9 147.8 148.2 148.4 149 150 151.5 153 154.5 155.2 155.2 155.7 156.2 156.7 155.8 157.4 160.1 161.3 161.9 162.7 164.2 164.7 165.2 166.2 166.3 167.5 169.3 173 175.1 176.4 179.5 183.4 186.1 185.1 182.4 180.3 180.6 182.6
340.3 341 343.2 345.3 345.8 344 340.6 332.6 324.8 317.2 311 307.9 305.1 303 299.5 296.3 293.5 292.9 292.6 288.4 284.3 280.1 275 269.5 268.6 269.5 270.9 269.6 266.4 264 266.3 266.3 266.3 264.3 260.2 253.8 248.5 240.3 235.9 234.3 233.8 232.9 232 231.6 231.4 231.2 234.5 237.7 237.7 238.7 239.8 237.4 233.3 230.4 228.3 227 225.3 226.1 230.1 234.7 237.2 238.1 237.9 232.9 230.6 228.6 226.1 221.6 217.9 220.1 219.1 219 220.2 220.5 218.8 217.2 217.1 217.4 218.2 220.4 224.4 227.6 222.6 217.4 210.9 206.4 199.5 193.9 192.4 189.4 186.4 191.3 194.7 197.3 194.9 193.2 193.7 196.6 194.8 187.7 178.4 174.6 172.4 171.8 170.5 173.4 172.5 173.1 174.6 174.5 176.2 177.3 177.3 176.9 176.6 176 176 175.8 175.7 176 176.1 174.9 175.5 174.6 173.1 172.4 172.7 173.8 174.9 175.9 175.8 173.7 171.2 169.4 169 172.5 170.3 169 167.5 165.9 164.5 167.5 170.7 173.5 174.3 171.1 168.8 167.7 167.6 167.2 164 157.3 146.3 142.3 143.5 144 145.1 146.8 148.2 147.6 147.2 147.9 148.2 148.4 149.3 149.6 150.4 151.6 151.8 153.1 154.2 156.2 156.8 156.7 157.6 158.1 157 158 161 162 162.6 164.1 166 166.5 166.3 167.3 167.9 169.6 172.5 176.2 178.1 178.8 181.3 185 188.5 188.7 185.7 183.1 182.3 183.4
349.4 353 354.9 356.9 357 353.7 346.5 333.9 325.3 319 314.1 310.1 306.7 304.2 299.2 295 293.1 293.2 290.6 286.4 282.3 278.2 273.3 268.6 268.9 270.9 271.6 269.3 265.8 260.5 260.9 261.2 261.3 258.7 255.4 249.9 245.2 239.5 236.2 234.5 234 233 232.1 231.5 232 232.5 233 235.2 236.6 238.1 239.7 237.7 234 231.4 228.3 227.1 227.7 229.4 233.1 237.7 239.4 239.2 238.9 234.4 231.6 230.3 228.4 222.2 223.2 223.3 222.3 221.2 222.2 222 220.2 217.9 218.4 218.1 217.7 222.6 227.7 231.7 227.3 222.4 215 208.4 202.2 196.1 193 188.6 188.9 194.7 197.4 199.2 196.3 195.2 195 197.9 195 188.8 179 176.2 176 175.7 175.1 178.9 178.2 179.3 180.4 181.8 181.6 182.1 181.4 181 180.8 181 180.1 179.4 179.1 178.7 178.9 179.6 179.7 178 178.1 177.7 177.1 179.3 179 180.1 179.9 176.9 174.4 170.4 168.4 170.5 168.3 167.5 165.4 163.3 162.3 165.2 169.6 174.1 175.9 173.3 170.5 168.4 167.9 166.6 162 153.9 143.3 142.9 142.8 143.7 145.7 145.6 145.4 145.9 146.6 146.4 149 151.8 151.6 151.4 152.3 154.3 154.4 153.9 154.2 157.8 157.9 158.2 158.5 159 158.3 158.7 161.9 163.3 163.9 165.1 167 167.7 168.2 168.1 169.9 172.7 175.9 179.8 181.7 182.2 182.9 187 190.9 191.5 189 186 184.1 184.3
362.3 365.3 366.8 368.6 367.8 364.2 355.1 338.9 328.8 322.8 317.4 313.3 309.6 305.6 299.2 295.5 293.8 293.6 288.5 284.4 280.4 276.3 272.6 268.1 269.6 272.5 271.2 268.9 264.9 257.1 255.1 255.8 254.7 251.4 249.7 246.3 241.7 238.2 236.5 235.4 234.2 233.6 233.3 232.5 233.4 233.9 234.4 234.2 236 238.9 241.2 238.8 235.6 232.6 231 229.9 230.6 232.9 235.9 240.7 242.5 241.4 239.8 235.7 233.1 232 230.1 224.5 227.1 225.8 224.4 223.4 224.2 224.6 221.9 219.4 219.6 219.1 218.8 224.7 230 234.6 233.3 228.4 221.8 213.6 206.3 200.8 195.1 188.3 194.2 197.7 200.3 200.7 198 196.7 195.4 196.6 192.1 183.5 180.5 183.9 184.2 182.6 179.6 180.7 181.3 183 184.1 186 187.1 187.1 186.9 185.5 185.1 185.5 184.1 183.3 182.6 182.1 183.1 184.6 185.8 182.5 183.3 183.6 184.1 184.9 183.8 186.1 182.9 179.6 177.6 172.2 169.9 168.4 166.3 165.4 163.3 161.9 160.3 163.5 167.4 172 176.1 174.8 171.8 169.7 167.6 163.6 159.6 148.1 143.4 142.6 143.4 145.9 146.6 147 148.3 150.8 150.7 150.1 153.9 155.8 156.3 154.3 154.1 154.9 156.2 155.8 155.2 159.2 159.4 159.7 160 160.1 159.7 159.4 161.9 163.9 165.4 165.5 167.1 167.7 168.6 169.8 172.5 175.9 179.4 183.4 185.6 186.8 186.7 189.2 193.8 194.7 192.8 189.1 186.5 186.2
377.9 379.9 380.8 379.7 377.5 373.4 360.5 342.1 334.8 329.5 322.6 316.7 313.5 310.8 304.1 297.7 295 293 286.9 281.5 277.4 273.4 270.1 267.6 271.2 273.5 271.7 268.8 263.7 256.7 251.6 248.1 246.8 241.9 241.4 241.5 238.5 238 235.9 234.6 234.6 234.1 234 233.5 234.5 235.3 235.4 235.4 237.7 241 241.4 239.6 237.2 235.7 233.8 233.7 234.7 237 239.8 243.2 244.5 242.9 240.9 236.9 235.4 234.2 230.4 230.1 229.3 227.8 226.3 225.4 227.2 226.2 223.6 220.7 221.1 219.9 220.9 226.1 231.3 236.3 236.6 231.3 225.7 219.3 210 204.5 195.8 191.9 199.3 201 203 202.2 199.5 198.2 196.9 193.5 188.8 186.9 188.8 189 188.3 187.7 186.1 183.8 185.1 186.8 188.8 190.4 191.7 192 192.1 191.1 190.9 190 188.8 188.2 187.6 187.7 188.3 189.1 189.2 189.1 189 189.7 191.1 190.6 188.1 190.8 185.7 182.9 179.2 173.3 169.3 167.7 165.9 163.9 162.3 160.5 158.3 162.8 165.9 170 173.4 173.1 170 167.2 163.9 159.8 156 145.6 142.4 142.7 143.1 145.8 146.3 146.8 150.5 155 156.7 157.6 159.1 159.8 160.3 157.1 156.1 156.6 157 156.8 156.3 160.3 160.7 160.9 161.1 161.2 160.8 161.6 162.3 165.1 166.9 167.2 167.1 168.8 170.3 172.2 176.3 180.2 182.8 186.8 189.6 191.2 190.1 191.4 195.7 197.2 195.4 191.5 189.4 188
394.3 396.9 394.9 392.2 386.1 376.6 360.5 347.8 339.4 334.7 329.1 321 317.7 313 307.9 301.7 295.4 291 284.5 279.2 274.1 269.9 267.9 267.7 271.4 273.3 271.3 269.2 264.5 259.5 251.9 243.1 240.5 239.8 239.3 239.1 238.4 237.4 235.5 234.4 234.4 235.5 236.1 235.4 236.1 236.8 236.9 236.9 239.8 243.1 243.6 241.8 240.2 239.3 238.7 238.2 239.5 241.7 242.2 245.2 246.4 244.5 242 238.8 237.7 236 231.5 233.3 231.7 229.8 228.1 227.1 228.8 228 226.1 222.4 222.9 220.7 220.5 225.7 231 235.9 237.4 231.2 225.5 220.7 212.8 206.9 195.6 194.5 201.7 203.6 205.7 204.4 201.6 199.8 198.5 194.9 187.6 195.8 196 194.3 192.8 192.1 191.5 191.9 189.1 190.6 192.8 194.8 196.3 196.6 196.7 196.6 196.3 195.2 194.1 193.5 193.5 193.2 194.1 194.4 193.7 194.7 195.7 196.1 197.9 195.2 191.3 191.5 187.8 184.7 180.3 172.8 168.7 166.8 166 165.4 162.4 159.3 156.5 158.8 163 166.5 169.5 168.2 165.5 162.6 159.8 156.6 151.8 142.2 142.7 143.3 147.1 147.3 146 147.9 153.9 156.9 158.7 160.3 161.9 162.6 161.5 158.6 158 158.1 158.1 157.6 156.7 160.1 161.9 162 162.1 162.2 163.1 164.1 163.6 166.3 167.9 169.1 169.6 170.9 172.8 175.4 179 184 186.3 190 192.9 194.9 194.1 195.3 197.8 199.5 197.9 194.4 192.5 190.6
414.8 416.7 412.5 405.4 394.6 381.5 362 350.3 342.3 337.8 330.9 325.4 319.7 314.3 309.3 303.2 296.6 289.8 282 277.2 272 268.9 266.2 267.5 270.9 272.3 271.4 268.6 264.2 259.6 242.8 242.3 242.4 243.7 238.6 237.9 238 236.5 235.5 236.6 238.5 238.5 237.5 237.6 238.1 238.2 238.5 239.3 243.1 244.7 245.3 244.2 243.1 241.7 243.3 243.2 244.1 245.7 245.5 246.5 248.2 245.7 243 240.8 240.1 236.4 234.3 236.2 234.6 232.1 230.1 229.1 230.3 230.1 227.6 224 223.9 222.2 219.7 224.6 229.1 233.1 234.7 230.3 225.2 220.3 213.4 206.9 194.7 199.1 204.9 206.5 208.8 206.9 204.5 201.4 196.3 194.7 196.5 198.8 199.8 198.7 197.9 197.7 196.5 197.5 198.7 194.5 196.9 199.4 200.9 200.5 201.1 200.8 200.6 200.2 199.6 199.8 199.4 199.5 198.8 198.7 199.9 201.8 204.4 206.3 204.4 199.1 194.1 191.1 188.5 185.4 179.9 175.2 171.2 167 164.8 164.4 162.8 158.8 156.7 155.3 156.6 162 164.1 163 160.4 157.4 154 150.7 142.2 142.5 143.2 144 144.9 147 149.1 153 158 159.7 161 162.7 164.9 165.4 162 159.2 159 158.9 158.9 158.6 157.6 160.8 163.7 163.2 163.2 163.8 165.6 165.9 165.7 168 170 171.5 172.4 173.3 174.8 177.1 182.7 187.6 189.4 193 196.3 198 197.7 197 199.2 201.1 200.1 197.7 195.8 193.6
432.2 431.2 424.6 412.4 398 382.7 365.2 354.9 347.4 340.4 334.1 327.5 322.1 313.9 308.3 302.9 297.2 290.6 280.2 275.6 271.1 268.1 265 265.5 269.1 269.8 269.5 265.7 261.2 256.8 243.8 247.5 250.2 244.1 240.5 238.1 236.4 236.4 240 245.1 242.4 241.4 240.6 240.1 239.4 239.6 240 241.8 244.9 247 247.1 246.5 245 245.6 247.1 248.1 249.1 248.9 249.2 249.8 249.8 247.5 245.2 242.8 240 236.8 238.3 239.6 237.5 235 232.4 231.1 231.9 232.2 229.1 225.7 224.8 223.3 218.7 221.5 225.6 229.4 228.9 226.9 222.6 217.9 211.6 202.8 196.4 202.4 206.5 209.9 212.4 210.5 206.6 200.2 205.1 205.1 201.5 202.6 204.4 203.5 202.7 202.1 202.4 201.8 202.6 199.4 205.9 209.3 210 210.7 207.5 207.6 206.4 207.9 211 212.9 213 211.4 210 210.2 209.4 211.4 214.6 213.4 208.5 200.7 194 190.7 187.7 184.5 178.7 174.5 172 167.3 164.3 161.3 160.5 159.7 157.9 156.2 154.4 156.1 158.7 158.2 154.9 151.9 147.1 143.2 143.1 143.5 143.8 144.5 147 149.6 153.9 156.9 161.8 163.4 164.3 166.7 169.1 167.2 162.7 160.4 160.2 159.9 160 160.2 158.5 161.2 164.7 165.3 165.4 165.6 167.7 168.4 168.7 170.7 172.8 174.4 175.3 175.4 176.8 178.7 186.5 191.2 193.4 196.1 200 202.6 201.5 200 200.6 203.2 202.3 200.2 197.9 195.6
447.1 440.8 430.4 416.4 398.7 383.6 371 360.4 352.7 344.5 337.1 330.7 323.7 316 308.5 303 297.2 288.8 282.8 275.9 271.3 268 263.8 262.7 264.9 265.4 265.3 261.5 258.9 253.3 245.8 251.1 250.3 249.5 244.5 241.4 239.2 242.4 248.6 249.7 250 245.2 244.7 244.8 241.7 241.6 241.8 243.8 247.1 247.7 247.7 247.2 247.2 249.4 251 252.9 252.7 251.9 252.1 251.5 251.1 248.9 247.2 245.1 241.2 239.3 241.9 242 239.9 237.2 234.6 232.8 233.7 234 230.7 227.6 226.6 224.5 220.2 218.4 221.3 224.7 224.5 222.7 219.5 215 210.1 197 200.6 206.9 210.1 213.3 215 211.5 206.1 208.8 209.6 209.4 209.8 207.1 208.7 208.9 208.4 208.3 208.4 207.5 207.3 205.6 214.8 222.4 228.1 228.1 226.8 226.4 223.9 225.1 226.9 228.7 229.4 229.3 228.1 225.1 222.8 223.1 223.1 219.2 213.1 203.1 193.9 189.7 186.4 182.8 178.9 176.1 171.4 168 164.1 161.6 162.4 161.4 160 157.2 153.3 151 151.6 148.8 145.5 145.5 144.2 143.1 143.7 144.5 144.5 147.7 150.3 152.6 154.7 162.3 165.5 167.1 168 169.8 171.7 168.6 164.2 160.7 160.4 160.7 161.2 161.5 160.1 161.2 165.9 167.3 166.6 167.2 169.5 170.9 172.8 174.7 176.7 177.8 178.9 178.7 178.4 180.1 190.7 194.5 197.3 199.8 203.6 205.8 204.9 203 202.5 205.1 204.5 202.4 199.6 197.8
463.4 450.8 438.3 420.9 407.9 393.3 380.5 369.5 359.1 349.4 341.5 333 324.4 317.4 307.9 302.1 295.9 287.5 281.8 276.3 272 266 261.7 259.7 259.4 258.9 258 255.8 249.4 246.4 246.7 253.5 254.5 253.6 250.7 247.7 247.6 252.2 251.7 253.3 252.2 249.5 249 247.4 244.3 243.6 243.8 244.4 248.8 248.2 248.4 249.1 250 252.2 255.4 257.1 256.9 255.4 254.4 254 252.2 251.7 250.9 247.4 243.7 241.1 243.9 244 241.5 238.9 236.2 234.5 235.6 236 232.5 229.5 228.1 226.8 222.7 218.4 217.5 219.5 219.8 218.2 215 211.1 204 199 206 209.8 213.5 215.3 215.6 212.6 208.8 213 212.8 212.5 212.8 214.4 216.4 217.8 216.7 218.7 217 214.5 213.6 212.5 220.8 232.1 240.9 245.8 249.3 248.2 244.2 243.4 242.4 242.7 245.4 244.4 242.6 239 236.2 234 229 221.3 213.8 202.9 191.7 186.8 183.8 179.5 175.9 172.9 170.1 168 166.2 162.3 162.5 162.2 159.5 156.1 152.8 149.6 147.6 146.5 145.8 145.2 144.2 143.2 144.6 144.9 147.3 152.3 155.4 155 158.7 166.4 169.6 170.9 171.8 172.3 173.4 169.3 164.8 162.3 161.8 161.9 162.6 162.9 162.9 162.8 167.6 169.1 168.2 169.5 171.8 174.7 177.5 179.5 181 181.7 182.6 182 181.8 182.6 192.4 197.5 200.7 202.9 207.6 209.2 207.9 206 205.5 206.5 206.8 204.7 202.2 200
476.8 466.8 450.1 436.6 421.3 409.9 397.5 382.5 371 359.5 348.8 339.3 327.3 317 307.7 301.1 294.3 286.8 280.6 276 273.6 267.5 259.8 256.7 254.6 254.1 250.5 249 248.2 248.5 254.6 257.2 259.8 259.7 259.1 255.7 256.7 257.9 257.5 257.6 257.3 255.6 254.4 252.2 248 245.5 245.7 246.6 249.3 249.6 251.4 252.3 253.3 256.6 259.9 261.4 260.2 258.2 256.2 255.2 254.8 253.8 253.2 249.8 246.1 242.9 245 245.7 242.4 240.4 237.8 236.3 237.1 237.4 234.4 230.9 229.4 228.6 225.2 221.9 217.6 214.4 213.6 212.5 206.2 201.8 199.4 202.3 209.2 212.5 216.5 216.5 217 215.6 213.6 216.2 215.8 215.5 215.6 217.5 219.7 221.9 223.6 225.2 224.3 221.7 220.9 218.2 223 236.5 247.2 254.6 260.5 264.1 264.1 261.9 260.7 257.1 256.2 254.1 252.2 250.1 245.9 240 232.8 223.9 212.7 201.2 189.9 184.7 181.6 177.9 175.2 170.7 169.3 166.8 163.9 162.1 161.8 162 159.6 156 152.4 148.8 147.5 146.3 146 144.5 143.6 147.4 146.1 147.6 152.1 157.6 158.6 157.6 162.8 169.5 174 174.6 174.4 174.5 174.3 171 166.2 164.4 163.3 163.7 164.3 165.1 165.9 165 170.7 172.7 172.1 172.5 175 181.1 185.3 185.3 185.7 186.7 187.2 186.6 187.5 187.7 191.7 200.5 204.5 206.3 212.1 211.8 211.4 210.5 210 209.4 209.1 207 204.8 202.6
487.3 476 462.3 448.1 433.7 424.3 414.4 402.2 385.2 374.3 356.1 347.1 334.1 317.1 308.2 301 291.8 285.8 280.3 277 274.5 266.4 259.1 257.8 255.8 252.2 249.7 249 255.5 259.3 260 263.5 267.7 267.1 265.6 265.5 263.8 263.1 262.2 262.6 263 261.4 259.1 256.3 252 247.8 248.5 250.8 252.8 252.9 255 256.5 258.8 262.3 264.8 264.5 262.3 260.3 258.4 258.3 257.3 256.1 253.8 251.1 247.3 244.6 244.7 245.8 243.2 241.2 239.1 237.8 238.8 239.3 235.7 232.2 231.1 231.2 227.6 224.8 220.8 216.1 210.2 205.8 207.4 207.8 209.7 211.4 213.5 217.8 218.8 218.8 219.1 217.9 219.2 219.5 219.7 219.8 219 220.5 222.5 225.6 228.7 231.2 230.8 230.1 227.4 224.5 227.2 237 248.9 259.8 268.2 272.7 274.8 273.7 271.7 268.9 265.3 261.9 258.8 255.8 250.9 242.4 234.2 222.5 211 199 189.8 183.1 179.4 176.5 174.4 170.4 166.6 164 161.7 162.3 165 162.8 159.8 156.9 152.3 148.7 146.6 146.2 145.1 143.8 145.9 150 149.9 151.5 155.5 158.1 160.2 161 164.4 169.7 175.7 176.2 175.9 175.8 174.5 171.7 168.7 165.8 165.2 165.5 166.3 168.1 168.5 168 175.2 177 177 176.5 179.3 185.2 190.1 192.8 191.9 192.7 194.7 195.7 194.7 194.6 197.5 202.6 206.8 210.6 215.5 216.5 216.7 214.1 212.6 211.4 211.3 210.3 208.2 206.1
494.3 484.6 473 459 446.5 435 423.7 411.1 396.4 379.1 364.3 353.3 341.5 320.6 307.5 298.8 292.3 285.6 281 279 274.5 264.2 257.8 255.8 254.4 252.2 251.8 252.7 260.8 262.8 264.4 268.4 271.8 274.3 271.6 272.7 272.2 272.2 267.3 269.5 270.3 266 262.9 260.1 255.3 250.9 251.5 255.3 255.9 257 259.8 261.7 264.5 267.2 268 267.3 263.6 261.8 260.3 260.4 259.1 256.8 254.5 251.8 249.1 247 246.5 246.3 244.6 242.3 240.6 239.1 240.5 240.5 237.5 234 233.3 232.3 229.4 226 221.5 216.4 208.6 211.3 212.6 213.3 214.9 216.8 218.7 221.8 221.3 221.7 221 219.4 222.1 223 222.9 223.7 223 224 226.4 230.4 234.4 237.8 239.2 237.8 235 232.2 230.4 241.4 251.7 261.3 271.3 277.1 280.9 281.3 279.2 276.1 272.3 267.5 263.2 258.5 252.1 242.2 231.6 218.8 208.4 196.4 188.8 180.1 176.6 174.1 171.8 170 167.1 163.8 161.1 161.7 163.4 162.9 160.4 158.5 154.1 151.3 146.4 146.3 143.8 144.3 149.7 152.3 154 157.4 158.4 159.5 162.3 162.9 163.4 168 172.8 173.6 174.2 174.4 173.4 172.4 169.7 167.1 167.1 167.4 168.1 170.1 170.4 171.3 178.8 182.9 182.7 182 185.3 191.9 196.7 198.8 199 201.2 203.5 205.5 204.8 202.6 204.5 206.7 211.3 215.1 219 220 219.8 217.6 213.3 214.3 213.9 214 212.1 209.3
500.4 489.9 477.1 463.8 451.8 438.6 427.3 415 400.2 381.6 372.9 356.6 346.8 327.4 307.5 297.6 291.3 286.5 282.4 280.7 272 260.7 256.8 255.2 253.9 250.6 252.4 257.9 265.6 268.7 271.8 275.6 278.4 281.1 280.3 279.3 279.2 279.3 279.3 276.4 277.8 273.2 268.1 264.9 260.5 254 255.1 260.1 259.6 262.7 265.5 268 269.8 270.3 271 269.4 266.7 264.1 262.5 261.7 260.5 258.6 256.4 253.6 249.7 247.8 247.8 248.2 246.4 244 242.2 240.8 241.6 241.6 239.1 235.9 234.6 232.1 228 224 217.5 210.2 212.9 214.7 216.1 217.1 218.4 220.8 223.1 226.1 225.2 224.6 220.9 221.2 224.8 226.3 226.6 226.8 227.8 229 233.1 237.6 242.2 244.9 246.7 245.3 241.4 240.4 238.3 241.8 252.9 258.8 269.4 277.5 282.2 283.1 282.9 281.1 277.2 270.9 263.5 256.3 248.7 236.2 224.9 214.5 202.1 191.8 184 176.4 172.9 168.6 168 166.7 166.2 164.2 160.9 161.5 161.6 161.2 159.3 158.9 155.6 151.2 146.8 144.9 144.3 147.5 152.4 154.5 159.2 163 164.9 166 168 164.9 165 169.7 169.3 170.6 171.7 172.8 172.6 172.1 170.6 169.5 169.1 169.2 170.3 172.6 173.8 175.1 183 187.8 187.9 190.2 192 200.1 203.8 204.9 207.4 210.3 212.5 215.1 214.9 214 214.4 215.3 216.7 220 222.2 223.4 222.7 220.2 217.9 216.5 216.2 216.1 214.4 211.7
503.3 490.8 476.8 464.2 451.9 437.9 426.8 414.8 401.2 380.8 374.6 360.2 349.2 333.2 309.6 297.1 289.6 285 284.4 281.5 269.4 258.4 255.7 254 252.5 252.2 254.9 262.9 268.7 274.3 278.6 281.7 285.3 287.4 288.3 286.9 286.5 286 285.6 284.5 282.6 279.9 273.2 269.8 267 256.1 261 267.3 267.8 269.2 271.9 273.4 273.7 274.1 273.1 271.1 268.6 265.9 263.7 263.1 261.6 259.9 258.3 255 250.9 249.8 249.5 249.2 248.7 245.9 243.6 242.3 242.8 242.7 240.1 237.5 233.8 230.6 221.9 214.7 216.8 220.4 218.6 218.8 219.8 221.3 223.9 225.4 226.9 229.6 228.6 226.9 224.2 224.5 226.6 228.4 229.8 230.6 232.8 235.4 239.8 245 250.6 254.4 255.4 254 250 248 245.5 244.5 248.5 254.6 259.5 268.2 275.8 280.9 283.2 282.1 277.5 272.4 263.6 250.1 238.8 230.1 217.8 206.8 195.5 185.5 177.4 172.9 166.8 163.5 163.6 164.2 164.1 163.1 161 162.7 164 165.2 163.1 160.9 157.5 153.1 147.6 144.4 144.9 152.3 155.8 158.1 163.8 167.5 170.4 170.4 170.7 167.4 166.8 170.4 170.3 170 171 171.9 172.2 172.3 172.3 172.2 171.9 171.2 173.4 175.9 178.4 180.6 187 193.2 194.5 196.1 203 208.6 212.4 213.2 217 221.4 224.6 225 224.3 223 223.2 224 223.1 224.6 225.5 226.6 224.5 223.1 220.7 219.1 218.5 218.3 216.4 213.3
501 489.5 473.9 457 446.5 433.9 422.3 411.3 398.3 377 374.3 361.8 348.5 333.6 310.4 295.3 287.5 285.5 285.3 279 264.4 256.5 253.4 252 251.8 253.9 258.2 267.3 272.8 277.8 282.7 286.8 290.9 294.5 294.4 295.5 294.2 292.4 290.9 289.3 287.6 285 279.2 275.5 271.4 265.3 266.9 274.5 276.5 277.4 277.6 278.9 278.5 278.4 279.3 273.5 270.1 267.5 265.4 264.7 262.8 261.2 258.2 255.6 254.4 251.7 251.4 251.1 250.4 247.7 244.8 243.3 242.7 242.5 241.7 236.4 232.9 229.4 219.2 219.5 223.7 223.4 223.3 223.1 223.8 225.3 228.3 230.2 232.1 234.3 233 231.3 226.8 226 228.4 230.3 231.6 233.7 236.1 241.6 247 254.3 258.1 261.6 262.9 263 258.8 255 253.2 251.1 247 249.2 252.6 255.1 262.2 270.4 276.4 278 275.6 270.1 259.5 246.5 229.3 222.3 211.9 200 187.9 178.9 173.7 170.1 164.9 161 159.9 161.6 162.6 161 161.5 164.7 165.4 165.7 163.1 160.7 158.4 154.7 147.5 143.7 148.8 156 158.5 161.9 166.2 170.4 173.6 173.8 171.9 169.3 169.5 171 170.8 171.2 172.6 172.9 172.8 173.7 174.1 175.2 174.4 173.9 176.1 179 183.8 185.6 191.3 199.2 201.4 203.7 210.8 215.6 221.6 224.2 228.1 233.2 234.6 233.8 232.9 230.4 231.2 230.2 228.7 229.2 230.4 229.2 227.2 225.7 223.5 222 220.9 220.5 219 215.8
