ncols 200
nrows 82
xllcorner 350000
yllcorner 500800
cellsize 50
543.7 548.7 551.5 549.2 547.6 536.5 528.7 519.8 515.8 509.9 491.7 468.1 449.9 439.3 431.5 424.4 418.7 413.8 410 407 403.1 397.1 388 376.5 375.9 380.4 383.3 384.2 393 403.7 405.9 414.7 428.6 433.8 437.7 445.8 444.8 444.8 444.6 448.5 452.1 459.4 462.8 466.9 468.4 469.1 470.5 475.6 479.2 476.2 476.6 473.9 473.6 473.2 476.4 472.3 461.5 437.4 407.9 382.7 366.7 356.4 349.8 339.6 329.3 324.2 320.7 320.6 319.7 317.7 318.6 324.4 326 327.9 335.1 345.9 358.3 368.7 383.3 394.1 406.3 416.7 433.1 463.5 482.7 490 491.3 486.7 481.2 473.3 466 457.8 439.6 434.1 428.8 425.7 419.4 402.3 381.4 361.6 349.2 336.7 322 313.1 309.3 308.7 311.2 323.3 334.2 351.3 368 383.8 398.8 413.7 427 439.9 450.5 457.6 462.7 466.7 471.7 462.6 449.6 439.7 434 424.8 414.6 408.8 405.1 400.8 394.6 392 388.6 384.2 377.8 368 355.3 341.9 326.9 311.6 298 286 274.9 266.4 261.2 255.9 251.2 244.7 240.1 236.8 236.7 235.2 233.2 229.5 227.7 227.3 226.5 225.4 224.2 223.1 223.3 222.3 221.7 222.7 225 230.7 238.1 235.9 236.6 239.5 243.9 251.6 251.8 258.9 268.6 274.7 270.9 266.6 262.7 259.4 254.7 249 237 232.2 227.5 228.9 228.3 212.9 202.7 193.8 193.1 192.9 196.9 199.6 200.3 203.9 202.7 203.8 204.6 208.1
535.4 546 548.5 547.5 541.5 535.3 529.3 526.8 520.9 511.5 490.5 473.3 454 442.3 437.3 429.3 421.3 416.1 411.2 406.8 401 394.9 385.7 375.6 364.7 371.7 374 373.2 377.8 386.7 387.6 398.5 407.2 417.2 427.7 434.1 438.9 437.5 439.9 446.4 453.6 457.8 461.6 465.4 469.9 478.7 484.4 483.8 486.3 486.9 486.7 484.5 483 481.8 478.9 481.2 476.8 454.9 425.4 399.3 379 365.8 351.3 345.2 337.9 332.1 326.4 326.6 324 319 315.4 318.6 319.6 319.5 322.8 328.7 343.2 351.6 359 371.9 383.5 394 409.7 438.7 468.9 488.9 494.1 489.2 483.9 475.9 466.9 452.7 437.5 431.4 425.4 427.5 411.7 392.5 371.6 355.9 341.9 330.7 319.8 309.9 307.9 307.3 310.1 322.2 336.7 353.7 371.4 391.8 407.6 419.6 432 444.1 454.6 462.1 465.9 468.3 470.2 462.6 448.7 437.3 428.8 419.2 411.3 406.3 402 397.3 392 380.6 377.7 372.1 365.3 352.9 339.5 327.1 310.5 300.7 288 275.1 262.5 257.4 252.4 247.9 246.6 250.4 247.3 244.8 247.8 246.4 242.6 236.8 231.2 231.4 228.2 224.6 222.9 218.9 220.6 219.8 218.3 218.3 218.4 219.3 219.7 221.6 226.5 229.8 233.4 240.8 245.6 252.2 260.4 262.5 260.2 258.1 253.3 251.9 252.9 247.8 239.4 229.8 228 230.1 221.9 214 200.7 194.2 193.6 198.2 197.4 199.6 202.5 205.5 203.7 207.6 208.5 211.6
532.9 539 543.8 541.1 540.5 535.3 529.3 527.9 519.7 509.9 495.3 476.5 462.5 452.2 442.5 435.9 425.7 417.4 410.8 403.2 398.4 390.9 380.5 371.9 352.9 361.4 363.3 364 365.1 368.7 369.8 380.7 390 401.1 413 420.9 425.9 430.9 438.5 447.1 452.9 458.5 463 471.6 482 485.7 486.2 489.2 493.9 493 493.3 491.1 490.6 489.6 492.8 491.9 485.8 473.7 442.5 420 393.8 376.7 365.5 355.2 347.2 339.5 333.2 325.8 319.1 314.6 312 311.1 310.3 311.1 311.9 319 334.4 340.7 345.4 354 363.4 373 386.6 410.3 439.7 461.2 488.9 490.3 482.5 475.5 471.4 453.8 438.3 430.6 421.9 416.6 396.6 378 362.9 347.6 337.6 331.1 320.3 312.6 307.8 306 314.7 322.6 342.4 358.8 377.2 397.7 418.7 426.9 438.9 448.7 458.5 465.8 468.2 469.5 468.7 460.6 445.2 434.3 425.8 417.5 411.1 404.5 399.6 393.9 387 381.4 371.2 363.5 351.5 338.3 328.5 314.9 301.9 285.9 275.7 265.3 259 258.2 260.8 262.5 263.5 261.6 257.3 258.9 257.3 254.5 251.6 247 238.8 236.3 236.8 237.5 230.8 223.5 222.8 227.4 226.2 217.9 215.9 215.6 216.5 217.3 219.5 223.6 228.5 230.8 238.4 245.2 252.8 255.4 253.3 252.2 246.5 246.7 247.7 244.7 238.3 231.8 228.1 229.6 218.7 212.9 205.1 195.9 196.7 209.3 202 204.1 205.8 207.3 207.5 209.8 214.4 218.5
527.3 530.8 535.5 539.2 536.3 531.4 527.6 525.8 516.8 510.7 498 484.7 470.5 458.4 450 440 427.2 419.6 412.4 406.8 399.4 391.9 382.3 368.9 351.4 348 355.2 355.4 355.4 353.7 355.1 362.1 368.1 383 396.1 405 415.4 427.6 436.3 444.6 452.3 457.8 465.5 474.9 482.7 484.5 487.5 493.8 500.5 499.3 499.1 496.5 497.4 496.1 496.9 495.1 487.8 484.3 462.9 440.3 412.3 394.6 376.4 366.4 355.6 347.4 339.4 332 325.7 320.3 312.4 310.9 309.8 308.8 308.6 316.2 323.9 332.6 335.6 340.9 349.3 353.7 365.3 384.8 406.4 430.4 451 478.6 482.1 477.6 469.8 457.1 441.3 426.1 410.8 403.1 385 368.3 354.7 346 337.5 332.4 321.5 317.1 313.6 305.6 304.9 325.5 342.4 362.6 380.4 398.2 417.6 430.7 447.4 456.6 464.7 470.4 472.1 469.2 463.4 455.3 441.9 433 423.5 415.9 410.5 405.4 399.1 392.5 385.7 378.8 363.7 357.2 337.2 326.5 315 304.9 295.4 281.6 266.6 266.3 268.1 272.9 275.3 276.4 277.7 275.1 273.4 270.3 266.5 264.2 263.9 262.5 255.2 244.9 241.6 242.1 241.3 235.9 233.7 234.8 233.3 227.6 221.2 216.6 211.2 213.9 215.8 221.4 226.4 227.6 231.2 236.8 245.4 247.4 246.6 245.2 241 240.2 242.5 241.9 233.8 226.8 224.5 223.5 215 209.5 196.9 196.1 210.2 213.7 207.7 208.1 210.3 214.8 216.7 213.4 218.6 223
526.3 529.4 532.8 536.1 530.5 527.8 528.6 527.3 519.3 513.7 497 487.6 477.2 465.7 454.2 446.1 438.2 427.9 415.2 407 398.7 389.3 379.8 366.4 352.6 334.4 346.5 347 346.9 340.4 340.8 345.9 353.1 365.3 379.5 391.6 409.3 422.3 433.1 442.5 450.3 456.7 468.9 477.5 482.3 488.5 494.4 500.7 503.7 503.3 502.6 502.2 499.6 500.4 495.7 492.6 491.6 485.1 471.9 452.5 436.3 409.8 390.3 376.2 366.6 355.9 347.6 340.4 334.4 331.4 325.6 319.7 311.2 307.5 307.2 305.9 313.5 324.3 325.9 331.1 336.9 338.8 348.3 362.1 380.5 401 425.2 444.2 462.5 467.5 461.4 449.8 434.1 416.2 397.7 388.7 374.1 360 348.9 340.3 333.7 327.2 321.1 315.7 314.4 313.7 302.6 319.9 347.6 364.9 383.3 399.6 419.4 436.9 455.3 463.8 471.3 477.9 478.4 470.8 459.9 450.5 440.6 432.9 422.8 410.2 405 401.3 396.8 390.3 382.4 374.3 360.9 347 326.1 320.6 305.7 299.7 287.6 279.9 275.8 281.5 286 290.6 293.4 297.8 298.2 295.5 288.9 284.8 282.9 282.4 279.7 276.2 268 252.9 248.3 251.9 252.1 251.1 243.6 238.2 241.3 240.1 235.6 231.8 228.3 217.8 209.3 213.1 222.9 222.9 224.5 230 233.4 234.7 233.4 232.8 233.1 232.3 231.3 229.3 225.2 219.3 214.3 206.8 206.3 195.7 197.7 205.2 209.4 214.8 213.9 216.8 218 222.2 224.3 220.5 226.3 227.2
518.7 524.4 529.8 529.5 527.6 527.6 528.2 524 518.7 512.9 498.7 488.7 481.4 469.4 461.3 453.1 442.5 429.9 422.2 411.3 400.1 390.3 378 365.6 348.1 332.3 320.2 327.6 336.7 329.4 326.2 332.9 337.8 352.1 365.7 381 397.1 415.3 428.7 439.1 450 462.6 472.9 479 487 491.3 501 507 508.3 506.4 504.6 502.1 501.1 498 493.9 491.9 491.1 485.1 475.4 461.4 455.1 430.2 406.3 388 377.1 368.1 358.8 350.8 345.2 340.3 334.4 329.2 320.8 315.1 317.1 312.7 304 311.9 313.7 320.3 324.9 327.6 332.5 345.7 357.2 375.4 395.1 416.6 434.2 451.8 454.5 448.3 432.9 408.7 384.5 375.8 362.4 354 342.7 335.2 328.4 321.6 315.3 313.6 310.4 307.1 304.9 329.7 350 367.4 386.5 401.8 418.1 438.2 455.8 465.3 476.2 482.9 483.3 474.1 461 450 441.1 432.8 424.9 417.5 412.3 408.9 403.3 396.9 388 379 364 349.1 332.5 318.1 307.7 301.4 293.8 296.2 285.5 294.1 303.7 310.5 317.1 321.6 321.4 315.3 313.6 308.4 305.9 298.6 294 286.5 274.5 270.3 269.2 270.6 268.5 267.6 264.7 258 251.6 257.3 249.6 242.3 237.3 228.1 212.9 209.6 211.6 213 219.6 222.2 225.2 222.4 224.9 226.1 224.3 223 220.2 216.1 216.3 209.8 199.1 196.3 196.9 199.4 202.7 206.7 213 217.6 222.1 224.7 228.8 231.6 232.5 225.4 233.6 236.9
509.9 517.1 522.9 522.9 523 520.1 520.5 521.8 519.3 510.9 503.2 500.3 486.2 476.9 460.8 451.2 442.4 435.5 425.9 415.1 402.5 389.8 378.2 363.2 345.7 331.2 317.2 306.8 325 318.4 315.3 325.3 330.6 341.8 355.1 369 386.2 407.1 424.2 439.1 454.1 463.5 473.9 481.8 488.3 496 504.2 512.3 511.5 512 508 504.6 499.8 495.1 492.1 489.7 490.1 482.4 479.4 476.8 464.1 447.2 427.8 406.6 390.6 378.4 372.8 363.8 356.1 349.5 343.5 337.9 331.4 324.2 320.2 311.8 305.8 303.2 304.8 310.9 316.6 319.9 321.6 333.8 343.8 355.3 372.1 389.6 405.9 426.8 447.6 439 418.9 393.5 375.2 363.2 351.3 343.5 335.2 327.5 322.9 316.6 311.5 309.1 298 295.1 314.9 334.6 352.4 370.1 388.9 403.6 417.1 434.5 452.7 467.7 479.2 484 480.9 473.8 459.6 451.9 443.5 434.1 429.9 426.3 422.1 415.5 411.3 406.7 394.9 380.4 363.3 348.2 333.1 320.8 316.4 309.7 299.3 304.6 299.5 310.5 327.8 336.9 345.3 343 342.5 346.1 339.9 337.3 330.8 320.6 312.6 302.5 295.3 294.9 292.8 289.8 287.9 288.5 286.1 276.1 267.4 266.3 254.8 247 240.4 228.4 216.7 211.2 210.7 210.2 209.2 210 214.6 216.7 215.8 215.2 216.9 213.9 214.3 208 200.4 199.6 198.7 200.1 203.4 208.6 211.1 213.6 219.6 224.7 232.3 233.4 235.5 238 233.5 231.6 238.5 241.5
501.5 509 511.9 513.6 515.2 516.7 516.8 517.8 516 511.2 506.6 503.9 496.3 485.3 472.6 457.8 444.8 437.2 435.2 423.3 403.7 391.5 379.3 362.6 345 329 312.7 297.1 302.5 306.6 307.8 315.2 326.7 336.8 347.4 357.9 371.3 394.9 421.4 438.2 451 464.2 473.6 483.6 494.1 500 508.6 511 513 513 510.1 504.4 499.2 494.9 490.1 487.4 486.2 489 488.7 481.1 474.7 465.5 445.3 426.1 406.1 394.8 386.8 376.1 367.2 359.5 353.2 346.9 340.3 332.3 322.4 312 305.6 303.4 299.7 299.1 301.2 312.8 313.6 323.3 331.2 338.1 351.8 367.3 384.2 398.3 415.3 422.5 397.2 373.3 359.1 350.6 344.1 337.6 331.6 323.8 317.9 313.9 308.9 300.4 289.7 302.7 323.6 341.3 355.2 372.9 389.8 405.1 419.6 432.7 447.9 468 478.8 483.8 478.4 470.7 463.6 456.9 446.4 442.4 436.9 433.8 431.3 424.3 419.3 408.9 402 382.4 364.5 347.6 336.3 323.8 320.6 312.7 309.7 313 312.7 321.9 338 356.7 368.6 374 370.8 372.8 373.5 364.5 360.7 349.7 341 329.5 323.5 319.3 323.3 319 318.6 312.3 304.3 292.1 279.8 269.9 260.8 247.1 238.9 229.8 218.4 213.7 209.8 208.4 205.6 208.2 207.3 203.7 205.6 207.5 204.2 200.3 202.2 201.1 199.5 199.7 200 206.4 213.8 217 220.3 222.8 225 234.1 238.2 240.4 239.3 233.7 232.1 230.4 242.2 247.6
486.6 493.8 501.7 504.2 507 508.9 511.2 514 516 516.2 514.9 506.7 506.2 495.7 478.2 465.7 455.3 442.9 435.9 423.6 410.6 394.7 383.1 365.5 344.1 327.6 312.4 298.7 288.1 292.9 302 311.4 319.9 328.9 337.7 347.9 361.6 386.8 412.4 432 448.5 460.8 472.3 485.8 493.7 503.5 509.8 514.8 516.7 514.5 510.5 503.7 499.6 492.3 488.3 487.6 489.4 487.3 486.8 485.6 475.9 462.9 452.4 438.1 422.8 415.6 407.7 396.8 383.7 371.3 363 355.1 347.8 340.7 331.6 320.3 314.3 312 309.3 302.1 297.2 309.5 309.6 314.2 321.5 325.2 334.2 350.8 364.7 377.6 386.4 385.9 378.8 365.7 346 340 336.9 331.7 326.4 321.3 316.1 310.1 306.2 292.5 295 310.8 326.4 343.2 359 375.6 390.8 407.7 420.7 433.5 446.3 465.7 476.7 480.3 480.1 473.1 464.5 460.4 454.9 451.6 447 440.4 438.2 430.8 425.2 406 395.1 380.2 366.9 353.6 336.3 325.3 321.3 322 323.2 329.3 334.1 335.7 346.5 366.6 377.3 382.2 381.8 380.4 386.4 387.1 385.3 376.4 363.7 354.2 353.2 350.8 353.8 349.2 342.4 331.1 317.9 303.6 283.9 273.9 261.2 250.1 240.8 232.9 221.2 215.4 209.5 209.7 208.6 207 206.6 206.1 204.9 203.8 203.4 202.9 201.2 199.9 205.6 214.3 219.1 221.3 226 225.4 228.6 233 237.4 240.8 243.5 243.8 238.6 243.8 246.6 245.6 246.3 252.5
469.3 481.2 490.8 496.1 497.8 500 505.5 512.2 518 518.8 516.2 516.8 509.9 503.1 483.6 469.5 456.6 444 431.3 424.8 413.7 398.4 387.2 371.4 348.4 328.6 309.4 299.4 286.1 280.3 290.5 300.7 310.7 319.4 331.5 340.8 354.4 374.1 405.6 428.4 444.3 458.1 472.9 486.9 498.9 506.2 513.2 517.4 517.4 512.6 508.8 504.6 499.1 493.5 490.6 485.3 484.4 483.7 487 483.1 471 461.8 455.6 446.7 445.2 439.1 433.8 418.4 408.3 389.8 376.7 364.3 357.9 349.9 340 331.9 325 321 318.7 309.6 299 302 304.1 307.6 313.3 315.7 320.6 333.1 345.4 355.1 362.3 365.7 364.4 349 335.9 332.6 332 328.3 321.3 315.5 310.9 305.6 304 293 292.2 312 330.1 344.8 363.4 381.3 396.2 410.5 422.4 435.3 448.5 463.7 475.6 477.5 477.2 471.9 461 460.2 457.2 450.4 448.6 444.8 439.4 433 422.4 405.8 392.6 379.5 368.1 355.9 348.9 343.8 340 338.4 341.8 343.4 348.5 350.4 350.1 361 374.8 383 391.4 390.5 391.3 393.5 390.3 384.2 381.6 372.8 373.3 373.5 373.3 370 360.8 345.3 325.8 307.4 298.6 285 276.2 263.4 250.9 237.5 223.2 218.5 215.2 212.2 210.3 209 207.4 205.9 205.6 205 204.1 202.3 203.2 212.9 220.6 223.3 225.6 229.1 233.5 234.7 238.8 243.2 244.6 245.8 248.8 244.6 245.3 247.9 251.6 254.4 247.3 255.8
453.4 470.3 481 484.6 489.1 493.1 505.2 509.9 516.6 517.8 520.5 519.9 515.2 502.8 487.7 472.4 460 449.7 436.7 427.1 413 398.5 385.9 370.7 350.3 329.1 312.1 296.6 284.8 275.2 279.2 289.5 297.4 307 320.2 333.7 347.4 364.4 396.6 426.2 443.1 459.3 472 488.5 501.7 512.6 515.8 518 516.9 514.9 512.1 507.4 504 496.9 490.6 482.7 480.6 481 475 471.8 466.5 463.3 461.3 461.1 460.1 459.5 450.2 440.5 428.5 406.9 391.1 378.9 367.9 358.1 350 341 333.3 325.8 320.7 315.3 301.6 297.2 295.7 297.6 300.5 307.6 311 318.3 327.3 336.4 339.4 341.3 342.8 337.3 328 327 325.7 321.9 312 307.5 303.7 300.5 298.7 284.3 292.7 310.6 330.4 347 368 385.1 399.5 413.9 425.9 440.7 451.3 463.6 471.2 469.7 468.1 461.4 454.3 451.8 450.3 450 448.8 451.5 439.9 431.6 421.7 408.4 395.1 381.6 368 366.1 365.2 362.9 360 356.7 359.8 355.5 357 358.1 353.1 364.3 372 384.6 391.2 395.4 397.1 397.3 394.8 393.3 390.2 389.5 385.6 387.7 383.7 376.7 365.1 348.7 331.9 318.3 309 293.2 284.4 274 264 239.9 231.1 229.9 227.2 218.6 211.6 211.4 208.8 207.4 206.8 204.3 205.1 207.2 215.6 223.8 227.8 231.4 235.8 240.1 241.3 242.7 247.4 253.2 250.7 249.6 253.3 252.1 250.9 252.3 256.7 258 250.9 259
437.2 454.2 465.4 472.2 481 491.3 499.1 505.3 513 515.8 519.4 517.9 515.6 501.5 491.5 474.7 464 450.7 436.4 425.8 414.9 401.2 389.2 375.6 361.5 334 313.6 297.9 282.4 269.5 268.6 278.2 282.2 290.8 306.9 326.1 338.1 355.5 386 416.6 438.8 458.4 475.3 491.4 506.5 514.8 517.2 522.2 522.9 519.5 521.8 513.3 507.3 497.5 488.8 481.1 477.1 472.9 470.2 467.8 466.7 466.2 470.8 468.6 466.6 463 453.9 452.8 441.3 425.4 413.4 398.8 378.8 368 357.7 348.8 340.2 331.3 324.8 315.3 310.7 305.3 298.2 292.6 291.8 292.4 303.8 309.7 315.1 320.6 323.6 325.5 326.8 325.3 322.4 319.5 318 313 302.9 299 296 294.3 286.5 281.7 293 306.8 325.9 344.7 366.4 387.2 403.2 418.6 432.6 444.7 453.5 460.5 461.8 458.8 455.4 450.9 444.3 448 452.5 448.2 450.4 444.6 435.8 429.7 420.5 411.3 396.8 390.8 387.5 382.4 379.5 379.2 377.9 369.2 368.1 366.8 365.2 365.2 361.6 365.2 373 383.8 392.6 399.6 407.6 405.2 403.8 401.3 400.4 398.9 391.8 389.9 384.2 375.7 366.2 352.6 333.4 322.6 315.9 305.1 297.4 292.4 280.7 263.6 251.7 242.6 234.6 225.3 218.8 213.7 213.1 208.5 211.5 212 219.4 226.3 228.1 232.9 237.7 241.8 246 250.1 246.3 254.1 259.2 263.2 260.4 256 259.9 253.9 256.9 257.4 258.8 255.9 257.6 263.4
424 440.7 452.1 464.9 474.5 483.4 491 499.2 506.4 511 511.8 511.2 509.8 502.1 492.7 480.6 464.4 451.8 439 427.1 419.6 402.5 386 374.9 370.1 340.7 311.8 293.2 275.7 263.4 264.3 265.2 271.2 280.4 297.5 315.3 329.3 344.2 371.9 400.2 430.2 457.2 480.2 498.1 510.1 516.3 521.3 525.4 526.3 526 521.2 514.8 507.8 499.5 486.1 476.7 474 470.2 465.8 465.7 465.8 469.3 464.2 457.8 456.6 452 454.4 445.4 437.5 433.9 425.8 409.3 394.6 382.4 370 356.9 347.1 339.8 332.7 324.1 319.3 317.2 305.5 302.3 293.8 288.6 298.1 303.4 306.4 309 311.4 311.7 313.9 315.2 313.6 308.8 306.8 302.1 294.5 291 288.9 285.6 286.8 278.8 289.2 304.3 318.7 336.5 363.3 388.9 407.4 422 435.7 445.3 451.3 454.5 454.4 448.1 442.1 437.3 439.1 439.4 440.5 441.7 443.2 438 434.9 427.6 421.8 414.7 408.3 405.1 402 397.7 391.1 389.8 386.4 384.2 378.4 368.4 372.1 372.1 374.9 380.3 389 400.8 405.6 409.6 413 413 410.8 408.4 408.8 406.3 401.2 392.7 386.3 377.3 364.3 349.5 333 324.6 316 307.2 311 315.3 297 283.4 272.6 263.3 244.1 233.5 224.5 216.2 212.9 208 215.9 220.3 226.6 233 237.9 244.3 249 252.3 257.9 260.8 261.9 269.2 271.3 269.5 268.3 263.6 263.3 263.5 262.2 261.5 259.6 260.6 264.8 267.8
410.5 424.3 442 454.2 465.4 474.3 483.1 493.1 497.7 504 507.6 505.7 505.2 500.4 491.8 484 469.3 456.3 444.2 429.9 416.6 401.3 387.1 375.7 360.4 336.7 309.1 289.2 272.6 263.2 260.8 260.7 263.3 270.4 290.4 304.6 320.6 334.6 356.3 382.8 412.7 449.2 478 500.2 512.3 519.7 525.1 527 528.2 527.4 522.8 514.2 508 496.7 483.1 475.6 470.1 464.6 461.8 461.2 464.8 459.1 452.3 446.5 440.4 436.1 435.3 432.6 430.3 431.5 428.3 422.2 410.4 394.7 380.1 367.3 354.8 348.3 339.3 334.6 325 324.6 312.6 305.2 296 288.1 288.5 296.4 296.3 299.7 301.1 301.3 303.5 305.7 302.4 297.6 295 293 284.5 281.5 281.1 281.4 280.9 278.2 288.6 299.5 310 326.4 353.8 382.3 407.4 423 432.9 441 445.6 446 442.9 435.5 426.2 422.4 425.1 430.2 428.7 429.4 431.8 432.8 431.1 431.8 426.6 420.1 417.3 412.5 409.1 406.9 406.2 401.8 397.4 391.1 381.8 377.9 377.9 378.7 385.7 393.7 401.4 411.1 415.4 417.9 421.5 421.3 420.4 417.9 416 410.5 404 396.2 386.9 374.9 363.1 342.9 326.8 317.1 311.8 312 315.5 318 299.9 287 276.9 263.7 251.7 232.6 224.5 218.3 208.8 217.2 222.7 227.6 237.2 243.7 248.9 254.9 259.3 267.7 271.5 275.2 276.8 278.9 278.7 276.8 273.6 271.9 268.8 270 266.8 264.6 267.8 265.4 271.1 272
400.2 418.2 429.8 442.8 455.5 465.9 475.7 483 490.4 497.8 502.9 503.3 501.6 496.7 492.8 482.4 475.2 462.5 448.6 433.1 420.1 406 391.8 378.9 364.4 345.6 319.5 291.3 271.3 261.1 259 257.2 258 264.8 278.6 294 310.8 329.7 349.1 370.9 398.7 431.7 470.7 498.7 511.5 519 523.9 526.8 527 525.8 519.4 514 505 490.4 481.8 471.1 467 461.6 460.1 460 456 451.2 446.1 438.8 429.3 425.7 424.7 419.9 418.8 419.9 425.6 425.4 418.6 401.3 390.1 382.2 368.7 358.4 343.9 337 329.4 328.3 320.3 310.2 301.4 303.4 296.1 288.6 286 290.9 291.1 292.7 298.4 298.2 290.5 288.7 281.2 276.4 279.5 278.1 275.9 280.2 276.6 278.3 285.7 293.4 302.3 316.3 335.1 365.8 396.7 419 426.9 437.9 438.6 438 432.7 421.2 412.6 403.2 412.1 416.2 417.4 419.6 421.2 425.9 430.7 429.5 429.2 428.4 429.1 426.9 422.5 421.3 415.1 407.4 399.5 392.2 385.1 384.7 383.5 389.3 397.6 406.6 412.5 419.7 423.8 424.6 427.5 428.8 427.5 424.2 421.3 415.1 408.9 401.2 388.2 374.4 362.3 338.3 323.5 315.9 311 311.1 313.3 312.4 296.5 286.7 272.6 258.1 245 235.8 229.1 220.8 211.4 222.6 232.3 236.5 243.1 252 260.3 269.9 275.8 286.1 287.5 287.9 286.7 288.7 284.5 282.3 278.6 275.2 275.6 274.9 272.1 274.2 274.3 273.5 275.2 275.5
389.7 405.9 418.4 431.5 445 456.9 466.2 476.1 484.7 491.8 496.1 499.7 498.4 496.2 487.7 487.2 478.2 466.2 452.6 437.9 425.8 412 399.4 386.9 368.8 348.8 318.4 293.5 276.1 264.2 264 255.7 255.2 263.7 279 288.8 304.9 325.5 342.7 366 389.9 425 467 488.9 498.6 508.4 514.8 519.3 519.9 520.2 517.5 506.8 496.2 487.9 479 471.2 465.7 463.6 462.3 458.4 450.3 445.8 438.1 430.5 424.7 419.2 415.9 412.7 410.4 408.5 412.4 415.6 410.8 404.3 398.8 389.5 376.5 368.7 351 338.2 340.3 329.9 325.9 315.4 309 311.7 301.1 287.8 289.4 284.5 284.7 286.7 295.3 291.5 282 278 278.5 277.5 276.4 275.7 274.3 274.7 275.1 277.8 278.7 287.3 296.5 311.1 321.6 338.6 361.8 395.6 416.9 426.8 429.9 427.3 415.5 406.6 397.6 387.4 390.5 395.9 401.3 405.6 411.1 418.8 427.1 431.6 436.5 441.6 440 436.8 434 430.1 418.8 411.7 405.8 396.5 392.8 392.1 392.7 402.2 410 418.7 426.1 429.7 433.7 433.5 434.7 436 433.4 430.5 425.8 419.7 410.2 401.8 388.1 375.2 354.6 332.6 318.2 306.9 302.7 303 304.4 298.1 288.3 278.9 264.7 252.8 243.1 238.3 230.5 218.6 223.9 233.8 240.5 244.8 252 261.9 273 284 289.4 297.6 297.4 296.5 295.9 294.5 290.3 286.4 284.4 281.1 282 281.6 279.9 280.9 278.6 279.8 279 277.4
379.7 393.3 407.8 420.2 432.4 446.4 457.1 467.2 476.2 485.2 490.2 494.3 494.6 494.5 492.9 488.9 481.8 469 455.8 440.5 430.3 416.7 406.2 390.2 376.3 349.5 320.7 301.6 283.1 268.9 267.2 260.8 253.6 264.5 271.8 284.8 301.5 320.3 338.5 365.7 384.8 416.1 451.7 476.7 491.4 496.2 502.1 509 508.7 509.6 504.4 501 491.6 485.2 480 471.1 468.5 467.1 463.5 458.9 449.4 438.7 433.3 427.6 422.3 415.5 411.6 407.5 402.6 401.3 403.1 405.9 408.7 405.6 403.4 388.2 379.7 372.4 352.6 338.2 336.1 330.6 326.2 317 313.1 311.9 298.5 292.3 291.8 289 283.1 284.3 292 289.6 278.9 281.5 280.9 276.8 275.1 274.4 274.7 274.1 274.3 276.2 276.9 283.2 294.6 305.4 313.6 324.1 338.7 362.7 386.4 410.1 417.9 414.1 404.4 392.2 381.8 372.4 373.1 377.4 383.2 391.7 399.1 411.6 425.6 436.2 441 448.1 447.5 448.5 441.1 435.1 426.6 417.2 408.3 403.6 394.8 400.7 405.7 415.2 421.2 431.8 435.6 436.6 436.1 438.5 437.9 437.6 434.6 430.9 423.6 416.2 409 399.8 390.8 377.3 344.9 323.2 309.3 299.8 293.8 290.4 284.4 280 275.7 272.1 261.2 252.5 246.5 234.9 224.1 225.3 239.3 244.1 251.2 256.6 263.4 274.2 288 295.5 300.4 306.6 305.5 305.6 303.2 300.9 297.1 294 290.6 288.8 288.8 289.1 288.3 286.1 283.7 283 281.9 280.6
368.1 383.7 397.1 409.9 422.5 434.6 445.8 457.3 465.8 476.6 483.6 489.7 494.1 494.3 493.4 490.9 483.5 470.9 461.9 450.5 437.4 423.4 412 396.5 379.5 353.3 321 303.1 286.6 271.5 264.2 257.6 252 262.2 268.8 281.1 299.4 313.4 332.3 353.1 374.2 402.9 433.9 459.3 473.2 480.1 485.7 493.6 496 496.5 495.6 493.1 488.8 485.8 482.1 477.1 473.4 470.1 466.8 461.4 452.1 442.3 436.7 430.7 423 417.4 413.2 405.8 398 397.5 397.8 397.8 398 396.6 392.9 384.1 376.1 366.8 356.5 339.3 336.2 329.3 322.4 315.2 306.6 303.7 299.6 295.2 292.1 290 287.6 283.3 283.2 281.6 283.9 281.6 280.6 279.6 279.6 279 274.4 271.8 273 275.1 275.6 278.1 282 296.6 304 312.2 323.3 337.3 354.5 372.4 385.3 392.1 383.4 374.4 364.9 357 355.9 359.7 365.6 374.7 393 407.3 421.9 432.5 443.6 448.2 449.3 451.4 447.3 438 429.8 423.5 416.5 410.2 408.5 412.4 417.7 427.4 433.5 436.5 437.5 439.3 438.8 442.8 442.2 438.6 432.9 428.9 422.8 416 406.2 393.6 383.2 357 336.8 315.4 302.2 288.4 279 275.2 268.6 265.2 259.6 256.2 252.3 247.3 239.9 225.4 229.3 243.2 251.8 257.4 264.9 272.6 278.2 289.2 296.9 304.8 310 311.8 314.5 313 310.2 306.9 302.6 300.6 295.3 296.1 295.8 295.8 290.9 291.1 288.9 286.3 284.3 283
360.5 375.5 389.6 401.1 412.1 422.9 435.7 448.8 457.4 468.3 476.8 486.5 492.7 494.1 493.2 490.5 484.6 478.2 468.3 457.8 444.6 430.6 420.1 406.4 390.4 366 323.7 303.6 285 269.9 255.5 251.5 250.4 258 268.4 280.2 293.7 308 323.2 343.3 366.6 391.2 414.3 435 452.4 463.5 472.6 476.4 481.5 486.3 486.8 487.5 488.6 488 486.1 482.9 478 476.7 472.3 466.7 456.9 447 439.3 434.8 431.3 426.3 417.4 409.5 398.3 393.6 393.6 394.7 390.7 390 386.5 380.8 373.1 366.6 355.9 339.8 330.6 321.6 322.8 317.2 311.5 307.9 301.6 296.2 293.3 292.2 292.1 287.6 289.7 293.6 292.2 284.3 282.5 280.4 288.3 288.9 277.6 273.6 273.3 272.8 272.4 270.5 271.4 279.8 292.2 299.9 309.1 317.6 329.6 341.9 358.8 363.9 362.2 353.7 344.1 338.9 340.5 344.3 345.5 364.4 382.8 398.7 414.5 430.1 440.1 446.1 451.9 454.4 451.2 443.3 435.7 429.3 422.8 417.5 418.9 424.5 429.6 436 439.8 438.8 441.6 441.5 439.7 443.5 441.4 435.4 432.9 428.1 423.3 417 409.4 393.5 378.8 360.4 339.3 321.2 306.8 286.3 271.9 262.9 261.6 257 254.5 249.9 243.5 241.5 230.7 237.6 249.4 257.1 264 272.6 279 288.1 292.5 302.8 308.8 312.9 316.6 319.7 319.4 318.4 316.5 312.9 308.9 306.2 301.1 301.8 300.9 300.7 295.6 295.8 294.3 291.4 288.5 284.7
352.2 368.2 382.5 394.1 404.2 413.7 425.8 437 449.5 458.7 470.9 480.9 488.9 493.4 493.4 491 489.7 481.7 474.9 465.9 454 443.3 430.5 420.6 404.7 372.6 330.1 299.6 278.2 260.6 249.4 249.1 249.1 250.7 262.5 274.2 291.5 307 319.8 338.9 361.7 380.8 402.7 420.4 431.4 441.9 451.1 460.8 470.3 478.5 482 487.3 490.8 491.2 489.5 485.4 484.8 483.7 477.6 469.7 459.3 450 445.9 442.7 439.2 430.5 418.1 408.6 405.7 398.5 389.7 388.6 381.7 381.4 378.2 375.4 370.3 365.5 357.9 342.8 333.4 334.9 323 321.6 313.9 311.8 306.5 304.8 298.7 298.3 297.5 294.9 294.7 294.2 292 289.3 283.7 283.5 294 295.6 285.3 286.1 284.4 281 277.9 273.1 269.8 268.1 279.8 289 296 304.1 313.3 321.6 332.8 337.8 335 330.7 327.2 324.1 324.3 331.2 335.4 349.4 367.1 387.3 406.9 424.2 437.5 444.9 453.5 457.5 456.6 450.1 441.8 433.9 426.6 427.2 431.7 436.8 441.2 444.3 446 444.1 441.8 441.7 441.3 440.1 436.8 434.8 432.1 427.2 423 416.2 406.2 394.7 379.5 361.7 340.8 318.5 295.9 279.2 267.8 258.8 251.5 253.7 242.2 237.1 238.1 238.5 245.6 256.8 264.8 273.3 282.6 291.5 300.8 305.4 310.2 314 318.3 321.4 325.1 327.6 325.9 323.2 320.8 317.2 313.2 310 306.7 306.1 304.6 300.3 298.8 298.1 298.1 296.5 290.7 286.3
342.8 359.9 373.7 386.8 396 405.5 415.8 428.3 440.2 451.6 463.9 475.2 482.8 489.9 494.2 495.2 491.5 487.4 484.3 471.2 461.1 450.5 438.2 432.5 418.5 377.8 337.8 295.6 270.9 255 247.9 247.6 248.2 249.7 258.8 270.9 285.7 304.8 319.6 337.5 356.1 376.5 392.4 411.5 422.6 430.6 439.6 450.6 463.9 475.5 482 487.3 491.5 492.9 490.8 490.5 489.8 486.3 481.6 474.1 465 457.2 451 451.8 447.8 432.3 422.6 418.1 412.6 406.8 395.3 386.4 380.7 378.3 370.5 368.5 365.4 353.5 349.5 346.9 350.8 347 335.4 327.5 325 316.2 314.8 309.9 303.8 310.9 303.2 303.7 304.4 298 293.3 291.2 291.2 297 298.3 298.6 293.9 294.8 289.4 288.4 287.7 271.9 269 268.8 273.8 278.3 285.7 292.5 299.8 308 315.1 319.3 316.3 316.4 312.4 314.1 316.1 319.2 323.1 337.1 354.5 376.9 399.6 413.4 429.1 439.1 448.5 459.2 461.1 454.3 442.9 434.4 435 437.4 440.6 447.1 451.1 452.6 452.2 451 447.7 444.2 442.9 439.7 436 430.2 428.7 425.5 421.5 416 401.8 383.8 365.3 343.9 320.8 299.2 282.3 270 260.1 255.2 244.6 248.6 248.4 241.8 247.1 255.1 264.4 274.1 283.8 294.7 304 313.8 318 319.5 324.5 327.2 328.3 329.8 331.5 332.2 329.8 326.4 324.3 319.9 315.9 312 310.9 308.6 305.4 300.8 301 302.5 301.7 297.9 292.3 286.1
335.1 351.1 366 378.4 389.5 399.8 409.3 419.5 432 445.4 457.4 466.9 476.4 486.1 493.3 495.9 494.7 494.8 491 478.4 470 461.2 457.3 442 430.7 384.4 340.2 300.7 270.1 248.4 246.9 246.8 246.9 247.8 254.9 268.3 286.8 301.7 312.2 324.3 348.9 370.8 386.1 400.6 415.9 425.8 435.2 446 459 471 482.4 489.2 494.5 496 494.9 493.7 494.2 492.2 486 479.3 474.1 467.4 465.6 462.8 455 437.9 430.3 422.7 419.5 412 399.8 391.3 383.8 378.5 372.6 369.4 361.5 360.4 360.3 357.5 356.6 353.5 347.9 339.1 334.5 326.3 318.1 313.4 313.4 320 314 314.8 316.1 310.5 301 299.1 300.3 302.6 301.4 300.4 301.7 302.9 299.5 293.9 286.8 276.2 268.2 267.1 270.9 273.6 281 286.8 291.9 297.2 302.7 305.2 305.2 304.1 300.5 301.4 304 309 314.6 325.5 343.1 365.7 388.6 402.9 416 432.7 443.4 456.5 455.1 449.5 444 441.6 444 446.2 451.2 456.5 457.9 459.6 458.2 454.7 451.1 447.4 439.8 434.1 426.6 422.9 421.8 421.2 415.8 405.9 391.2 365.7 343.4 323.2 302.1 283.7 267 258.4 255.6 256.8 257.7 256.2 259.4 258.2 266 274.1 284.6 294.1 305.8 316.9 327.6 329.2 330.3 331.4 332.4 334.2 335.3 336 336.2 335.5 332.5 330.6 328.7 323.4 318.4 315.8 313.5 309.5 306.8 304.7 306.1 306.5 301.5 297.1 292.6 286.6
327.8 342.6 358.1 372.5 383.4 394 403.8 412.8 423.5 436.4 449.2 460.7 472.6 483.1 491.7 496.1 496.6 497.6 493.6 486 480 476.8 468.6 459.5 433 394.1 348.6 307.9 274.4 249.7 246.6 245.3 245.8 248.4 253.8 266 280.6 291.9 314.2 336.6 355 369.3 380.2 402.7 414.2 423.8 433 444.1 460.9 476.3 487.7 493.2 497.3 499.1 497.8 500.1 501.3 501.5 494.3 485.8 480 473.3 472.4 468.7 460 449.7 436.2 431.5 426 415.4 413 404.2 393.2 386.1 381.3 377 372.5 371.5 370.3 360.4 357.6 355.6 352.4 344.2 342.5 335.6 323 321.4 323.2 327.7 327.9 326.8 322.1 318.4 310.2 307.4 304.8 303.5 308.4 307.3 305.7 311.2 311.5 302.5 290.3 284.4 279.1 266.7 264.6 266.9 272.5 279.1 281.3 287.9 293.3 294.4 294.6 293.2 287.9 290.6 293.8 298.5 303.9 313.7 330.1 351 371.5 389.5 401.9 417.8 433 446.5 452.4 451.7 451.4 449.8 450.9 454.7 457 460.4 463.4 466.2 465 460.9 456.8 448 439.1 433.8 427.6 422.1 415.3 412.3 407.5 392.9 370.1 350.6 326.3 302.9 282.2 281.2 273.6 269.5 272.4 272.4 277.7 277.6 279.7 277.2 288.3 297.7 307 320.4 330.4 338.2 340.7 342.6 340.3 338.2 339.1 340.4 340.2 341.7 340.3 336.8 334.9 333.3 329 323.5 321.1 317.5 314.7 313.1 309.3 307 308.5 306.9 301.8 297 292.1 287.1
320.1 334.8 352 367.7 378.2 389.4 397.1 408.2 419 431.4 444.6 458 470.2 481.7 491.9 496.5 498.9 500.5 495.5 495.2 490.2 485.9 477.4 463.5 441.5 403.7 361.9 312.6 279.3 254.4 245.7 244.9 244.6 247.2 253.7 261.8 275.6 293.7 312.4 333.9 355.6 372.1 391.4 410.8 423.7 429.3 441 454.3 469.5 482.1 491.7 495.8 500.1 503.1 505 509.2 509.6 508.8 501.8 490.7 482.6 479.5 480.2 474.4 468.2 456.1 443.8 440.4 436.1 428.7 426.3 420.5 409.3 397.2 392.5 386.2 383.4 385.4 380.7 374.7 365.5 356.9 356.8 349.7 343.5 340.4 334.3 331.2 329.2 334.3 335.6 333.8 326.3 324 318.9 313.4 314.6 316.9 315.5 313.3 318.3 318.6 314.6 300.1 296.1 290.1 285.8 271.4 267.9 264 264 267.7 266.9 278.1 274 277.6 282.7 281 280.4 275.8 282.7 286.5 292.4 302 315.4 332.6 350.9 369.8 384.5 399.5 416.9 438.6 451 454.2 453.5 452.6 455.9 459.1 462.2 463 467.6 470.3 468.3 464.2 458.5 446.1 440.5 437.1 432 423.8 415.4 407.2 396.2 382.3 361.6 339.4 314.7 313.4 308.4 297.8 290.9 288.4 291 292.2 296.9 302 300.6 291.9 311.9 320.8 332 340.4 346.1 349.3 345.9 348.8 344.1 344.2 345.5 344.3 343.7 344.4 343.3 337.7 335.1 332.1 329 325.8 322 319 317.7 316.1 312.7 310.9 311.1 308.7 302.6 298.5 293.4 288.4
313.7 327.4 345.4 360.8 374.1 385.1 394.6 404.9 416.4 427.5 440 454.4 469.3 483 494.3 499.7 502.1 501.7 502.4 497.8 491.7 484.6 475.7 461.8 441.3 401.4 359.8 315.9 283.1 258.4 246.3 244.5 244.2 246.5 250.2 258.5 271 286.2 308.2 330.2 352.8 378.3 402.1 417 428.1 437.3 445.1 454.8 470 482.7 492.6 498.6 504.8 507.9 514.2 517.6 520.2 515.8 506.1 495.4 491.2 488.6 488.4 484 474.3 462.5 453.9 450.9 445.4 442.2 438.8 428.5 418.8 407.8 402.2 396.9 396.1 395.8 395.7 390.5 379.5 372.5 367.4 362.4 356.3 353.5 346.2 342.5 338.2 337.1 340.5 342.4 338.4 332.2 330.6 327.7 321.4 323.9 320.4 322.5 327.3 327.1 322.2 311.7 307.7 297.6 287.1 277.6 269.9 267.6 263 262.4 263.6 263.4 262.3 261.5 261.9 268.9 272.6 266.4 274 278 282.2 291.8 301.7 316 331.6 346.5 364.5 380.7 398.4 419.5 440.4 447.9 447.8 449.2 456.1 460.3 464.4 466.3 468.6 468.4 466.6 462.1 455.4 447.2 443.2 438.6 434.6 428 421.8 413.5 400.1 384.2 364.9 340.9 340.1 331.1 325.5 321.4 317.2 312 315.1 318 322 325.7 316.8 309.2 331.6 343 348.7 349 353.5 352.2 348.6 347.6 345.1 345.2 345.7 343.9 343.3 344.6 344.5 339.2 333.5 330.1 328.6 325.9 324 322.1 320.1 317.8 315 315.4 313.1 310.5 304.9 301.3 299.9 295.5
306.5 322.2 339.1 354.1 369.2 381.8 391.3 401.9 411.7 423.2 436.8 452.1 469.8 484 496.8 503.3 506.3 509 505.5 500.1 491.2 480.6 470.1 461.5 436.2 402.3 367 321.1 288.6 262.4 246 244.7 243.7 244.7 246.9 253 267.1 282.5 303.3 331 350.2 372.8 396.4 415.6 426.7 435.2 442.6 452.9 466 481.4 493.5 502.8 510.4 517.5 523.5 525.8 525.9 519.4 506.5 503 500.4 500 499 494.2 477.8 469.9 464.2 461.9 455.2 450.2 442.7 434.2 423.4 411.3 403.5 405 413.4 411 408 400 394.1 388 382.9 378.9 374.2 368.6 361.9 355.4 351.4 346.2 346.4 346.6 348.2 342.2 342 339.2 328.9 325.1 325.3 327.7 331.7 335.4 329.6 317.4 310.1 302.8 291.3 283.2 278.8 270.9 268.3 266.6 263.7 261 261.9 261.6 260.6 254.9 254.7 255.5 257.6 262.3 267.3 282.6 290.6 300.7 311.5 322.8 336.4 353.2 371.1 389.5 406.3 419.8 431.5 440.8 449.3 457.2 461.7 463.9 463.9 462.3 459.5 455.6 448.8 446.5 441.8 439.9 436.4 431.6 427.4 417.4 403 389.5 371.7 367.3 356.1 349.9 347.7 345.4 341.7 340.6 340.6 341.8 342.7 340.5 334 329.5 343.8 354.8 351.9 349.2 348.5 345.4 341.6 339.7 339.6 341.7 341.5 341 343 342.4 339.7 335.8 331.4 330.3 329.4 327.7 325.3 322.9 320.8 318.4 318.4 318.6 314.5 311 307 305.6 304.2 299.2
298.3 311.6 331 345.5 364.1 377.3 389 401.6 412 423.9 437.2 452.5 470.4 487.9 501.2 508.9 510.8 509.9 507.2 497.5 486.7 478.3 467.5 451.2 427.1 399.1 372.5 327.4 293.6 264 245.6 244.1 243.4 243.3 244.3 244.6 255.9 274.8 295.3 320.3 349.8 376.3 396.5 413.1 422.1 430.4 440.7 448.1 460.1 478.3 494.7 506.1 513.4 521.6 527.1 528.1 525 515.9 511.1 510.2 514.4 510.1 503.3 502.2 487.6 473.4 467.3 462.9 458 453.4 441.7 427.1 418.4 413.2 411.7 411.6 425 419.4 419.5 415.4 414.6 405.5 401.2 401.2 391.9 386.2 375 369.3 364.6 358.6 357.1 352.6 354.4 353.3 352.9 349.6 334.7 330.3 323.4 326.2 329.5 331.9 328.2 318.9 311.4 304.8 298.7 291.6 290.7 286.1 285.5 280.5 282.9 279.7 276.5 272.6 267.6 260.4 258.9 258.2 257.4 255 252.7 265.6 285.4 296.7 297.1 302.1 314.8 330.1 344.4 361.1 374.7 390.4 410.2 420 430.7 442.1 451.5 454.1 454.5 453.1 450.4 446.9 441.8 442.1 441.1 440.9 438.3 431.8 426.2 418.6 404.2 397.6 390.6 381.8 375.9 373.5 369.1 363.3 364.3 359 362.1 361.5 354.8 348.5 332.4 344 349.8 351 348.6 344.9 340.7 335.5 330.7 328.5 328 329.7 332.5 335.1 337.6 338.2 336.4 333.1 331.2 330.3 329.1 327.5 325.4 323 320.5 319.7 320.7 319.2 316.2 309.9 307.5 308.1 305.8 304.3
288.7 302.2 319.3 339.2 358.1 374.6 388.5 403.2 414.2 428.9 445.6 459.9 474.3 489.4 502.3 508.4 510.8 512 506.5 493.3 485.5 474.5 461.8 445.5 428.5 408.5 381.1 331.8 295 270.3 251.2 243.5 243.1 242.7 243 243.4 248.6 265.3 283.9 314.5 335.7 352 374 390.3 407.3 421.9 431.8 440.4 455.2 471.9 487.8 502.1 512.7 520.5 527 524.5 519.1 517.6 518.2 520.3 516.9 509.3 508.7 503.2 497.1 485.4 472.2 464.2 456.1 446.3 435 428.3 423.5 419.2 415.4 416.7 424.9 429.3 427.2 428 428.1 421.3 423.9 416 413.7 405.7 387.7 383.4 378.3 371.5 367.8 364.1 366.6 366 372.1 360.8 338.1 328.7 320.2 318.6 322.6 325.4 322.5 312.8 307.3 306.4 301.8 306.3 305.9 304.8 301.8 299.2 297 295.3 294.8 292.2 285.4 278.5 270.2 264.1 261.2 256.8 254.5 251.7 261.4 282.9 286.9 293.2 298.2 307.3 320.2 334.6 348.6 364.2 380.5 392.6 405.8 421.4 430.8 436.1 440 441.1 438.8 436.5 435.5 437.8 440.7 440 436.6 432.6 429.7 421.5 413.3 404.5 399.2 394.8 388 389.3 384.6 373 374.6 367.2 370 361.7 355.1 348 350.2 354.5 356.1 355.1 351.5 345.1 339.1 331.4 325 322.4 321.3 320.7 321.2 325.7 330.3 332 332.6 331.1 330.3 329.8 329.1 326.9 325 322.6 320 320 320.6 319.4 315.9 312.1 309.8 309.1 308.7 306
275.8 293.3 307 324.3 348.4 368.1 388.4 407.1 419.5 437.9 451.3 463.3 478.3 490.5 501.1 504.6 507.6 507.2 504.3 494.7 486.8 476.4 460.7 446.2 431 412.7 384.7 335 303.4 277.4 254.8 244.2 243.3 242.6 242.2 242.5 243.5 251.7 270.4 285.1 302.7 317.3 333.6 350.8 372.8 398 420.3 424.4 447.3 465 477.2 493.8 508.1 515.8 521.5 521 517.9 518.2 519.9 518.7 513 509 505.2 501.4 491 479.9 468 457.2 448.4 439.2 434.1 431.5 423.3 422 422.6 425.7 423.7 427.4 427.2 423.1 424.2 428.1 427.1 428.6 421.9 418 403.4 399.2 398.3 396.1 387.9 382.6 385.2 385.8 372 365.5 344 322.6 313.2 311.2 309.1 311.3 309.1 303.9 308.2 309.4 317.9 318.1 318.7 321.1 318.1 317.5 315.5 311.5 311.5 307.4 302.3 297.4 289.9 283.6 277.2 270.4 258.2 251.2 252.8 266.3 276.4 281 289 295.5 300.7 311.2 323.7 337.8 352.6 364.3 380.2 395 406.2 412.1 417.4 422.4 421 424.6 430.3 431.1 435.3 437.8 438.2 437.3 434.4 427.4 419.3 410.4 404.1 396.6 390.3 388.4 386.4 376.8 372.6 368.5 366.2 358.6 351.9 356.5 361 363.9 363.7 361.2 356.3 348.6 339.8 330.1 323.6 310.1 312.9 315.3 315.1 316.1 319.8 324.3 327.6 329.1 327.6 328.4 328.8 327.6 324.5 321.7 319.1 317.9 318.4 317.4 314.5 313.4 311 308.8 310.5 307.9
265.8 279.9 295.1 312.9 335.1 357.2 385.2 405 423.6 433.9 444 456.4 470.5 480.5 491.2 499 502.2 501.9 500.2 497.1 487.9 477.2 463.2 448.8 433.7 413.4 384.1 342.9 308.9 283 262.1 245.3 242.6 242.4 242 241.7 242.5 245.9 257.8 269.5 280.1 290.1 306.6 322.9 343.5 369.6 387.7 404.2 416 448.4 465.1 478 490.5 502.3 506.5 511.2 516.7 515.3 517.3 517.6 513.3 508.2 499.9 491.3 482.6 469.1 462.7 455.4 448 440.1 435.8 430.9 430.8 426.2 423.3 422.8 420.8 420.2 418.4 416.3 418.4 423.2 421 418.1 419.9 425 424.4 423.1 420.5 413.4 408.7 398.5 388.5 379 370.9 365.6 345.7 312.4 307.7 300.9 295.5 297.4 297.6 299.3 304.8 308.1 316 325.5 332.5 334.3 333.6 337.9 334.5 329.3 328 323 319.5 315.3 308.7 299.5 289.1 277.9 266.6 253.4 249.5 253.5 261.4 265 272.4 281.9 289 294 300.4 313.4 324.7 335.9 349.7 362.6 374.3 383.3 391.1 397.4 404.5 405.7 417.1 423.2 431.6 437.4 441.9 442.2 439.4 433.4 424 414.5 405.5 399.9 394.3 384.4 378.6 373.3 368.9 368.4 365.5 361 362.9 368.3 371.9 373.2 371.4 368.9 362.5 354.4 342.9 335.9 329.1 321.7 307.3 307.8 309.1 309.7 310.7 313.5 321.2 322.6 323.2 325.1 326.7 326.5 322.9 318.4 315.3 313 314.2 314.2 313.1 311.8 309.9 311.6 310.3 309.1
251.3 270.6 287.1 303.4 321.4 347.4 374.3 397 413.2 430.6 430.8 441.2 456.1 466.3 479 487.1 493.4 496.4 496.8 490.6 483.6 476.8 466.2 450.2 437.2 411.6 385.4 351.6 323.3 293.9 270.7 253 242.7 242.2 242 241.9 242.3 243.4 251.4 260.5 267.9 275.7 285.8 299.6 322.8 342.1 365.1 375.4 386.6 397.9 421 445.4 467.4 483.8 492.2 505 509.2 514.3 514.2 516.6 512.8 504 495 486.2 474.6 466.2 460.7 457.2 449.9 439.8 437.3 435.3 429.5 424.8 425.7 420.6 413.8 409.1 405.9 410.8 407.5 408.3 409.3 411.9 412.2 418 421.9 413.4 405.2 400.4 396.7 388.4 371 362 365.4 353.1 322.1 304 301.1 292.6 288.9 283.7 285.4 290.1 295.7 305.6 315.4 326.1 337.9 345.5 345.3 348 351.9 349.9 349.6 347.2 342.2 336.3 327.5 314.2 297.9 285.5 273.6 264.3 255.3 250.6 248.1 245.7 253.6 262 272.7 274.6 283.5 292.3 301.1 312.1 322.6 332.9 342.7 353.2 360 369 384.1 394.1 401.8 414.7 429 437.5 444.3 446.4 444.1 437.9 429.9 422.4 412 400.3 393.8 386.4 377.8 375.5 373.4 371.3 368.9 369.7 373.6 378.5 382.4 384.9 384.1 379.7 371.8 361.4 349 337.8 331.9 324.8 316.8 300.6 302.2 304.2 304.4 306.4 311.6 315.5 318 319.2 321.2 320.4 316.6 313.3 309.4 307.8 308.5 309.4 309.6 310.2 310 312.1 311.3 309.7
242.8 257.7 279.3 286.3 310.7 334 355.5 378.6 396.9 418.4 419.6 426 434.9 444.3 459.3 469.2 486.6 491.3 488.8 483.1 477 473.5 467.2 456.3 437.4 419.5 399.4 365.8 332.8 303.3 280.5 260.6 244.1 242.2 241.9 242 241.3 242.3 243 248.7 254 264.8 272.9 281.9 300.3 319.2 332 347.2 357.8 366.3 389.7 421.6 442.6 463.6 476.5 490.1 503.5 508.4 509.5 507.5 504.9 499.9 492.8 483.2 473.4 465 462.2 457.8 448.3 446.1 443.3 433.8 428.4 425.4 424.9 413.4 407.2 401.4 397.4 396.7 397.5 392.6 396.8 400.8 404.9 400.7 403.5 399.3 391 382 373.6 369.9 361.7 349.1 343.7 327.3 313.9 303.1 294.2 284.3 280.5 269.5 273.8 280.3 291.4 299.3 308.1 320.8 337.8 349.7 353.4 360.1 368.3 372.5 379.3 376.2 364.3 352.6 341.8 326.4 311.1 294.3 286 279.1 272 265.9 259.1 251.9 244.9 245.2 248.5 256.6 267.1 279.7 285.8 292.8 298.9 306.9 317.6 327.6 332.4 343.6 358.9 376.6 389.3 407.3 423.9 439 447.9 452.6 447.7 443.2 432.1 425.8 412.7 402 393.7 388.2 382.7 378.5 377.5 375.2 375.1 377.5 383.6 389.9 394.7 396.2 395.9 389.8 380 368.7 355.7 343.7 334.5 326.9 318.9 307.4 296.5 297.9 298 300.3 301.6 306 309.9 312.4 311.6 311.4 310.2 307.2 300.1 301.1 300.5 302 303.8 306.1 308.1 310.1 309.8 305
232.8 247.3 261 273.4 298 315.1 336.3 355.5 376.6 395.5 401.3 404.6 417 429.8 441.8 455.6 472.7 479 477.4 477.8 473.9 473.7 468 455.2 443.3 430.9 413.9 381.9 355.7 321.1 294.5 271.6 253.7 244.6 242.3 241.9 241.3 241.5 242 242.9 244.3 251.3 263.3 271.2 279.9 299.9 307.6 315 330.4 343 363.6 388.5 413 437.4 460.8 477.8 493 502.1 503.3 499.3 495 493.5 487.1 482 468.8 462 459.7 459.4 455.1 446 443.7 435.1 430.7 421.6 416.4 407.7 399.6 392.5 389.2 386.9 381.6 384.1 392.2 397 390.3 380.4 375.8 369.8 364.2 361.5 356.5 355 353.3 341.8 332.3 323.9 312.8 302.2 288.3 278.5 269.1 260.8 264.9 271.3 282.6 295.8 307.8 327.9 340.3 354.2 364.3 376.8 390.3 404.7 412.3 405.8 390.6 373.5 355.1 338.4 323.3 309.6 300.2 291.8 282.9 276.8 270.8 262.5 254.4 248.5 243.7 243.7 245.3 254.8 269.4 278.5 284 289.5 294 305 311.7 325 342.1 355.9 375.2 397.1 418.3 436.3 448.3 453.4 450.4 442.4 430.6 421.9 410.3 399.4 395.1 390.6 385.9 379.9 381.9 381.5 384.2 389.1 395.6 402.4 406.1 406.2 405.4 396.6 388.3 378 363.2 351.2 339.7 328.6 318.7 313.4 305.3 283.4 292.6 294.4 295.8 296.4 294.7 302.9 301.3 299.8 299.2 296.3 292.4 292.4 290.4 291.1 293.5 298.4 301.3 302.7 299.8 293.9
219.6 232.8 248.7 266 280.2 299.2 318.2 335.7 356 367.9 377.9 388.3 401.4 413.3 422.9 440.1 455.5 462.8 467.5 470.4 472.2 470.9 471.4 469.1 453.6 438.7 430.1 404.1 372.2 341.5 309.3 284.4 264.2 251.2 244.1 242.3 242.4 242.2 241.5 241.6 242.5 245.8 255.3 261.9 264.9 277 286 295.5 308.1 323.7 336.4 358.9 388.4 416.4 439.4 461.5 480.4 490.6 493.4 493.5 491.4 483.6 480.9 478.7 468 460.1 460.1 455.4 450 449.5 444.2 439.5 431.3 421.7 410.6 401.5 394.3 389.6 382.3 378.2 375.8 375.5 383.8 381.5 366.3 353.5 349.2 349.9 345.9 341.6 340.8 342.2 341.6 336.1 327.5 317.7 308.4 295.9 282.9 273.7 262.5 257.8 254.3 261.9 277.3 289.7 306.7 328.5 348.2 363.9 373.7 398.9 410.1 424.2 439.5 435.3 419.3 401.1 376.5 354 337 323.8 311.6 300.7 292 284.9 280 271.4 263.6 253.2 248.1 244.6 244.2 241.5 243.2 255.9 260.2 278.4 285.1 290.1 297.7 307.7 317.3 336.1 358.7 386.2 409.3 428 444.5 448.9 448.9 440.9 429.8 421.4 409.8 401.8 395.9 392 387.6 386.3 388 391.9 396.7 403.4 408.2 412 414.8 410.3 405.8 401.6 395.4 385.9 373.4 358 342.8 332.6 324 312.7 305.7 294.6 281 288 289.4 287.9 284.8 287.5 287.5 287 285.9 284.7 282.2 278.6 277.4 279.1 281.5 283.8 286.4 285.3 281.2 278.4
210.3 224.4 236.6 252 267.4 286.8 302.7 323 338.4 352.1 361.4 373.2 385 396.7 408.9 422.5 436.2 446.4 455.6 464.7 469.4 470.3 471.6 468.5 460.3 450.7 442.7 417.2 387.6 348 324.5 299.4 276.6 262.4 250.4 244.1 243.3 242.5 241.3 241.5 241.8 243.5 248.8 253 256.6 263.6 272.2 281.3 290 305.5 316.3 333.8 355.8 387.4 409.1 440.3 464.3 474.8 481.8 484.3 482.8 476.5 471.1 463.9 456.8 451.2 452.8 448.4 448.6 450 440.1 433 425.4 417.4 406.2 395.5 383.3 381.6 377.9 372.8 370.6 365.6 367.8 361.9 343.8 338 331.7 332.2 328.3 328.5 327.5 330.9 334.5 327.9 320.7 313 301.4 294.2 279.8 268.9 260.1 256.9 250.2 251.6 267 280 297.6 320.9 343.3 366.7 384.1 395.8 411.3 429.9 442.7 445 439.5 418.8 392.6 374.3 356.5 340.2 323.5 310.2 299.8 292.9 289.5 283.6 272.1 264.7 255.7 246.5 243.6 243.6 239.7 245.3 249.4 265.1 269.3 276.2 287.8 287.7 304.7 321.7 343.9 370.6 395.7 419 436.8 445.3 450.3 439.5 429.3 420.3 410.5 401.3 394 393 392.8 395.4 403.3 408.3 411.4 414.7 417.1 419.1 419.1 414.9 408.5 403.3 398.3 390.2 378.1 362.7 347.1 336.9 326.4 315.1 304.3 294.3 287 273.7 281.9 281.2 278.7 276.8 277.3 275.9 273.8 272.4 270.1 270.1 269.5 268.9 272.3 268.5 268.4 267.6 266.5 264.3
196.5 208.8 223 238.6 256.6 272.9 288.9 305.6 322.7 337.5 349.3 358.3 371.3 382.5 392.8 406.5 418.6 432.5 446.6 455.1 465.8 469.8 467.2 462.3 459.8 453.2 445.5 425.8 386.5 355.1 331 308.3 290.9 277.1 263 252.3 247 243.7 242.2 241.2 242.1 242.7 242.9 242.9 246 253.7 261.9 267.8 278 289 301.3 311.6 328.5 354.6 376.6 419 444.1 459.5 470.4 471.3 463.9 460.5 453.1 448.9 447 446.3 441.5 439.4 442.4 439.1 431.8 427.1 422.8 415.1 403.7 389.5 380.8 377.8 374.5 368.9 354.5 350.5 348.9 339.6 334.2 326.9 317.6 316.3 314.7 314.6 315.4 320.1 322.4 316.8 309.5 303.3 295.8 292.1 277.2 264 254.1 252.3 247.9 245.4 258.8 266.8 285.9 313 341.4 367.8 385.9 394.9 403.3 430.4 443.5 450.9 448.3 433 414.8 399.3 376.9 356.5 337.9 320.7 308.2 303 297.5 291.1 286.8 278.9 269.7 253 246.4 243.7 240 239.6 239.7 242.5 248.6 261.4 271.9 275.5 293.3 304.9 327.4 353.8 380.1 405.1 426.5 442.4 444.4 440.7 431.1 422.4 412 404.6 401.1 400.6 404.2 410.3 416.2 421.5 426.9 426 423 422 418.3 414.4 413.4 409.3 400.3 391 381.6 365.1 352.7 339.8 329.5 318.2 305 295 286.9 273.1 275.8 275.5 273.4 271.6 270.4 268.9 267.6 265.3 263.3 262.3 262 261.3 263.7 259.9 257.5 257 254.6 252.5
183.8 196.8 209.5 226.2 243.1 260.4 274.5 289.3 305.2 318.4 331.8 344 358.2 369.5 379.7 392.1 408.5 423 436.3 447.9 457.3 460.2 461 460.9 454.9 453.4 448.2 436.8 405.2 369.2 338.1 319.2 304 289.3 275.5 265.6 257.2 247.6 244.4 241.4 241.5 241.5 241.7 239.7 244 241.8 252.3 257.1 262.8 274 285.3 293.6 306.4 330.3 344.1 375.7 414.2 443.1 448.7 445.2 443 440.2 436.5 433.5 431.2 431.5 430.1 428.1 430.2 430 427.1 420.9 417 410 398.9 388.4 381.5 373.1 364.3 353.4 342.2 331.9 333.4 328.2 318.9 311.1 310.5 308.9 306.4 305.9 304.8 308.7 310.4 309.1 300.6 296.9 291.9 281.3 274.9 259.6 249.6 246 244.8 241.2 248.3 263.4 281.2 309.5 332.7 356.1 379.4 390.8 404.2 422.4 434.6 453.8 451.7 445.6 434 418.5 397.2 377.8 353.3 328.4 315.6 310.6 305.6 300.4 296.4 289.6 280.9 268 259.5 250.4 245.7 241.8 239.6 237.1 242.5 243.9 251.8 274.7 281.4 292.6 310.9 336.7 364.8 392.2 418.2 436.5 442.2 437.8 432.1 426.1 420.7 416.4 412.8 414.4 419.9 428.9 432.4 436.8 435.8 431.2 424.9 419.2 418.3 417.1 414.3 409.9 402.5 393.8 380.4 366.8 355.3 340.7 326.7 315.4 303.8 292.5 284 275.9 267.2 271.6 270.3 267.7 265 262 261.1 257.7 255.7 256.5 255.9 255.3 251.8 251.2 250.5 248.9 246 243.8
173.8 182 198.5 216.4 228.6 246.3 259.5 277 290.3 304.2 314.5 327.9 342.9 354.3 364.8 381.7 400.1 416.3 431.9 443.5 451.2 455 455.3 456.8 454.3 453.8 448.2 443.1 425 379.6 348 326.2 313.4 300 287.6 277.7 268.3 258.6 249.9 245.8 242 239.6 241.3 241.7 248.1 242.3 243.9 247.1 252.7 264 273.7 279.9 288.9 303.1 320.4 343.7 368 400.5 411.6 417.7 419.1 417.7 416 408.9 407.8 410.6 419.1 420.4 420.5 423.7 422 414.6 410.3 400.6 394.7 388.3 377.2 364.1 352.2 340.8 337.2 322.3 323 319 314.1 312.5 305.3 302.1 296.1 291.2 290.4 296.5 302.1 304 293.8 290.1 282.9 277.9 269.9 255.7 245.8 240.7 240.7 239.6 245.8 264 281.9 303.2 326 350 373.2 390.6 406.8 413.7 430.5 442.4 450.4 446.5 447 432 412.4 378.7 352.4 332.3 321.1 315 310.7 307.8 304.6 299.4 292 282.6 272.5 264.1 258.2 248.6 239.2 238.8 239.5 240.9 244 262.2 271.8 282.9 298.2 321.2 352.4 382.7 409.5 429.6 439.3 438.2 437.6 435.1 432.5 430 433.1 431 438.9 443.4 442.9 445.4 442.5 435 425.2 421.4 417.8 415.4 414.3 407 402 394.3 383.6 366.5 354.9 337.5 321.2 315 300.9 291 280.5 274 260.6 266.6 266 263.7 259.6 257.9 255.5 253.3 250.8 250.6 241.9 247.2 243.2 239.4 238.9 241.6 240 237.4
166.4 175.6 189.5 202.2 214.6 231.2 248.4 265.4 277 288.7 299.1 308.8 325.3 342.9 358.7 375.8 395.5 413.1 426.6 436.7 442.5 447.5 448.5 451.8 451.5 451.3 449.9 444.9 433.9 401 360 339.3 322.1 311.3 299 287.8 278 268.9 260.7 257.7 250.5 246 244.3 247.6 249 242.7 239.1 240.7 247.9 256.6 264.4 269 275.7 287.1 301.7 326.4 348 370.5 389 399.8 393.7 389.8 392 393.4 392.9 395.7 404.5 408.8 411 412.3 414.9 407.8 397.4 387.6 382 376 364.2 350.7 341.9 336.9 327.8 323.8 317.8 313 307.4 303.7 299.1 298.1 291.3 286.4 284.4 288.9 293.6 296.6 288.1 284.8 276.6 270.8 266.7 253.4 240.8 237.2 237.6 234.9 245.3 264.3 283.8 300.3 322.1 343 362.3 379.9 397.5 407.7 421.5 430 440 442.5 442.1 441.6 414.6 377.6 354.3 339.7 328 321.9 316.6 316.1 315.3 311.4 302.8 294.7 284.6 271.8 264.3 256.5 244 237.3 238.4 238 239 249.6 257.8 268.9 285.8 309.8 341.5 370.1 398.5 424.5 437.2 444.4 446.1 446.2 444.3 443.3 444.6 447.4 450.4 451.6 447.5 440.5 437.7 429.5 426.5 421.3 415.4 411.1 410.4 402.6 397.9 395.2 378.8 363.6 348.3 333.5 317.5 303.7 297.7 288 278.3 272.5 261.2 252.8 249.8 248.6 246.8 246.3 246 241.9 241.4 240.2 239.2 238.4 237.1 238.2 234.4 227.8 233.2 227.8
162.2 168.9 178.9 191.2 199.5 218.1 232.7 247.7 254.7 263.7 276.6 296 316 336.9 357 374.5 390.5 405.3 417.5 426.3 434.2 440 442.1 444.6 446 448.3 447 444 433.3 418.2 391.6 359.4 334.8 321 309.6 298.3 289.3 279.3 273.1 268.9 262 256.4 252.7 254.9 250.2 241.1 238.5 238.2 245.2 251.5 257.3 260.2 267.3 273.7 286.7 304.8 329.4 347.3 364 374.8 375.7 376.9 381.2 383.7 384.9 385 387.2 392.4 396.2 397.6 395.1 389.1 383.2 376.2 368.4 361.7 349.6 344.7 341 340.9 328.4 320.2 310.6 305.1 299.7 295.5 294.6 294.7 290.2 281.6 275.9 281.6 285.4 288.7 285.8 278.8 275.3 268.4 263.6 250.4 235.6 233.6 233.4 232.8 246.8 262.1 283.3 298.7 319.4 338.3 355.9 372.8 389.2 403.2 413.1 426.9 438.1 449.7 450.7 441.1 415.3 384 362.8 347.9 338.6 333.2 334.2 335.4 335.9 329.9 320.4 311.5 300 286.9 274.5 263.9 253.4 236.6 236.3 237.3 237.2 239.3 253.2 262.6 275.9 296.3 325.1 355.5 385.4 417.8 440.2 449.5 453.6 453.4 451.3 453.8 455.3 453.3 451.9 450.5 447.9 440.2 431.2 428.7 422.5 417.1 405.7 402.9 398.5 393 391.2 390 375.1 365.7 350.1 339.2 324.1 310.4 292.3 277.7 272.1 263.5 257.2 258.7 260.9 264.9 263.5 259.2 256.8 253.5 255.5 256.1 250.8 256.3 253.7 251.1 243.7 237.3 230 224
158.8 168.7 168.1 176 188.2 200.1 210.8 220.4 231.3 242.3 265.2 287.6 307 329.7 350.7 368.3 384.2 394.1 406.7 415.9 426 432.7 437.3 439.1 440.6 442.8 441.4 435.8 433.2 427.1 407.8 383.1 360.4 335 319.7 312.5 301.2 291.5 283.4 275.6 270.6 266.4 264.7 259.5 251.2 239.5 237 241.4 243.3 246.3 249.4 255 257.1 262.5 273.7 290.5 309 330 347 358.8 364.9 367.6 374.7 377.4 377.9 378 380.2 380.7 383.5 384.9 381.8 377.3 369.7 366.5 357 346.2 339 336.2 332.3 331 323.6 314.7 307 304.5 297.6 294.6 290.3 290.5 287.6 280.2 272.8 275.6 278 281.1 278.6 274.4 271.4 265.9 254 243 232.2 230.4 232 233.5 247.5 262.6 279.5 302.3 321.4 338.6 353.5 368.2 381.8 397.3 412.4 426.7 440.1 449.8 456.3 451.6 426.7 395.6 372.6 359.4 354.7 358.5 361.6 361.7 362.6 354.3 349.2 339.7 320.4 304.6 286.3 272.9 259.9 245.5 235.1 236.1 236.2 238.1 250.5 254.3 267.1 283.8 310.7 340.4 373.3 407.4 438.1 453.3 457.6 458.8 458.5 456.2 457.3 452.4 445 441.3 441.3 432.3 425 420 413.1 406.4 398.7 397.8 389.7 388.5 385.5 379 372.8 365.8 355.4 341.8 327.3 301.2 297.2 286.4 273.8 270.7 271.5 271.8 278.8 279.9 279 272.3 274.3 275 274.1 271.8 266.4 266.2 262.9 256.7 250.5 243.4 233.1 226.9
160.6 158.4 164.2 166.6 177.8 183.1 197.1 201.6 212.1 230.5 248.2 272.5 295.9 319.3 340.6 360.7 375.1 386.5 397.4 407.6 418.1 425.5 430.5 431.9 433.8 432.3 430.8 429.8 428.2 424.6 410.2 400.6 376.2 349 337.7 327.1 314.7 303.1 293.2 284.8 279.8 275.4 271.5 264.7 253.5 241 237.3 239.6 239.3 237.9 239.5 243.8 246 250.6 262.5 280.4 295.4 313.6 333.5 349.7 356.8 363.5 368.7 371.6 372.6 373.4 373.1 372.3 371.6 372 371 363 356.2 350.9 342.1 333.4 329 325.3 322.4 321.6 316.8 311.4 305.3 302.5 301.9 299 295.7 289.2 283.2 273.5 269.3 267.2 270.1 272.9 273.9 272.2 266.8 261.7 252.5 240.4 229.8 227.6 232.4 232.5 244.5 261.2 284.1 300.4 320.5 338.8 356.7 373.2 388.6 405 419.9 433.6 444.4 457.6 465.1 458.4 443.7 417.1 396.2 385.6 387.2 393.6 395.8 396 392.4 388.1 381.6 368.4 345.5 318.7 296.2 278.9 265.1 255.1 238.2 235.6 236.1 236.1 243.8 251.1 259.6 271.7 295.9 324.6 357.9 390.7 419.5 440.8 455 454.2 455.5 453.9 451.2 447 438.3 431.9 431.1 425.8 420.1 413.7 408.9 401.2 397.9 396 390.4 384 379.5 373 370.8 364.7 354.7 341.6 332.6 321.7 302.5 286.9 285.1 289.2 289.5 291.1 296.3 295.3 294.4 292.4 293.1 287.8 285.2 280.6 273.5 270.8 267.3 261.4 253.6 243.2 232.5 232.6
164.9 163.2 157.7 160.8 170.5 181.9 196.9 193.8 201.9 216.8 233.8 257.2 282.3 308.8 331.2 351.7 367.8 380.2 391.5 401.2 411.2 418.1 422.5 424.6 425.3 426.8 425.9 424.6 421.6 414.9 410.4 401.2 393 377 366 346.8 329.1 315.7 304.8 295.9 288.1 282.4 275 266.2 256.4 242.2 236.3 237.3 236.2 234.7 236.5 239.3 244 251.6 260.3 274.8 287.4 301.4 318.6 337.2 351.3 359.2 363.9 366.1 367.1 364.5 364.9 364 362.1 363 358.5 351.7 345.2 338.5 331.5 324.6 317.7 315.5 312.5 310.5 306.7 306.4 304.1 304.3 303.9 300.2 297.9 290.7 285 276.6 265.5 261.7 262.6 266.7 267.7 268.7 264.3 259.2 251.7 241.2 227.2 223.4 227.3 228.2 242.1 257.9 282.8 299.6 322.5 344.1 362.1 380.2 394.8 409.4 423.5 437.8 444 456.2 464.4 464.9 456.7 445.9 433.7 428.5 430.9 440.3 435 432.5 431.4 420.3 407.6 386.2 358.5 328.7 303.8 285.5 271.2 260.7 245.3 234.9 235.6 234.7 238.8 241.8 252.1 263.4 280.8 307.6 337.4 367.5 396.2 423.3 438.8 443.8 449.3 447.2 451.8 446.4 439.2 429.3 423.9 417.8 416 410.4 408.9 405.1 402.1 397.5 391.7 387 382.7 377.3 370.2 362.7 352.9 341.8 332.2 318.9 301.7 295.3 299.3 300.8 303.8 306.8 309.4 308.3 305.8 303.7 300.5 295.7 294.4 291.1 284.9 277.8 268.3 261 253.5 240.6 241 240.5
167.4 163.9 158.3 157.7 162.9 176.6 189.8 186.1 192 204.3 215.8 237.3 264.1 292.9 322.5 345.1 361.4 375.1 386.1 396.2 404.6 411.9 415.1 418.9 420.9 421.8 419.3 417.3 412.4 410.4 411 414.7 403.5 394.6 388.6 377.2 351.2 331.8 317.8 308.2 299.4 290.6 281.3 275.4 264.9 256 245.4 237.1 236 242.3 237.5 233.8 242.2 253 262 272.4 282.1 295.1 308 322.4 341.2 352.3 355.5 358.5 358.8 358.1 361.4 358 354.3 352.9 350.6 343.9 338.5 332.7 325.4 318.1 310.8 307.3 303 301.6 300.6 301.2 302.8 305 303.8 299.3 296.5 289.7 283.6 275.7 266.6 259.7 261.2 261.3 262 262.4 258.5 256 248 236.8 225 220.8 221.8 226.4 241.9 261.6 281.2 304.4 326.1 345.6 363.1 379.3 396 411.3 425.4 441.1 445.1 454 463.1 466 456.1 455 457.4 454.1 460.3 469.4 466 453.5 446.4 435.7 418.9 394.8 366.5 336.9 312.9 290.2 274.3 265.9 254.4 236.4 232.4 234.6 237.6 237.6 242.4 255.9 269.9 292.6 320.2 351.4 377.7 401.5 416.6 427.4 433.7 445.9 449.5 447.6 437.2 427.9 421 417.4 416.6 413.7 411 408.3 405 401.3 395.9 390.2 385.3 377.5 369.5 360.4 352.3 342.6 334.2 323.2 309.6 309.6 311.1 319.1 321.4 319.5 324.7 325.6 323.3 318.4 317.4 306.9 303.7 298.1 288.5 278 268.3 260.7 250.2 240.2 247.1 248.2
171.6 164.6 158 157.1 159.3 164.5 178.3 182 182.7 189.3 200.7 217.8 248.6 279.5 310.2 337 357.6 371 380.8 391.6 399.4 406.6 410.7 412.4 414.5 414.2 412.4 410.4 409.5 413.5 412.9 407.5 399 396.4 389.9 382 367.5 345.8 326.8 319.3 309.9 301.9 296.1 288.8 280.4 268.3 259.2 249.6 237.6 243.4 243.8 232.1 244.3 252.3 260.1 268.1 276.8 284 295.8 311 330.3 342.6 347.3 350.9 352.3 353.8 353.2 352.6 349 344.6 342.3 338 333.7 325.9 318.3 312.4 305.2 301.2 297.4 296.1 296.9 297.9 301.9 304.9 305.9 303.1 298.7 287.8 282.5 273.2 263.6 257.5 263 263 254.4 255.7 254.7 250.5 245.8 233.9 221.7 217.6 220.7 228.8 239.6 261.1 278.7 300.9 325 344.1 361.3 378.9 395.9 411.2 425.3 437.7 442.8 446.1 461.7 449.1 450.8 453.2 451.9 450.6 454.7 461.6 455 451.7 444.7 436.2 422.7 407.8 379.7 348.7 319.5 297.3 282 270.9 260.1 250.2 233.2 234.1 235.7 236 240.7 249.2 259.7 276.6 302.7 330.6 358.9 382.2 397.7 410.1 425.1 440.3 446.8 443.1 432.4 422.8 420.3 418.7 417.4 414.9 413.6 411.1 409.3 405 400.3 393.7 386.3 379 370.6 361.2 354 345.2 337.1 332.1 323.8 322.3 321.8 324.8 326.9 331.5 336.6 338.2 336.5 328.1 319.1 310.1 306.2 296.8 286.6 273 264.8 256.5 246.9 253 254.4 257
179.1 168.3 161.2 157 157.4 159 162.6 169 170.5 177.7 190.3 209.5 232.6 266.5 297 324.4 348.6 364.3 376.4 386.4 394.8 402.6 405.3 405.9 406.6 406.9 407.1 409.2 408 403.5 401.9 397.7 395.6 390.8 382.5 376.7 366.5 352.3 344 334.2 326 319.5 310.6 303.6 294.3 286.7 274.7 258.3 241.4 239.3 244.3 231 239.8 248.6 255.1 261.4 267.9 275.2 283 298 317.4 329.8 337 341.9 344 347.1 346.7 346.3 345.6 341.2 337.8 334 330 320.9 312 308.2 300.7 296.5 293.8 293 291.3 295.5 299.2 305.9 309.2 309.4 297.9 287.3 282.2 276 271.6 259.2 257.9 258.2 251.2 252.4 255.1 249.2 241.8 232 220.8 216.2 221.5 229.1 237.8 251.9 272.9 292.6 318 339.2 358.5 377.4 395.8 409.1 422 431.3 430 430.2 434.9 429.2 428.5 437.2 436.2 441.3 443 448.1 450.1 447.1 438.2 431.7 421.5 411.1 390.8 361.4 334.9 310.7 292.5 278 266.9 255.3 238 233.7 235.4 235.6 236.2 239.6 247.1 260.4 281.5 309.9 337.6 361.9 380.5 398.7 416 434.7 440.5 434.7 433.2 427.4 422.2 420.7 419.9 417.9 416.5 415.1 413.7 409.9 404.5 398.1 391.8 384.4 372.7 364.5 356.5 347.7 341.9 336.7 329.5 329.7 326.4 327.6 331.9 337.4 340.5 339.4 334.9 329.4 319 310.1 301.4 290.8 278.2 267.1 258.8 250.5 255.3 259.2 267 266.1
181.1 166.2 160.5 157 156.6 157.2 159.6 162.1 164.4 170.6 181.5 201.1 225.6 251.3 279.6 310.1 337.8 356 371.8 381.7 389.1 394.9 397.2 399.1 401.6 402.8 402.6 400.9 398.4 394.6 394.2 388.6 386 384 383 375.8 372.6 368.5 354.3 347.6 339.2 335.5 330.5 320.2 311.7 303.6 288.3 268.4 251.8 241 241.3 232.3 229.7 239.2 247.7 254.2 258.7 265.8 274.9 287.7 301.6 316.3 323.6 328.4 333.7 337.7 341.4 343.2 342.4 339.8 335.7 329.5 324.6 315 309.3 307.6 302.5 295.1 291.4 291 289.4 291.2 299.7 309.6 311.8 307.4 303.4 300.6 290.9 279.8 270 260.2 252.1 252 247.6 248 250.7 246.9 241.9 230.7 220.9 214.7 219 226 232.2 249.1 264.2 283.8 310.5 330.4 352.2 372 390.3 404.7 419.8 420 415.4 410.9 409.2 407.5 413.2 408.8 420.2 426.6 425.2 433.1 442.1 439.3 432.8 423.2 419.4 416.1 406.1 379.3 347.8 319.7 301.4 285.8 271.2 257.9 243.4 231 235.5 235.5 234.6 234.5 236.7 246.2 263.3 287.2 312.6 335.5 360.1 373.5 393.7 416.7 429 431.2 432.9 430 425.9 422.7 422.2 422.1 423.2 424.9 421.4 415.3 411.8 406.3 401.3 392.2 381.2 373.6 363.2 351.5 349.4 345.3 336.6 336.5 333.8 333.9 335.5 339.7 340.2 336.3 329.9 321.8 311.7 303.6 291.1 281.3 270.4 263.3 265.1 262.6 260.6 263.4 272.3 275.2
177.5 162.2 157.3 156.4 156.3 156.5 157.2 159.3 162.6 169 173.2 191.1 213.3 241.6 264.4 299.5 322 346.8 364.1 374.2 382 387.9 391.7 392.6 394.7 394.7 394.2 395 391.8 386.3 385.9 383 383.6 387.5 385.6 377 368 361.8 357.9 355.9 358.8 351.4 348.2 339.8 327.1 321.7 305.3 281.9 262.7 248.6 240 231.8 230.7 236.8 242.7 245.5 248.2 257.2 266.1 276.6 292.8 306.7 315.9 318.6 327.4 335 339.3 341.8 340.4 336.7 331.7 328.2 324.5 318.1 310.9 306.2 302.8 295.9 291 289.6 287.9 289.4 294.9 306 315.6 324.1 318.9 308.5 296.7 284.7 270.5 262.8 254.7 244.2 245.2 240.6 246.5 244.2 236.5 232.5 220.7 213.7 215 221.6 227.8 242 258.4 276.4 297.6 321.7 343.5 365.1 383.6 399.2 406.7 404.1 394.9 390.5 387.2 388.5 384.5 388.8 402.1 402.1 414.5 426.7 429.2 433.2 426.8 429 427.7 426.6 420.5 392.8 362.9 338.6 313.8 293.2 277.5 262.2 245.9 231.8 231.6 234.1 233.2 233.2 233.5 235.7 255.5 269.5 288.4 310.7 328.7 345.9 365.6 387.1 406.5 421.4 424 429 429.9 426.7 427.1 428.4 431.2 431.3 430.8 424.8 418.4 414.1 404.1 398.5 391 382.9 372.3 361.8 361.5 357 350.4 346.3 342 339.6 339.3 341.1 342.3 335.9 329.1 319.3 310.9 301.5 291.5 279.8 274.4 273.3 273.4 267.7 266.3 267.8 278.9 288.9
177.6 162.3 158.6 156.2 156.1 156.6 156.4 157.5 161.8 167.6 173.3 187.9 206.1 236.8 269.5 300.2 321.6 337.7 353.2 365.6 374.2 382.1 386.2 387.6 388.3 388.3 388.3 387.1 383.6 381.4 381.1 386.2 389.7 380.9 375.3 367.6 365.7 365.6 360.2 363.6 362.8 354.7 348.5 343.8 334.2 330.5 313.7 293.7 271.4 257.6 244.7 232 228.1 236.4 241.5 239.4 243.8 252 260.9 270.4 284.3 297.8 307.6 316.9 324.7 333.8 338.6 340.3 337.3 334 330.7 327 322.4 316.7 312.9 308.4 301.8 297.4 291.1 287.7 287 290.5 294.1 301.1 318.6 326.3 326.4 310.3 301.2 287.8 275.7 261.5 248.1 243.3 241.2 235.8 242.8 241.6 236.8 228.5 219.8 213.5 212.6 217 226.1 237 253.2 270.5 293.2 317.7 340.2 359.7 375.8 387.7 389.6 383.8 376.9 376.5 372.6 368.6 374.4 373.8 383.2 391.7 411.5 420.7 426.1 430.1 435.6 438.2 439.2 438.9 427.8 413.4 390.6 363.9 327.7 302.8 285.6 269.7 250.5 231.7 231.6 230.8 233.3 232.6 232.7 238.5 250.2 264.2 273.7 283.7 298.7 315.7 337 355.9 378.7 398.9 409.6 425.9 429.9 431 433.1 430.2 433.1 435.8 434.1 426.9 423 414.8 409.7 405.5 396.4 389.4 385.6 374.1 366.1 364.4 362 353.1 346 342 338.6 339.6 339.1 335.1 328.3 318.7 309.8 300.6 292.7 284.3 272.8 277.9 276.1 270 270.3 276.2 292.7 303.8
181.5 175.1 166.5 156.4 156.2 156.2 155.8 156.7 159.4 163.4 169.7 183 206.1 235.5 267.3 294.3 314.7 332.9 347.3 357.1 365.3 373.1 378.8 382.1 383.2 384.4 384.1 382.4 382 380.8 381.5 378.5 377.8 371.9 371.5 369.3 366.7 366.8 355 356.5 355.8 351.2 345.5 338.5 331.2 326.7 322.1 310 282.4 262.6 245.8 233.6 228.8 231.4 237.5 233.6 238.5 246.6 253.9 265.4 273.9 291.1 307.9 318.9 327.1 334.3 337.6 338.2 337.2 334.6 331.8 326.8 324.3 321.1 313.9 309.4 303.7 298.8 295.1 288.3 287.2 286.2 289.5 299.9 311.5 327.1 325.4 313.5 302.1 292 277 262.7 246.9 242.6 236.6 232.7 239.4 239.6 233.9 226.9 221.1 216.3 210.8 212 222.5 233.7 249.7 268.7 290.1 310.7 332.4 351.9 363 371.4 371.2 364.7 363.3 362.7 360.3 356.7 357.7 364.5 374.6 387.7 398.5 414.2 423.8 432.6 439.9 444.3 448.9 450.2 452.2 435.1 407.8 378.4 350.5 322.9 299 280.5 259.4 240.3 230.7 230.6 231.2 230.5 232 238.3 249.5 257.6 263.6 267.7 273.8 287 305.7 324.8 349.1 367.9 385.1 402.4 422.3 426.8 427.4 426.6 426.7 425.8 425.7 420.3 414.7 409.9 408.8 403.7 398.3 398.8 393 383.5 377.9 372.1 371.5 358.1 348.6 342.1 335.5 325.8 326 329.9 327 318.5 310.7 303.4 293.4 281 277.4 280.1 282.2 284 287.7 294.6 308.5 319.1
193.4 179.4 164.9 158.8 155.7 156.2 155.7 155.9 157.5 160.3 167 179.7 202.5 227.6 259.9 283.3 308.3 327 340.9 352.2 359 365.4 372.2 376.2 379 381.5 381.3 379.5 377.8 376.9 375 372.3 372.2 371.5 369.2 363.7 360.9 359.3 349.3 348.7 347.9 343.8 339.7 337.8 332.2 332.9 328.8 320.1 302 269.3 252.1 239.6 229.9 226.5 228.4 228.9 237.1 242.2 249.7 254.7 271.6 287.6 307.4 320.1 331.2 336.3 338.6 340.3 338.5 335.4 333.4 329 321.6 317.6 312.1 309.7 305.2 299.2 294.2 290.5 284.8 284.8 288.4 301.5 313.7 319.7 321.3 310.4 298.2 284.4 273.6 266 254 244.2 240 232.1 235.2 237 235.6 229.7 220.2 216.7 212.4 208.8 216.3 229.7 245.5 265 284.5 303 322.7 339.7 348.3 355.4 356 353.5 351.4 349.6 346.8 346.1 346.6 360.7 372.1 384.4 401.8 418.4 432.1 441.7 449 455.6 459 463.8 462.9 452.2 430.1 399.8 370.5 343 316.1 296.2 273.3 245.9 232.3 229.8 229.1 229.4 229.2 235.9 243.9 249.6 251.2 257.4 262.1 268.2 281.1 296.8 316.7 334.7 351.1 366.4 382.1 400.2 409 408.9 409.3 409.3 408.5 405.5 402.9 402.1 402.6 400.1 398.7 397.3 392.2 389.7 384.9 373 369.2 367.9 350.9 338.3 327.3 324.8 317.7 314 313.8 318.9 311 299.6 287.7 292.8 292.6 295.7 297.3 302.9 307.7 319.2 326.2 335.5
200.3 180.8 165.5 159.2 155.8 155.6 154.7 155.6 155.5 158.8 163.4 176.1 197.1 221.2 248.3 274.4 298.4 317.7 332.2 345.1 352.6 362.5 368.9 375.3 380.6 383.4 381.3 377.3 374.6 371.5 369.7 370.1 367.7 365.2 360.5 353.9 355.4 352.3 348.5 342.7 342 339.5 336.2 334.4 334.4 335.3 331.2 318.2 308 281.9 252.8 239.3 232.6 227.3 225.8 225.9 229.3 235.4 245.6 255.6 263.5 282.3 302.8 317.9 335 342.7 344.2 345.6 344 340.6 335.8 328.1 325.2 320.1 316.5 313.6 311.5 306.3 296.9 290.5 285.8 283.8 288.4 298.1 305.9 307.3 306.9 299.9 296.3 292 280.7 274.4 260 247.3 242 230.3 228.9 232.4 234.1 228.9 220.9 216.3 212.1 210.7 212.6 222.1 239.8 258.8 275.2 292.4 311 327.1 336 340.2 342.4 342.8 341.1 338.4 337.2 336.8 347.9 357 369.7 385.3 407.2 425.3 438.9 449.3 458.2 464.3 466.4 470.5 471.2 465.9 451.9 427.8 406.4 379.5 345.4 319.6 293.4 255 242.6 236 228.5 228.7 228.5 227.6 232.9 238.2 241.2 241.9 250.8 260.5 266.3 275.5 285.9 301.2 317.5 331.8 347.8 363.1 378.7 379.4 382 389.5 389.6 393.2 393.5 397.4 398.8 395.2 395.5 393.6 391.3 388.2 381.2 378 373.7 369.5 359 345.6 343.1 340 337.1 330.2 318.3 309.1 304.9 309.7 307.3 306.5 314.1 316.5 319.4 322 324.2 330.2 334.7 339.3
204.8 182.3 167.8 159.8 157.8 156.8 154.8 155.8 155.3 155.6 159.7 170.5 190.4 211.5 240.8 267.2 286.3 305.6 323.5 338.8 351.3 362 369 377.4 382 384.5 380.6 375.9 373.6 370.4 366.8 366.2 363.4 361.4 358.4 351.4 345.7 344.4 343.6 339.7 336.6 336.3 335.7 334.3 333.5 334.1 332.7 318.9 302.3 281.5 261.9 243.7 232.5 232.9 226.5 225.6 228.2 230.7 239.6 245.9 252.2 273.8 300.1 315.7 333.6 343.8 349.4 351.7 350 346.5 339.3 333.4 328.4 326 323.1 318.1 313.8 306.1 304.2 294.2 285.8 283.5 284.2 290.6 293.5 299.7 298.4 298.7 302.9 295.3 284.9 269.8 256.9 252.3 241.3 233.3 215.7 227.7 231.6 227.1 221.3 215.9 211 206.8 210.3 218.2 232.6 246.6 266.9 283.1 297.3 311.1 321.7 326.4 328 330.1 330.3 330.2 330.9 337.3 344.2 357.7 373.6 390.5 412.1 428.8 444.4 455.4 463.1 470.9 476.6 478.6 468 462.4 453.7 440.6 421.4 392.9 369.1 336.2 302.5 267.9 251 244.7 228.1 227.7 226.4 227 225.7 226 226 224.8 241 249 257.3 264 267.8 276.9 288.3 300.1 310.4 322.2 335.7 346.6 348.4 360.1 370.7 375.7 387.4 387.2 391.8 393.9 395.5 393.9 394.1 384.9 384.1 385.8 378.7 376.1 370.6 362.9 357.6 356.1 352.1 343.4 334.7 326.8 324.4 325.1 332 332.1 332 339 336.7 334.7 332.8 329 331.7 336.3
213 183.5 169.6 158.7 158.3 155.9 155.2 155.3 155.8 155.2 157.2 167.9 182.5 201.7 225.5 250.2 275 300.9 318.3 334.9 350 360.6 369.1 378.6 386.5 385.9 382.7 377.6 373 369.5 364.8 362.5 359.7 357 350.3 345.6 341.7 340 338 335.7 334 336.3 339.3 336.9 330.8 326.7 326.9 314.5 299.2 285.1 264.5 249.6 232.8 233.6 228.9 224.6 225.6 227 234.9 237.3 244.9 265.8 298.3 310.7 329.3 344.9 352 356 352.9 348.7 344.9 338.8 333.2 331.4 329.9 323.6 316.6 307.8 301.3 290.7 283.5 280.8 283 284.2 287.8 296.4 302.2 300 296.3 286.7 276.1 268.4 259.8 248.6 239.7 233.6 213.9 222 226.1 223.6 217.1 213.7 210.5 205.3 206.7 216.7 228.4 238.5 252.6 273.6 286.6 297.6 306.4 310.7 313.8 317.5 320.5 318.2 327.5 335.1 346.1 362.7 379.5 395.7 415.6 429.4 446.7 461.7 462.6 475.2 480.1 477.3 467.3 458.4 447.2 433.3 417.7 392.7 373.6 345.7 308.6 278.4 255.4 245.3 235.5 236 235.1 231.1 226.1 224.1 225.6 224.9 223.9 239.1 245.4 252.5 258.8 263.6 269.6 274.6 280.8 289.6 299.7 310 317.1 328.1 343.3 354 366.5 372.7 385.3 384.2 388.1 390.2 393.4 392 395.1 397.3 387.7 380 378.2 376.6 371.9 372.7 360.1 355.9 346.8 336.8 334.1 331.7 334.3 335.1 339.4 345.5 345.1 342.2 337.2 328.4 327.3 329
220.4 190.7 175 158.4 157.5 157.2 156.6 155.1 155.6 155.3 157.7 168.8 180.1 193.8 215.8 242.7 271 293.7 316.4 333.8 348.4 363.9 376.8 387.7 391.4 388.3 383.5 378.8 373.8 368.5 363.5 358.5 356.1 352.6 348.1 343.5 342.8 339.9 346.4 337.2 335.9 331.4 335.5 334.3 330 321.4 317.2 309.4 298.2 283 266.5 248.5 235.9 238.6 238.4 227.5 223.9 223.9 230.6 231.7 235.8 255.5 282.2 304.1 321 342.5 353.1 358.2 356.7 354.6 348.7 343.4 341.3 338.2 329.6 319.4 314.5 304.4 296.9 291.6 286.4 281.1 280.3 283.2 286.2 291.9 295.1 291 287.4 284 273.6 265.3 251.2 245.1 240.1 232.6 219.8 209.8 217.5 217.1 210.9 213.9 206.5 203.2 205 215.8 223.6 231.8 245.4 263.1 277 285.8 291.6 298.8 305 309.8 312 319.6 326.9 335.9 351.6 369.1 382.2 398.3 417.3 429.6 447 458.3 461 466.2 475.6 475.2 467.9 452 435.4 424.3 413.9 402.1 383.1 359.6 315.6 283.6 262.3 246.4 244 241.9 239.3 236.3 228.7 227.4 224.1 224.4 224 223.4 236.2 241.5 249 255.3 256.4 263.6 264.2 268.5 276.9 284.9 290.4 301.6 314.2 329.3 344.3 356.6 368.8 375.2 378.5 382.5 387.8 396.3 400.9 401.4 395.8 385.4 381.7 378.8 374.3 372.3 367.2 359.5 351.9 347.2 344.5 338.2 335.3 339.9 345.1 353.9 353.9 350.3 334.6 328.8 322.5 320.1
224.9 200 180.8 160.7 159.9 158.4 156.8 155.3 154.8 155.3 157.5 164.2 173.6 192.5 211.5 235.2 260.8 289.5 314.2 334.1 352.3 367.8 381.5 393 397.2 393.7 385.9 379.4 373 366.2 362.9 358.4 351.6 349 344.9 339.8 338.6 342.4 343.5 336.8 337 328 326.6 327 321.8 315 306.8 302.6 291 277.3 263.7 250.4 244.4 237.3 239.2 226.4 221.9 223.3 227.5 225.9 227.8 245.4 263.8 281.3 307.5 338.9 349.9 358.2 362.4 360.9 355.2 347.3 342.9 334.5 323.8 318.3 309.7 303.2 297.9 289.1 284.6 283.5 279 284.5 281.9 286.3 288.5 286.7 284.3 279.1 272.4 259.1 251.8 247.6 239.2 232.9 223.6 214.4 205.1 207 205.5 208.3 205.6 202.9 205.6 211.3 219.9 228.1 238.7 253.9 265.9 275.6 282.9 290.2 296 299.7 311.8 316.1 327.7 342 357 372.2 387.8 401.4 414.1 425.1 441 451.4 451.6 456.1 464.1 459.1 461.3 449.5 429.1 419.9 416.7 401 378.4 351.1 314.2 283.8 264.1 247.8 253.7 251.6 247.6 242.5 241.4 229.7 227.7 221.6 223.4 222.9 222.2 224.1 229.3 239.4 247 252.2 255.6 257.8 263.4 270.2 274.6 280.3 293.7 306.4 324.6 340 353.1 360.1 366.8 376.8 386.9 396 405 403.4 392.3 388.5 380.2 373.3 369.7 368.7 369.1 365.4 357.8 356 350 344.1 343.1 346.3 353.6 366.7 362.2 344.4 334.5 327.1 318.5 310
231.5 208.3 184.2 164.9 161 158.7 157.1 155.2 154.5 154.7 156.6 161.3 171.3 187 204 228 254.4 283.5 310 331.2 348.1 365.7 380.4 392.3 399 393.9 386 377.3 370.7 368.7 364.5 358.8 356.5 352.9 344.8 341.3 338.1 335.3 333.9 328.8 327.9 323.9 322.1 319 313.1 306.7 301.5 290.9 282.7 273.6 265.1 255.5 244.2 233.8 232.5 227.4 223.6 221.5 223.4 222.9 223.4 232.5 248 269.2 291 317.3 346.5 355.6 364 360.3 352 346 337.2 327.9 321.6 315.1 311.8 308.6 299.5 291.8 288.7 288.8 282.7 274.8 280.6 281.2 281.3 279.8 279.1 275.6 267.9 261.3 254.3 250.5 240.7 232.7 230 222.1 208.7 199.1 200.5 207.6 198.7 206.5 205.9 211 222.7 228.7 237.3 247.5 257.3 269.1 275.6 278 292.7 300.3 307 317.7 332 348 364.6 378.9 393.2 404.5 411.6 422 430.2 442.2 445 450.1 453.8 454.7 448.6 436.2 424.9 419 404.7 388.5 366.5 342.7 312.6 286.2 261.9 259.5 261.2 259.2 252.3 248.4 248.3 245 233.6 228.7 225.1 222.6 222.1 220 222.2 222.4 231.1 241 243.1 245.8 250.8 254.6 263.1 267.6 277.1 285.1 302.9 321.5 337.3 346.5 358.4 374.8 386.9 402.7 407.6 404.6 391 379.7 371.4 364.3 360.9 358.6 363.1 359 353.3 349 350.3 347 348.9 351 358.7 363.1 358.3 346.2 329.8 320.9 311.6 299
231.4 208.9 186.4 175.4 165.6 157.8 157.7 156.2 154.4 154.3 155.5 157.1 165.4 178.8 196 224.6 250 274.5 303.5 325.5 345.8 361.7 379.7 392.1 394.3 390.8 383.2 375.4 368 364.3 361.3 358.3 356.6 353.2 346.4 341 337 332 326 324.7 323.9 319.5 319 314 311.6 310.3 306 301.8 290.7 281.3 269.7 251.2 239.7 232.5 228.6 226.9 224 223.1 221.9 222.8 222.4 230.6 248.7 263 277.3 302.4 320.8 334.8 343.8 352 350.5 340 332.9 325.5 321.6 318.6 314.6 311.4 305.3 297.7 295.1 293.8 286.4 279.4 269.7 272.9 274.3 272.9 273.2 271.8 265.5 259.2 255.7 249.1 240.1 235.4 234.1 227.6 215.9 202.3 198.3 195.2 202.7 209.7 207.9 210.7 220.5 226.7 233.1 240.4 248.7 255.8 271.8 279.7 287.1 293.9 305.6 317.2 333.8 351.7 365.4 380.9 396.1 404.8 412.5 418.4 426.4 438.1 442 440.4 439.6 444.2 434.2 419.3 413.1 406.5 389.1 374.3 355.7 332.3 307.3 286.6 270 262 260.1 258.9 258 257.1 253.6 241.9 249.2 247.3 232 225.4 221.7 220.5 222.3 220.8 223.2 232.9 232 233.8 239.7 246.4 249.8 257.5 265.2 273.8 284.9 301.6 319.8 335.4 358.3 372.3 386.2 399.3 404.6 396.5 384.1 372.5 361.4 354.1 349.5 351 351.4 347.9 343.1 346.6 351.4 347.6 344.8 346.4 354.2 358 351.7 338.6 326 311.2 296.8 285.6
234 220.5 204.9 191.5 179.5 160 157.5 154 154.2 154.2 154.4 154.5 158.8 170.5 188.2 213.2 244.1 272.2 299.3 319.3 340.8 358.9 374 383.1 385 383.3 378.8 371.7 364.5 358.2 356.1 353.6 353 353.5 348.8 344.8 339.1 332.3 330.3 323.8 323.3 323.5 321.2 319.3 318.8 316.2 309.9 303.3 291.7 282.3 275.5 259.4 243.7 239.3 228 225.6 224.5 223.9 223.2 222.5 222.1 230 244.8 252.9 260.7 281.2 292.4 301.5 314 326.4 334.1 336 324.8 320.5 315.3 319.6 318.5 316.6 311.5 305.3 300.2 297.7 290 282.7 273.2 263.6 264.3 264.4 265.7 264.4 260.8 256.4 251.6 244.5 236 233.4 234.5 232.2 218.5 206.2 190.7 193.2 203.8 206.2 204.6 206.6 213.8 220.5 227.4 230.3 243.3 256.4 265.7 273.7 281.1 289.1 301.5 317.4 335.1 350 364.3 380.2 394.9 403.9 410.1 418.2 423.2 426.7 430.7 429.3 426.9 425 423.8 412.5 399.9 393.9 381.7 367.9 355.7 330.1 314.2 298.7 283.5 276.2 268 261.6 259.7 256.1 255 259.1 263.5 257.3 248 241.2 224.9 220 220.3 220.1 219.8 219 221.6 221.3 227.9 236.4 242.4 249 254.5 262.3 271.3 286 306.8 328 351.3 368 384.2 393.9 394.6 381.4 369.5 358.3 350.2 338.9 336.3 338.4 336.9 336.2 338.9 343.9 342.8 343 339.9 337.5 338.9 338.5 335.2 324.3 309 292.4 280.8 273.6
257.8 234.8 220.3 201.3 182.4 167.1 157.6 153.9 153.6 153.6 154.1 153.7 156.6 166.3 183.4 213.7 235.2 261.9 289.3 315.3 337 356.2 369.6 375.8 378.7 372.9 370.7 366.7 361.5 354.8 350.6 352.4 349.6 351.4 349.2 346.4 345.6 337.1 328.9 327.8 326.1 326 325 322.9 321.9 317.5 314.1 308 300.4 295.5 277.5 256.4 250.3 250.3 238 230.1 226.9 225.1 225.2 221.7 222.3 227.6 241.1 247.6 245 253.5 275.3 290 294.4 303.2 315.8 316.1 308.9 305.9 306 320.2 323.7 322.3 323.3 318.9 307.8 297.6 294.7 287.7 279.5 270.4 265 260.6 257.4 257.2 250.3 251.8 250.2 243.3 233.7 220.7 230.5 229.3 219.6 208.6 193.3 189.1 197.1 198.9 199.6 205.8 211.4 216.6 213.6 227 234.5 248.6 258.1 265.6 274.5 284.3 296.8 316.9 333.1 345 360.9 376.6 390.8 399.7 405.9 413 416.4 416.4 423.2 425.4 422.3 419 416.1 407.7 394.3 387.5 381.4 369.1 362.3 348.9 329.5 314.6 297.2 288.5 281.3 277 270.4 269.2 270 276.5 277.2 270 257.3 252.1 246.2 235.9 225 218.1 216.5 218.9 218.5 217.7 217.3 224.5 230.5 236.6 242.1 249 263.5 275.2 293 317.1 341.6 363.3 377.3 380.8 374.6 365.3 351.7 342.3 332.6 323.2 321.3 324.7 324.1 324.6 331 331.5 331.9 329.9 322.4 324 319.3 311.4 306.9 298.5 290.5 279.1 269 261
266.8 248.8 227.3 209.2 188.8 173.5 162 153.9 153.5 153.9 154.3 153.7 154.1 163.5 172.5 194.1 214 245.1 268.7 300.9 330.4 348.7 357 359.9 364.1 366.8 363.9 360.7 356.9 351.7 349.8 344.6 347.1 347.1 348.6 350.5 346.1 341.3 337 332 334.8 334.8 332.8 328.7 329.7 326.8 324 317.7 306.8 294.7 280.6 273.9 263.3 258.9 251.4 236.4 232.1 227.4 226.9 222.4 221.7 225.5 235.1 239.4 233.9 240.9 252.6 266.4 280 283.3 287.4 296.1 296.3 294 295.9 308.8 321.8 327.4 331.3 323.7 309.7 307.4 298.8 289.8 282.8 279.6 269.2 261 256.8 255.5 258.8 259.6 257.3 250.7 240.6 229.8 218.1 221.3 217.2 203.9 192.1 186.5 182.7 189.5 200.2 204.1 204.7 201.3 215.7 223.4 230.8 242.7 252.9 261.1 269.8 278.8 291.6 310.6 327 339.5 354.4 370.5 385.2 395 400.6 407 409.7 407 414.4 412.7 411.4 415.1 413.5 408.9 394.1 390 387.2 380.2 373.3 366.9 352.7 333 311.6 301.3 294.6 289.2 286.5 284.6 286 291.5 290.8 286.1 280.4 274 264.3 255.3 244.4 238 228.7 219.3 219.2 216.4 214.9 213.9 216.1 224.1 228 238.3 251.2 263.9 282.3 307.6 333 354.7 368.4 365.4 362.1 352.4 342.8 329.1 318 308.7 307.3 307.6 308.2 309.1 310 311.1 310.7 306.3 303.3 304 297.5 286.4 282.9 275.1 270.8 262.5 253.6 245.9
274.6 256.5 234.6 216.2 199.1 182.8 169.3 158.8 153.1 153.6 153.8 153.7 153.9 155.1 163.1 178.1 195.2 215.5 241 270.6 300.9 333.1 336.9 347.4 352.5 355.7 356.4 355 352.1 347 345 345.9 337 339.5 347.4 351.1 349.8 348 351.4 346.3 344.8 346 345.4 342 342.7 338.1 332.9 324 311 302 295.4 284.6 279.3 266.8 257.7 248.5 242.6 239 231.4 223.9 220.9 224.3 228.4 227.1 224.4 236.5 243.7 252.6 260.4 267.2 276.2 280.2 282.7 279.4 287.3 297.7 323 324.6 324.1 317.3 316.8 305.6 295.7 291.2 288.8 283.1 272.3 267.8 258.2 259.3 263.9 265 260.7 253.2 243.2 229.2 223.1 217.6 207.6 207.1 200.9 197.1 189.3 180.9 196.9 199.4 191.4 202.3 211.8 219.7 230.9 241.2 249.6 257.5 266.8 277.1 287.2 303.4 319.3 334.1 347.5 361.5 375.2 385.5 390.1 399.7 402.7 400.3 400.8 406.8 407.4 410.1 409.7 407.8 404.3 397 394.3 394.9 392.2 385.4 373 352.2 336.4 321.3 309.8 298.8 298.6 297.9 300.5 308.3 306.4 305.8 303.4 297.3 288.8 277.3 264.4 254.4 245.9 236.8 222.9 221.4 218.5 217.5 215.5 214.8 220.5 228.2 240.5 254.7 273.4 297.5 322.1 344.5 356.1 355.3 346.2 338.1 326.1 310.7 296.6 297.2 290.6 292 290.4 288.6 290.6 287.3 284.4 279.5 279.9 281 276.1 266.2 257.9 251.1 243.1 239.5 233.4 229.7
284.1 264.6 251.3 233.1 216.3 198.1 180.7 166.6 156.2 153 153.5 153.4 153.3 153.1 161 169.8 180.8 198.8 223.6 251.6 272.3 292.9 315.4 332.3 342 348 351.2 351.4 349.1 344.5 342.1 342.3 332.6 337.9 341 343.7 349.8 352.5 355.4 358.1 355.7 362 360.6 355 351.3 345.8 338.4 330 321.9 316 309.9 299 287 274 266.4 259.1 254.5 245.7 239.7 229.4 222.1 222.4 224.7 221.5 224.7 235 237.2 237.6 248.2 256.8 264.4 269.3 265.5 271.9 283.2 288.9 296.5 302.3 306.2 317 304.3 295.7 293.7 290.8 286.1 277.8 278.1 274 266.6 263.7 263.9 263.2 259.6 255.1 247.4 237.1 231 226.8 220.1 211.7 204.7 200.2 193.8 182.4 187.5 187.4 194.4 201.8 208.1 218.5 228.2 237.1 245.7 254.8 264.6 275.1 284.3 296.1 308.5 321 338.1 350.7 362.2 372 381.3 390.5 395.8 394.5 393.5 402.7 407.4 410.5 411.4 411.3 406.1 406.5 412 408.3 407.6 405.1 391.9 382.7 361.4 340.6 328.2 315.5 310.9 313.7 322.9 329 333 334.6 330.7 320.4 310.6 299.5 284.3 270.7 262.8 253.4 240.2 229.8 234.6 229 216.3 214.2 215.5 227.7 235.2 248.4 268.5 289 311.7 331.6 346.9 341 332.5 316.7 303.2 286.9 282.2 282.8 280 279.6 277.3 272.6 272 268.5 259.3 254.8 255.5 258.9 255.8 250.2 237.1 232.8 222 214.7 209.7 211.2
292 281.4 268.1 250.3 229.4 209.1 198.6 185.9 168.4 157.4 153.1 153.5 153.4 153.7 158.3 162.5 173.7 188.3 206.3 230.5 250.4 274.2 299.1 313.3 332.4 340.2 347.5 348.2 344.3 338.8 334.2 335.4 330.9 335.5 343.3 350.1 350.3 354.4 360 367.1 369.1 372.6 376.3 368.5 362.3 358.3 350.4 338.8 328.3 324.1 319.4 310.3 292.1 284.6 277 267.7 259.8 251.9 246.3 237.2 226.8 222.3 221.7 218.9 232.9 237.7 237.9 236.1 240.7 249 254.9 256.1 264.3 269.9 276 275.8 281.4 285.5 291.1 296.4 291.4 284.1 282.6 277.6 276.8 279 280.5 278.1 272.8 267.6 265.5 261 257.9 253.1 248.3 243.5 238.2 234 228.1 219.5 209.7 201.3 194 182.8 175.7 185 193.2 200.6 208.6 216.1 224.3 233.6 243 253.2 262.4 271.1 278.1 286.5 299 312.2 326.6 338.2 348.9 362.1 374.5 385.2 389.9 390 394 400 409.8 417.7 416 419.1 415.7 420.3 416.4 418.1 420.3 427.4 414 402.9 386 372.1 356.5 339 336.4 345.8 351.7 360 368.8 365.3 360.1 350.9 335.2 321.6 309.3 293.9 276.2 266 249.2 247.9 241.3 234.1 228.3 215.2 213.7 230.9 238.3 246.9 266.8 286.3 301.4 321.8 333.9 323.6 311.3 300.6 287.5 271.2 269.3 269.7 270.5 269.7 264.7 259.3 253.5 246.7 238.4 234.6 236.3 240.9 238.4 232.3 224.3 219.2 207.8 197.9 193.2 193.8
303.9 293.5 281.7 261.9 238.2 227.7 213.5 199.6 181 162.7 153.1 152.3 153.4 151.9 155.7 158.3 166.8 179.4 194.4 210.7 233.5 254.2 280.9 305 320.8 330.9 337.7 340.3 337.7 332 329 329.1 329.4 338.4 346.2 348.8 356 361.5 364.9 369.7 375.5 379.4 382.1 378.7 368.8 359.6 354.4 351.7 342.3 336.7 322.8 312.9 307.7 296 287.4 274.5 266.8 259.3 251.8 244.9 234.8 231.7 225.2 222.3 233.5 237.9 234 234 236.8 243 245.3 251.3 260.9 265.4 262.8 261.9 266.6 269.5 271.8 275.2 274.5 268.5 267.5 269.6 278.4 274.8 273.6 275.3 269.9 263.5 267.9 263.7 260.6 258 255.7 249.7 244.9 239.9 234.5 225.1 218.5 205.2 197.1 192.4 177.1 178.6 189.5 196.8 203.4 210.2 218.3 227.9 238 248.3 258.1 266.6 272.5 280.6 292 301.9 315.5 326.4 340.1 354.9 368.7 374.6 382.8 392.2 399.1 405 412.8 416.1 420.5 422.8 424.2 421.8 428.1 439.3 434.5 430.9 430.5 421.3 415.5 399.8 390.3 371.2 370.1 370 380.7 383.5 392.6 383.3 378.5 372.6 346.3 330.6 320.7 310.7 288.2 270.5 263.8 256.2 244.3 234.8 228.7 218.1 211.6 225.3 240.7 252.7 265.4 276.8 296.6 310.8 313 304 295.4 281.8 269.8 257.2 255.3 257.5 256.3 256.2 250.5 240.6 234.8 227.7 221.8 217.9 221.9 227.2 224.9 216.5 210.2 194.7 188.6 175.7 170.9 171.9
312.9 305.9 292.4 278 262.2 241.7 221.9 212.2 196.3 168.4 153.8 153.1 152.9 152.8 153.1 154.4 159.1 168.1 180.9 204.6 222.4 245.5 274.6 300.1 315.6 323.4 329 331.3 330.9 326.7 323.3 321.7 325.5 337.9 346.2 347.5 353.3 357.9 364.3 373.1 378.8 388 385.4 379 370.4 368.1 364.7 365.2 352.8 339.2 332.1 324.6 315.3 305.3 299.4 288.6 282.7 270.2 261.3 251.8 246.2 237 230.4 219.6 217.9 232.7 231.7 228.7 233.2 235.6 239 247.8 255.4 256.2 252.8 251.4 254.4 255.1 256 262.1 259 256.2 255.7 257.8 267.3 264.8 259.5 259.1 256.9 264 266.4 269.7 267.6 264.9 262.6 256.2 254.1 248.3 239.4 226.9 222.9 209.3 200.1 197.4 193.6 174.9 180.1 191.8 199.6 205.1 214.4 223 232.5 241.6 250.5 259 264.4 274.2 282.6 291.2 304.3 320 334 346.9 356.3 371.6 384.6 394.4 404.3 411.8 416.9 419.1 423 427 427.6 434.6 444.4 441.7 442.1 444.8 442.8 439.2 429.2 420.1 411.3 408.9 407.1 397.3 395 397.3 393.6 386.1 380.2 365.2 347.2 337 328.6 314.6 301.3 290.3 277.1 262.5 252.5 235.5 226.5 214.5 212.8 227.6 238.2 251.4 259.9 270.2 283.9 293.7 293.6 289.2 284.6 267.7 252.2 244 240.4 239.8 240.2 241.2 233.8 225.8 220.4 216.1 209.3 206 207 209 207.2 196.9 186.3 178.1 174.1 175.3 175.8 173.9
325.3 320 310.7 298.4 288.5 270.2 231.3 221.3 207.4 179 157 153.6 152.9 152.8 152.9 153.2 156.8 162.7 172.6 190.9 214.3 231.7 249.7 277.7 306.2 317.4 318.9 320.1 321.7 318.4 315.4 315.7 327 335.6 346.3 350.3 353.6 361.3 366.2 377 382.8 388.1 388.3 384 376.9 371.2 368.6 360.9 353.6 345.1 336.3 333.9 330.5 321.4 313 305.3 292.9 284.3 271.4 261.1 253.9 245.8 236.2 227.9 215.9 223 223 222.6 227.8 229.2 234 246 253.6 251.2 251.1 242.8 241 239.5 238.6 242.3 240.3 242.1 243.8 245.9 251.6 248.6 244.6 243.3 249.5 258.3 263.1 266.8 268.7 270.4 270.3 264.3 256.2 249.8 237.7 228.5 225.8 214.7 203.8 197.6 190.3 176.6 173.8 183.1 193.3 200.7 208.3 217.5 224.6 231.5 240.6 248.3 256.7 266.8 274.5 283 297.1 312.6 324.7 338 354.8 370.1 382.4 395.4 406.1 414.2 419.5 420.9 424.7 431.6 436.3 440.5 443.6 451.6 455.8 451.9 461 455.2 439.2 430.5 426.8 418.6 415.9 408 395.7 397.4 388.4 381.2 375.6 372.3 357.9 345.5 332 321 312.9 304.9 293.8 279.6 262.8 242.1 224.4 213.3 212.7 227.2 237 244.7 252.5 261.5 276 280.6 282.1 280.2 269.4 249.8 237.3 231.1 224.6 225.4 224.1 220.2 206.8 201.7 195.6 195.2 198 189.2 191.9 186.3 178.1 175.8 173.9 181 181.2 182.3 185.5 183.6
342.3 342.9 333.5 324 315.9 287.4 239.6 227.4 211.9 180.6 161 154.6 153.9 153 152.7 151 152.6 157.3 164.6 170.8 187.4 212.9 235.6 260.2 296.3 308.1 306.4 306.5 311.9 315.1 313.6 307.2 317.3 331.7 342.2 343.8 347.3 355 362.7 375.7 382.4 391.8 384.5 378.7 370.4 361.8 356.9 356.3 355.2 349.7 340 334.6 333.2 338.1 331.9 320.8 309.9 295.3 281.5 268.8 260 251.9 241.6 227.5 217.4 215.8 215.1 215.3 217 224.8 230.1 239.4 248.9 248.5 243.8 235.5 230.9 231.1 231.1 232.7 234 241.3 243.3 234.4 235.8 231.8 228.6 234.4 241.8 249.4 256.9 265.7 267.3 274.1 273.9 264.1 254.9 245.1 241.4 235.1 227 219.8 210.1 198.8 186.5 176.9 169.7 176.5 186.4 192.7 197.4 209.5 214.7 220.3 229.9 238.2 249.5 260.9 267.8 277.9 291.1 301.2 317.3 333.2 350.2 365.3 379.1 394.2 405.3 414.5 419.9 424.6 428.1 436 441.1 446.6 454.3 460.9 465 471.3 472.9 465.3 450.9 432.7 425.6 413.5 417.2 409 393.3 390.4 388 379.9 375.1 368.1 360.9 350.2 338 335.4 330.3 314.8 305.1 288 270 248.3 227.2 209.9 211.7 223.3 230.3 239.4 246.2 254.2 269.2 271 273 268.2 251.8 239.2 226.1 220.5 212.4 210.6 201.8 190.2 185.6 187.2 184 183.8 183.8 182.1 178.2 180.3 181.2 182.7 186.8 190.6 192.5 193.4 193.4 192
367 362.3 347.8 337.7 313.4 290.5 259.5 218.5 204.4 177.5 164 156.1 155.1 154.2 153.4 152.9 152.3 150.6 156.1 160.5 171.9 190.8 213.6 236.2 264.7 273.9 286.3 298.3 311.8 311.9 305.1 302.4 311.4 323.5 335.5 341.7 348.4 356.8 366.9 367.9 381.8 380.4 373.4 370 362.5 360.7 357.2 357.1 353.1 354.2 347.9 348.7 352.4 349.2 344 334.3 322.8 306.6 290.1 279 266.3 258.4 248.5 234.1 223.7 214.6 214.7 214.4 214.3 217.2 224.8 234.8 241.9 241.3 236.4 230 227.7 227.7 225.3 227.8 233.4 238.9 236.1 229.4 222.9 215.7 218.8 222.4 229.7 238.7 253 256.7 260.6 261.1 264.5 251.9 245.9 243.9 237.8 233.2 228 222.8 215.9 202.5 191.4 179.4 169.1 170 180.4 185.4 194.3 201 205.8 211.3 218.9 230.2 244.9 255.5 266 276.1 284.2 298.3 313.5 328.6 343.6 360.2 375.2 392 405.6 417.1 426.5 432.2 437.5 443.3 448.2 451.9 457.9 461.2 461.7 468.4 475.7 458.9 447.7 434.2 415.1 405.4 408.5 401 391.7 388.5 386.8 380.1 377.6 367.2 363.2 356.6 356.4 354.6 346.2 332.3 309.7 297.6 285.2 261.4 234.6 214 210.4 213 216.5 229.8 235.5 246.8 255.2 259.5 255.1 250.3 240.9 223.6 214.8 209.6 197.2 195.8 189.4 191.1 189.6 187.6 187.2 188.1 188.5 189.5 189.6 187.6 188.4 193.6 197 198.1 196.1 197.8 200.7 199.9
376.9 364.3 338.6 326.6 302.8 279.6 245.5 211.5 202.1 169 160.6 157.6 157 155.5 154.6 153.6 153.3 151.9 151.4 155.8 164.4 176.1 192.5 214 234.3 251 266.6 283.5 292.3 298.3 298.1 300.9 304.1 317.6 326.1 338.8 348.2 354.8 355.9 360.6 372.5 368.7 362.5 357.4 355.6 358.5 357.6 361.1 363.1 361 362.4 362.6 363.3 357.6 350.5 341.1 318.9 310.3 303.6 288.7 275.8 266.5 256.8 244.1 234.2 227.3 221.5 217.9 214.7 213.1 219.2 230.3 236.9 238 232.2 225.6 224.8 226.3 222.2 223.4 228.5 230.9 231.1 222.5 215.6 209.4 212.7 216.3 221.3 227.2 238.3 243.6 243.7 247.1 249 241.5 236.4 237.8 232 230.1 227.9 226.9 218.8 207.1 194.3 187.5 179.4 168.2 171.3 179.8 189.3 194 197.8 205 211.9 223.3 237.6 252 261.4 269 281.8 294.2 308.7 324.4 338.2 355 374 392.3 407.2 419.1 429.4 438.2 445.4 449.2 452.5 453.5 450.9 449.2 451.6 467.4 457.7 445.2 446.5 427.1 416.6 404.1 402.4 399.9 393.3 386.5 384.1 377.4 377.6 375.6 367.4 372.2 368.2 361.2 354.1 339.6 319 312.3 290 269.5 245.7 228.1 209.3 210 211.4 212.7 229.1 237.8 242.7 242.4 242.9 236.9 229.2 213.7 207.4 198.4 195.7 192.1 190.6 192.5 194 195.5 201.4 204.3 207.9 207.1 205.5 205 203.2 206.1 203.7 200.4 196.4 198.1 198.8 203.8
361 346.5 327.8 307.7 286.6 259.4 221.4 200.4 186.7 167.5 161 158.9 157.6 155.9 154.9 154.3 152.8 151.8 151.6 152.7 161.8 169.9 180.9 199.7 221.6 239.5 248.4 262.3 277.3 286.3 288.2 293.5 298 306.4 316.8 323.5 337.2 343.6 343.7 355.3 357.1 359.3 356.2 353.9 350.2 358.4 367.9 368.1 366.6 371.1 364.6 358.1 363.6 359.6 339.3 329 320.2 314.4 314.1 301.3 281.7 271 263.3 252 244.6 236.2 230.1 226.3 222.1 214.1 212 225.1 232.1 232.8 226 218.4 220.1 222.5 217.2 217.6 220 220.3 220.8 215.5 213.3 212.7 210.5 207.9 209.8 215.2 222.3 227.7 229.5 233.8 236.4 239 231.6 233.1 228.8 223.4 222.4 222 217.9 206.4 193.1 189.1 181.6 170.3 164.7 174 182.8 183.7 184.9 198.9 210.4 222.2 227.1 241.4 255.7 266.9 278.6 291.5 306.6 320.5 335 352.3 371.9 389.6 404.8 418.1 429.5 438 445.1 450.4 458.3 461.7 452.4 446.5 444.4 441.2 441.6 434.6 428.7 416.5 410.9 402.1 401.2 397.1 388.2 387.3 385.1 385.2 386.3 384.1 385.6 381.1 372.7 363.3 357.6 345.7 322.9 313.9 290.5 272.2 249.6 232.8 223.8 208.9 208.3 208.2 212.7 229.6 234 234.7 234.5 229.7 222.5 212.7 203.1 197.7 194.1 189 197.2 199 204.4 212.8 217.7 218.7 218.6 218.9 216.3 219.8 217.8 214.3 208 203 201.7 201.4 200.5 204.5
343 324.9 308.5 282.2 254.5 229 207.7 190 177.2 167.3 162.2 159.8 159.1 156.4 155 153.7 152.5 151.5 151.4 150.7 160.4 169.4 175.1 184.9 203.4 219.7 234.8 248.5 260.8 271.1 277.7 284.2 290.1 295.3 309.7 319.6 328.2 332.4 338.6 348.8 346.3 347.2 350.3 345.5 347.3 352.4 365.5 362.9 365.6 365 361 353.4 355.9 341.3 333.5 327.3 323.9 317 311.1 298.9 285.1 275.9 269.5 261.3 252.5 245.3 239.6 235.2 231.8 218.7 211.7 217.8 227.2 228.7 220.4 217.1 219.2 219.4 210.7 206.8 207.4 203.5 204.3 206.4 208.9 215.5 216.4 202.7 199.2 202.4 212 212.7 214.6 222.4 226.8 229.7 223.8 223.8 221.7 219.2 218.7 218.2 216.3 207.1 202.1 190.3 183.7 170.9 164.1 168.7 174.5 183.2 191.2 200.3 211 222.4 234 245.8 255.2 267.4 277.8 289 302 317.1 333.4 350.3 369.1 385.7 400.2 414.2 426.1 432.4 438.7 445.1 454.4 457.7 451.6 439 437.9 424.8 421.7 418.3 415.3 409.3 405.7 403.4 401.3 395.6 390.3 395.4 397 398.4 395.8 392.8 390.3 385.3 379.1 373.9 359.2 343.5 323.8 306.7 288.3 271.1 252.4 226.9 226.3 218.2 210.3 207 208.1 216.6 228.4 230.7 226.3 223.6 218.8 214.3 205.4 196.1 190.6 195.5 204.3 215.1 226.4 233.5 236.9 236.5 236.5 231.3 232.9 232.6 227.1 219 213 208.9 203.6 205.9 208.3 216.1
324.2 308.3 286.8 260.2 238 221.7 205.7 189.2 178.1 166 161.6 162.7 160.8 157.4 155 153.4 152.2 151.4 151.4 150.1 158.2 169.6 171.8 178.1 191.8 207 223.2 236.8 245.2 257.3 267.6 275.3 281.9 290.3 302.8 311.3 320.5 327.4 338 338 336.2 338.4 342.2 343.8 341.7 344.8 351.5 352.7 357.3 358.5 354.1 340.5 337.8 335.1 331.2 328.3 323.9 315 309.3 300.6 291.3 283.4 277.4 272.2 262.6 252.6 245.6 241 234.7 225.6 215.3 211.9 217.3 223 219.2 216.9 220.7 220.2 211.4 202.9 200.5 201.8 203 208.1 211.3 218.4 218.7 206.4 196.9 199.4 205.4 206.4 208.9 213.3 214.1 220.7 218.7 217.6 213 214.7 217.6 214.3 216.3 210.8 204.8 189.3 183.4 177.7 160.9 167 176.6 182.8 191.2 201 211.3 221.3 233.7 246.4 257.4 268.6 279.3 288.8 298.3 315 330.4 346.9 365.2 380.3 395.1 404.5 413.9 421 430.2 434.5 440.7 443.2 444.9 440.7 428.5 429.3 417.7 413.5 408.7 407.6 403.5 402 398.7 394.7 393.4 396.1 402.9 403.1 402.4 401.8 402.5 398.8 387.4 372.9 353.7 340 315.7 295.5 282.1 266.9 251.1 226.7 221.7 222.1 218.3 205.5 207.3 215 228.3 228 221.5 217.6 215.5 195.8 196.6 193.9 200.1 210 221.3 232.8 244.8 250.4 250.9 256.3 252.7 245.6 243.4 240.2 232.3 223 216.3 211.2 213.2 214.9 221.1 228.3
304.5 287.7 264 245.2 232.5 217.9 205.4 195.5 179.3 170.2 168.2 165.9 161.8 159.7 158.3 153.5 152.2 151.3 151.4 150.3 154.3 160.7 168 170.5 181.3 195 211.8 224.8 232 246.6 259.4 269.8 276.1 286.2 295.4 306.4 316.1 318.5 327.1 330.6 329.6 329.8 335.2 333 329.1 330.4 334.4 340.6 345.2 347.1 337.1 327.5 326.6 329.9 329 329.3 327.4 319.9 312.7 309 295.9 289.1 284.6 276.6 268.8 260.2 252.4 244.9 239.4 231.1 225.7 221.6 212.2 206.7 214.9 214.4 219 218.4 213.1 205.6 199.3 203.1 205.2 203.8 210.4 216.9 216.9 207.3 204.4 197.9 195.2 197.5 201.7 210.7 209.6 211.1 209.9 207.9 203.7 211.6 216.6 213.7 214.2 213.5 204.1 190.6 184 182.1 163.6 165 173.6 178.9 190.5 199.2 206.8 222.9 237.2 247.6 259.6 271.3 280.2 288.9 299 311.9 327.2 341.4 358.3 373 386.3 395 403.8 413 417.6 419.3 426.7 430.2 437.3 438.9 432.2 427.2 425.1 414.2 405.2 403.1 403.3 400.8 399.9 401.3 397.1 401.3 407.5 410.2 414.2 414.2 408.4 392.4 378.7 361 346.1 329.4 308.8 287.4 274.4 258.8 237.6 223.8 215.4 216.1 211.2 205.3 206.1 215.2 227.1 222.9 218.6 212.4 208.2 197.4 199.8 208.5 216.2 228.8 238.6 254.4 259.6 268.3 271.3 268.5 259.2 250.6 247.1 241.4 236.4 228.3 223.1 217.7 220.6 225.3 236.5 244
284.6 271.2 258 244.6 231.1 219.6 205.6 196.6 182 181 176.2 172.5 169.4 161.7 160.2 157.2 153.5 150.9 151 150.7 151.5 156 164.9 167 176.7 189.6 204.9 214.3 224.7 246.3 254.8 267.7 275.3 283.3 287.6 299.9 308.1 312.6 321 325.8 323.8 322.3 322 320.3 319.6 319.9 321.6 324.8 326.5 323.3 318 315.4 316.2 321.1 326.5 330.8 328.8 319.5 314 305.6 297.5 288.4 286.6 281.3 275.9 267.8 261.9 252.1 245.7 238.4 235.3 233.9 224.7 213.5 205.9 204 208.1 212 209.3 202.4 199.1 198.3 193.3 190.7 192.6 209.7 203.7 203.1 191.3 190.3 187.8 189.1 203.4 212.3 204.1 202 200.8 200 200 206.7 215.5 215.7 212.2 208.5 199.8 186.4 179.2 181.2 172.6 161.8 171.8 177.7 183.2 199.7 215.2 229.1 241.1 251.7 262.5 271.2 279.8 289.5 299.5 310 323.1 335.6 350.1 364.7 377.4 386.8 392.3 398.4 400.3 403 409.4 417.3 423.5 432.5 433.7 428.9 421.1 410.6 408.9 406 404.8 401.3 400.3 399.4 396.9 401 408.7 414.7 416.9 414.6 392.6 377.7 362.7 344.6 332.2 314.6 294.7 277 264 249.3 236.9 227.7 219.9 211 208.4 205.1 204.6 204.6 210.6 215.9 214.5 207.1 197.5 202.9 205.7 218.3 233 246 259.1 267.3 275.7 286 287.9 279.3 267.3 256.7 249.2 246.6 242.4 236.5 232.5 224.2 232.6 241.3 251.5 258.7
270.9 260.4 253 242.6 232.3 222.7 210.8 198.2 199.1 193 188.8 186.6 183.2 174.3 164.7 158.2 156 154.6 151.1 150.8 150.9 153.5 160.4 162.5 165.7 176.9 190.7 210.5 223.6 238.3 251.1 262.7 271.2 282.5 284.7 292.2 297.6 300.5 311 315.8 315.3 313.1 312.2 309.6 305.8 310 306.3 308 310.6 310.6 311.6 312.8 306.7 318.6 322.8 320.8 317.6 314.8 311.4 299.2 295.3 293.4 295 293 284.7 272.6 266.7 258.5 250.9 246 242 240.6 234 224.8 218.7 213.3 204.2 198.1 199.6 197.4 197.5 195.7 196.3 195.7 192.4 200.1 201.4 198.4 187 183.7 181 185.6 201 212.2 206.1 195.1 196.9 198.9 202.7 208.2 212.2 212.8 209 203.9 197.9 187.1 177.9 178.1 171.3 160.3 167.5 178.5 192.2 203.4 220.3 230.2 243.2 254.2 263 271.7 279.4 287.9 296.4 305.7 317.3 328.3 340.9 358.3 368.3 374.5 377.2 379.6 378.9 383.7 391.8 402.8 412.5 422.4 426.6 427.7 419 408.1 406.1 408 404 400.8 400.6 401.9 401.3 399.7 402.5 410.4 405 391.6 373.3 347.2 342.4 329.8 312.5 295.6 281.6 267.4 255.1 243.8 235.7 224.3 216.8 211 208.9 206.4 204.3 203.4 202.5 202.4 202.5 204 201.3 208.4 220.2 236.5 251.2 264.4 277.1 280.9 285.7 293.2 295.1 284.6 272.9 262.9 254.4 251.6 250.6 244.4 241.1 229.6 244.8 257.4 268.2 280.2
262.1 255.8 247.8 238.5 230.6 221.3 209.2 207.9 211.2 205.9 202.5 203.8 200.5 194.2 182.1 175.4 168.6 164.6 157.2 150.9 150.6 151.9 156.6 160.2 164.7 170.5 187.6 202.3 218.9 231.7 245.8 257.7 266.8 280 281.6 285.2 287 296.7 305 313.7 317.1 313.3 309.9 305.5 297.2 296.7 294.3 296.9 296.9 297.7 296.9 299.2 295.3 303.1 306.8 305.9 307.5 303.9 298.7 301 300 297.4 298.6 291.4 284.5 278.2 272.1 263.3 256.2 249.1 247.6 243.2 235.6 228.3 218.9 214.8 207.9 203.7 204.4 204.2 204 203.4 201.7 200.6 196.3 186.3 184.9 189.8 180.6 176.2 176 179.2 199.9 208.6 204.3 192.5 192.5 198 200 205.5 207.3 207.1 204.1 201.1 197 185.5 176.2 171.3 167.5 157.3 167.4 175.4 191.5 204.4 219.9 234.2 244 255 264.9 272.6 279.3 285.1 292.8 301.9 312.1 322.7 332.9 347 354.7 358.4 361 362.8 366.1 370.1 380 392 400.4 412.2 416 416.6 411.7 406.4 405.1 403.1 399.8 401.1 401.1 402.6 402.6 396 394.2 386.7 386.7 377.5 365.2 344.7 331.6 308.9 296.4 280.6 270.6 258.7 250.8 241.1 232.4 224.5 220.1 213.4 211.6 210.9 207.5 211.4 209.4 212.2 216 214 223.1 226.3 239 254.4 263.7 273 290.7 292.9 287.7 299.3 297.5 290 279.5 270.6 264.1 266.8 261.8 253.2 251.5 241.2 256.5 273.5 291.2 297.7
258.2 253.4 247.5 234.5 223.2 215.4 218.7 225.3 225.8 221.6 218.6 220.9 215.2 205 197.5 188.6 181.5 172.6 169.3 157.7 153 151.5 153.8 162.2 165 166.5 177 191.5 207.6 222.7 241.6 253 261.8 269.9 280.4 285.9 286.3 291.9 305.5 309.8 315.3 307.8 303.2 296.5 289.7 286.8 286 287.5 287.8 286.5 289.8 290.4 283.6 289.7 290 292 294.2 300.3 299.5 305.1 299.9 293.3 291.8 287.9 284.4 281.5 278 269.2 259.2 250.1 247.8 241.2 230.5 226.9 220 218.9 215.9 215.8 216.4 215.2 211.8 209.7 208.4 206.7 198.8 192.8 188.5 180.3 178.2 173.5 168 178.9 192.4 202.6 200.5 191.2 189.4 195.5 198.3 201.4 202.2 208.2 202.8 191.9 188.8 179.6 170.3 164.2 161 154.2 166.1 175.7 191 206.4 221.8 235.4 246.5 259.4 268.6 272.8 279 284 291.1 298.5 305.9 314 323.5 332.8 339.7 343.3 345.7 351.8 355.8 360.2 369.1 378.2 389.4 400.6 410.8 409 408.4 403.4 402.1 396.5 395.9 400.3 399.3 403.5 402.9 391.3 380.5 379.6 367.6 355 351 330.4 319 297.1 283.9 271.6 264.1 255.3 245.2 240.6 233 227.2 224.3 219.4 218.3 221.8 222.7 227.5 230.5 229.9 234 238.2 239 248.5 258.9 266.6 277.8 297.7 311.4 304.8 295.9 302.4 302.3 296.7 285.9 277.8 275.5 278.4 268 266.4 254.4 255.1 267.9 284.7 299.9 313.6
256.1 245.6 241.4 224.9 227.9 232.6 238.3 236.9 231.6 226.9 228.6 228 225.4 222.7 216.3 208.6 197.2 186.8 178.2 168 157.6 152.7 150.9 162.2 166.7 168 173.6 184.3 194.8 210.6 226.6 239.9 251.1 264.8 275.2 279.8 286 288.2 300.2 305.6 309.2 304.5 301.5 296.5 287.7 285.5 280 277 279.6 278.5 277.1 278.4 277.7 275.6 277.2 288.2 292.4 289.7 291.5 294.1 290.7 285.8 285.8 283.4 281.7 284.9 280.3 271.1 259.7 251.5 243.3 239.3 232.2 229.2 229.1 221.9 221.6 220.9 223 222.1 218.5 216.8 210.1 205.7 199.2 195.6 193.1 187.3 186 181.9 175.7 167.5 180.5 190.8 194.1 186.4 184.7 188.8 195.2 198.3 197.2 203.8 200 190.7 182.2 169.1 165.8 158.1 155.1 155.3 160.8 177.4 194.2 215.1 225.2 238.6 253.8 264 269.6 274 279.3 284.5 287.6 293.2 297.8 306.8 312.9 321.1 327.6 332.2 337.4 343.7 349.3 354.5 362.5 369.4 381.8 394.2 403.3 402.6 399.2 398.4 393.3 392.4 394.6 395.5 395.5 398.8 394.8 391.1 377.6 371.9 366 343.7 334 321.3 305.5 289.1 277.8 263.2 257 251.7 244 235.7 233.5 235.1 233.3 233.5 232.2 235.8 237.8 244.3 245.9 250.2 250.9 254.3 258.9 267.5 276 290.4 307.8 318.8 324.6 315.5 308.6 313.1 307.9 303.7 290.5 283.7 285.3 288.5 279.8 274.5 256 260.6 276.4 294.3 309.1 328.5
254 250.6 245.5 244 248.3 246.3 243.1 236.5 237.1 234.2 237.6 239.4 239.1 233.9 228.9 222.4 213.9 203.6 185.9 173.8 168.1 161 151.4 157.5 162.8 164.8 164 175 185 197 209.6 226.5 245.7 261.6 276.9 281.6 283.8 287.9 290.7 296.9 299.8 299 304.1 296.6 289.6 281.8 277 276.5 273.6 273.1 272.1 267.6 266.8 269.7 278.1 285.5 282.2 276.2 278.8 284.2 282.1 279.3 280.3 280.9 281.4 282.6 275.1 269.9 264.7 258.4 252.2 248.6 242 238.4 235.9 232.8 228.7 225.5 229.5 227.6 224.1 217.2 211.1 210.2 199.1 195.4 190.3 188.6 189.4 187.7 184.9 169.7 166.3 179.6 186.5 180.9 180.2 185.6 193.6 193.5 195.7 198 195.3 186.5 172.3 158.6 155.2 153.7 154 162.2 164.2 179.2 196.7 218.1 228 244.8 256.1 264.5 268.7 272.6 278.2 282.7 282.5 287.4 290.7 296.3 305.8 312.8 316.7 323.5 330.8 337 342.9 346.1 353.3 367.8 374.8 385.4 391.4 395.4 391.9 393.1 390.7 395.2 393.2 392.6 392 391.6 391.7 388.9 375.4 361 349.2 334.7 319.5 316.5 293 280.6 275.1 267 253.6 247.3 241.8 239.7 242.2 244.5 248.7 249.3 244.2 255 259.4 260.7 262.6 267.5 271.4 274.3 275.3 285.2 295 309.3 319.3 328 327.6 323.9 322.2 320 313.7 305.5 303.9 301.2 299.3 298.1 286.5 280.5 261 278.9 285.9 300.6 322.2 338.9
269.7 265.9 259.3 254.5 249.6 244.2 241.5 238.9 238.5 240.6 242.4 243.8 245.2 244.2 244.4 240.6 231.3 218.2 204.7 188.9 176.5 166.4 153.7 148.8 156.5 158.8 158.1 163.5 173.6 181.5 197.7 215.2 233.1 252.5 271.1 283.3 286.5 288.9 290.1 287.2 292.2 300 302 294.1 287.9 286.3 279.3 273.9 268.2 263.4 261.1 262 264.6 267.2 264.5 269 270.5 267.7 268.4 273.4 273.6 272.9 275.6 279.4 280.1 278.4 278.9 274.3 271.9 265.7 259.9 255.9 252.7 247 241.9 240.1 237.1 231.8 234.4 231.6 225.7 222.2 213.5 210.5 203.4 195 193.4 195.5 193.2 190.8 189.3 178.7 160.6 168.7 178.2 174.4 176.3 181.2 185.3 187.8 190.5 190.6 185 176.1 166 156.4 150.6 152.5 157.7 164.3 169.2 181.3 200.8 217.9 230.6 244.5 254.2 261.5 266.8 271.2 274.7 278.9 278.8 282.5 282.5 284.5 298.2 304.1 309.4 315.8 325.7 332.2 339 339.7 350.9 365.6 374.1 379.4 384.8 387.5 389.5 391.9 389.9 393.7 392.2 393 396.2 395.2 393 384.7 374.2 358 349.7 334.3 318.2 301.1 295.6 283.3 274.2 262.3 253.1 246.6 250.7 250.5 251.7 258.3 262.2 265.6 267.8 271.8 273.7 275.3 278.7 286.7 298.8 295.4 298.5 303.2 309.8 322.3 332.7 338.2 334.3 328.6 327.7 328.1 322.4 319.5 313.6 313.9 311.6 307.5 293.5 280.9 276.8 287.5 293.5 308 329.9 347.3
277.6 274.1 264.7 256.7 250.3 247.4 246.7 245.5 247.7 249 250.3 249.2 253.7 258 257.2 254.3 247.8 236.5 222.5 209.2 189 175.5 164.1 150.8 150.9 151.2 149.4 153.9 161.4 170.6 185 207.1 226.8 246.9 269.5 286.7 288.9 292 291.6 287.6 286.5 294.2 298.9 289.5 286.1 279.7 277.2 275.7 271.8 267.8 259 255.6 256.1 256 254.7 257.5 256.4 255.6 261.2 260.4 262.7 266.9 273.3 274.6 275.7 278.1 282.3 283.6 276.4 273.4 267.6 263.7 260.6 252.3 248.6 249.3 244.5 240.1 241.7 237.3 229.6 224.4 215.3 212.8 206.9 197.6 195.6 201.6 194.3 190.4 188.4 180.9 162.6 159.7 170 168.2 171.2 175.3 175.7 179.7 179.1 182.9 178.2 171.8 163.1 158.1 150.8 153.1 157.9 167.1 173.6 183.7 201.1 214.9 230.2 240.5 249.6 258.4 264.9 267.5 271.9 275.4 275 271.6 271.6 273.7 289.2 295.7 303.5 310.7 319.9 326.4 333.5 337.7 348.4 360.4 366.7 370.8 376.8 381.4 389.7 387.3 389.3 391.3 398.8 401.5 394.8 390.7 388 384.1 371.1 355.4 349.3 330 317.9 307.7 290.8 279.3 271.2 262.9 261 260.9 261.8 267.4 266.9 270.8 273.3 278.4 283.3 286.2 287.5 289.2 298.2 307.1 310.7 311.9 311.8 316.6 325.7 335.8 344.7 345.1 344.5 339.5 341.5 335.8 331.5 331.8 329 328.6 320.6 312.6 295.6 285.7 280.2 291.6 298.7 316.5 335.9 351.9
