ncols 200
nrows 82
xllcorner 350000
yllcorner 520700
cellsize 50
246.1 244.2 241.8 242.6 244 243.5 243.1 243.4 243.8 241.4 238.8 240.3 239.6 237.6 235.6 234.4 233.4 233 230.1 227.5 225 221.4 218.1 213.4 209.3 205.5 201 198 194.7 191.1 185.7 185.1 185.4 170.8 153.6 151.6 159.2 162.7 164.1 164.5 165.7 165.6 168.9 175.4 180.6 185.1 188.9 191.5 195.1 200.6 203.3 202.3 201.8 204.7 208.2 208.9 208.5 206.9 205.2 203.2 203.2 201.9 200 197.4 194.8 193.7 192.3 190.5 188.8 188.1 187.3 186.8 186.6 186.2 183.7 184.7 185.7 189 183.3 183.6 184.6 184.7 184.2 183.4 182 179.9 176.5 172.9 169.4 166.4 166.7 168.5 169.9 169 165.3 162.6 163.5 162.2 161.3 160.5 158 149.1 157.3 158.5 156.3 151.5 145.3 140.9 135.1 133.7 136.1 143.9 143.8 142.3 140.3 138.5 135.9 133.2 131.8 130.7 129.7 128.8 128.1 128.2 128.2 128.4 129.6 130.8 134.5 137.1 138.4 139.4 140.2 143.5 142.8 144.1 138.2 129.3 127.4 135.4 133.9 132.4 130.9 129.7 128.6 127.4 125.7 124 116 115.9 115.7 115.1 115.6 117.1 117.6 118.5 118.4 116.8 121.8 122.4 124.2 125.9 127.9 130 131.4 132.8 132.8 132.1 131.3 130.5 130.9 130.6 129.5 128.2 127.1 126.9 128.8 129.1 129.5 129 127.6 126.5 127.1 128.7 130 130.3 130.7 131.4 131 131 131.3 130.6 129.5 127.8 126.9 125.7 124.3 123.2 118.5 110.9
249.5 248.1 244.5 244.1 245.8 246.7 246 245 245.4 240.6 241.3 241.9 241.3 238.9 238.3 236.5 233.7 231.4 229.6 228.4 224.2 221 217.6 213 208.6 205.8 200.9 196.6 194.4 192.2 187 183.7 177.4 162.4 153.1 152.2 167.8 169.2 168.8 169.4 169.7 169.8 169.9 175.4 181 185 189 192.3 195.4 200.6 204.8 204.6 203.4 203.7 208.3 209.3 210.2 209.4 207.7 205.6 204.9 205.1 203.7 201.6 199.1 197.2 195.7 194.4 192.9 190.5 189.5 189 188.9 188.2 184.7 185.3 186.5 189.4 186.2 183.5 183.2 183.2 183.3 182.9 181.2 178.7 175.1 172.1 169 166.2 165.8 165.8 167.4 168.5 166.9 165.4 166.2 164.9 163.7 161.8 153.3 159 160.7 160 158.8 153.7 148.9 140.9 135.5 134.6 133.8 145.2 145.4 144.4 142.5 140.4 137.7 135 132.7 131.6 130.7 129.9 129.5 129.9 130 130.5 130.6 131.9 134.6 139 141.4 142 141.8 143.1 146 146.9 141.9 132.2 128 139 137.5 136 134.2 132.5 130.9 129.5 128.2 126.2 117.9 123.9 119.3 118.6 117.4 113.8 114.3 114.5 115 115.4 116.7 117.4 119.2 119.4 121.2 127.3 129.4 130.5 130 129.1 128.3 127.9 128.4 128.7 128.5 128 127.5 125.1 126.7 126.6 126.8 126.2 124.7 122.4 123.7 124.8 126.4 126.4 126.5 127 126.9 126.3 126.5 127.6 126.7 125.8 124.5 123.7 124 121.4 120 113.9
252.9 250.6 247.3 246.1 247.3 248.6 248.8 247.4 243.9 244.2 245.7 244.6 242.5 240.1 239.3 236.9 233.8 231.2 229.9 227 224.4 221.2 217 213.1 209.8 205.5 202.1 199.1 195.2 192.7 188.6 183 173.9 159.8 152.5 154 175.6 175.2 173 172.1 171.4 170.7 171.6 175.8 181 185.2 189.2 193.1 196.1 200.6 206.2 206.6 205.4 204 207.3 210.7 210.8 211 209.7 207.9 206.7 207.1 206.7 205.3 203.1 200.9 199.5 198.4 197.1 194.7 192.2 191.8 191.6 190.3 188.2 185.8 187.5 190.1 182.7 182.5 181.7 181.5 182 179.3 177.9 175.9 173.9 171.4 168.9 166.6 166.1 166.1 165.9 166.8 167.7 166.8 168.2 167.2 165.3 162.9 156.9 162.9 162.5 161.8 160.8 156.2 150.6 142.1 136.8 134.9 134.9 145.5 146.2 145.9 144.1 141.4 138.8 136.3 134.2 133.2 132.1 131.5 131.1 131.4 132.9 132.8 132 132.4 134.9 139 142.1 143.8 144 142.4 145.3 147.2 145.8 136.5 126.9 140.5 140.6 139.3 137.5 135.9 134.2 132.5 130.4 124.2 128 125.4 125.9 123.9 123.6 124.2 121.6 117.4 114.4 115.2 115.5 115.1 114.1 114.2 114.3 115.1 122.3 128.9 127.9 126.9 125.9 125.4 126.4 127.8 128.6 127.9 126.7 124.5 124.3 124.5 123.7 122.8 121.5 119 119.9 121.4 121.7 121.8 121.6 121.9 121.8 121.3 122 123.5 123.7 123.5 122 121.4 122 120.2 120.3 116.1
255.4 252.8 250.9 249.6 250.8 251.5 250 246.7 245.7 248.9 247.9 246.2 243.6 240.9 240.4 236.8 233.2 231.2 228.7 226.8 222.8 218.4 215.6 212.3 209.6 207.3 201.9 196 193 191.7 189.2 182.3 172.4 158.6 153.6 155.1 171.2 178.8 176.9 175 173.3 172.1 172.8 175.6 180.9 185.3 189.9 194.6 197.3 201 207.2 208.5 207.4 206.6 206.3 209.8 210.9 211.9 212 210.1 208.4 208.8 209.3 208.7 206.8 205.1 203.2 202.3 201.2 198.7 196.2 195.4 194.6 192.5 190.6 186.9 188.3 191.8 184.4 181.8 180.8 179.2 179.7 179.1 176.1 174.8 172.7 170.3 168.3 166.9 166.3 166.1 165.9 165.7 167.1 168.2 169.6 168.8 167 155.5 163.8 165.2 164.2 163.5 162.3 158.7 153.2 145.6 138.7 135.4 140 147.6 147.8 147.2 145.6 142.6 139 135.9 136.6 135.6 134.4 133.4 133.1 133.4 134.9 136 135.1 134.1 135.2 139.2 142.6 144.8 146.2 144.6 145.1 146.7 146.5 141.4 128.2 140.7 142.9 142.6 140.8 138.8 136.6 134.5 132.2 132.2 131.5 130.1 128.8 127 127.1 126.7 125.3 123.8 120.5 114.2 114.9 114.7 113.3 114.6 114.2 113.3 113.8 116.3 125.9 124.8 122.7 118.2 118 125.5 127.7 127.4 126.4 124.5 122.7 121.2 120.6 120.2 119.3 117 115.9 116.1 115.9 116.3 116.6 116.8 116.7 116.5 117 118.3 118.9 120.7 119.6 118.8 119.1 119.3 116.4 111.5
257.4 255.4 254.2 252.5 253.9 252.9 250 247.5 250.3 251.8 251 249 246.5 242.4 240.8 237.5 233.7 229.9 228.1 224 221.4 218 213.9 211 207.4 201.1 197 192.6 191 190.1 188.5 183.3 171.4 156.4 153 156.6 165.7 180.1 178.9 176.9 174.7 173.3 174.2 176.6 180.9 185.9 190.7 195.4 198.3 201.5 207.3 210.5 210.3 210 209.7 209.4 209.3 212.2 214.1 212.1 210.5 210.2 210.9 211.5 210.7 209.1 207 205.2 204.5 202.7 200.2 198.9 196.9 195 193.1 189.4 188.5 192.9 187.8 183.4 181 178.3 177.4 176.3 176 173.5 172.4 170.6 168.9 167.3 167 166.7 166.4 165.6 165.7 167.1 169 170.1 166.7 157.3 167.6 167.6 166.5 165.4 163.9 160.6 154.9 149.1 141.5 135.7 146.6 149.3 148.8 148.1 146.6 143.4 138.7 138.4 139 137.8 136.6 135.1 135.6 136.1 137 138.3 138.9 136.9 136 139.2 142.8 145.2 147.5 146.1 144.1 145.1 145.9 144.3 132.5 136.8 144.6 145.2 143.4 141.2 138.9 136.7 134.2 134.2 134.8 133.5 132.3 130.2 129.2 128.6 127.1 125.9 125.3 124.2 117.1 120.5 123 122.2 120.4 114.8 113.3 113.7 113.6 113.8 113.6 112.8 112.6 112.3 118 124.8 125.6 123.8 122.5 119.4 118.4 117.9 116.3 114.6 114.4 111.7 110.6 109.4 110.3 109.8 109.5 112.9 112.8 112.3 114 116.2 117.1 116.3 115.2 115.3 115.9 110.5
258.7 258.4 257.1 255.1 254.2 253.6 251.3 253.3 253.6 254 253.6 251.4 247.9 244.1 240.9 238.1 234.1 229.9 225.6 223.9 219.6 216.5 213.8 209.9 205 200.3 195 191 190.4 190.3 189 186.7 176.6 160.8 154 156.8 163.1 181.2 180.8 178.8 176.6 175.7 175.6 177.7 181.6 187.4 191.9 196.4 199.5 202.6 207.5 211.8 212 211.8 212.4 211.5 211.7 211.8 213.1 214 212.5 211.4 211.8 213.2 213.8 212.7 210.5 208 207.5 206.3 204 201.5 199.4 197.4 195.4 193.4 188.3 194.6 187.1 184.5 182.1 179.6 177.6 175.7 177.1 173.4 171.9 170.7 169.4 167.7 167.7 166.9 166 165.1 164.5 166 168 170.4 162.4 165.9 170.1 169.5 168.8 167.4 165.2 162 156.5 150 135.6 136.1 144.8 151.4 150.8 150.1 149.5 143.8 140.4 144.1 143 140.9 138.9 138.7 138 138.5 139.3 141.7 142.4 140.7 138.1 139.3 141.9 144.5 147.1 148.2 144.9 142.8 143.4 142.8 131.5 140.4 144.3 146.5 146.2 144.1 141.9 139.9 137.7 134.2 138 137 135.9 133.9 131.8 131.2 130.6 130 129.4 128.7 127.5 127.2 127.1 125.4 123.9 120.9 118.4 115.4 112.3 113.3 113.4 112.1 111.9 112.6 113.3 112.4 118.4 124.1 122 118.8 116.6 111.5 110.8 110.9 110.8 110.6 111.1 111.1 110 110.3 109.7 109.4 109.6 109.6 109.8 111.5 113.8 114.2 113.5 112.6 112.1 112.4
259.3 259.8 258.8 256.7 254.8 253.9 254.6 255.5 256.2 255.8 255.4 252.4 248 243.6 240.8 237.2 233.9 229.1 224.8 221.9 217.9 214.6 211.5 206.9 202.4 198.6 193.9 191.4 189.7 189.7 189.6 187.2 180.6 166.6 154.8 158.7 160.3 182.1 182.5 181.3 179.7 178 178.2 179.5 183.4 188.4 192.4 196.2 199.6 203.1 207.4 212.8 214.1 213.9 214.7 214.4 214.3 213.4 214.4 215.7 214.4 213.5 212.5 213.9 216.4 216 213.5 210.5 210 209.1 206.7 204.1 201.9 200 198 196 189.1 192.4 188.9 185.7 183.2 181.1 178.4 175.7 174.2 174.2 171.4 170.3 169.5 168.6 167.9 167 166 164.9 164.4 164.4 166.3 169.5 161 169.5 172.2 171.6 170.8 169.4 166.5 163.2 158.1 151.9 136.8 136.8 143.4 153.3 152.7 151.9 149.5 143.2 148.1 147.8 146.5 144.6 143.7 142.9 142.1 140.8 141.6 143.7 145.8 144.8 141.6 138.5 141.2 144.5 147.7 149 146.9 143.3 140.1 135 131.7 141.8 144 146.2 147.8 146.7 144.8 142.5 140.2 135.5 139.8 140.4 139.6 137.6 135.7 135 134.8 134.2 133.6 132.6 132.2 131.7 130.5 129.3 128.1 125.5 124.1 121.1 119.2 112.6 113.1 112.7 121.2 121.7 116.1 113.1 111.8 124.2 122.1 116 111.3 110.6 111.3 112.8 113.5 113.3 113.1 112.8 112.3 112.1 111.5 109.1 109.3 108.1 108.8 108.8 108.9 109.4 111.3 111.2 111.3 111.2
262 261.6 259.5 256.9 256.1 256.2 255.7 256.4 257 257.2 255.4 251.5 248.4 243.8 240.7 236 232.4 227.8 223.9 220.4 216.6 213.3 207.9 204.4 201.2 197.6 196 192.6 189 188.1 187.6 186 180.5 170.1 156.6 160 160.3 177.1 183.6 183.4 182.1 180.8 180.6 181.6 184.4 189.2 193.3 197.4 201.2 204.7 207.8 213.9 216 215.8 217.3 217.6 217.3 217.2 215.8 217.8 217.5 216.6 214 213.8 217.4 217.7 215.9 213.1 212.6 211.8 209.3 206.7 204.5 202.5 200.6 198.6 196.1 189.6 189.5 186.9 184.3 181.7 178.8 176.2 175.2 180.7 172.5 171.7 170.9 170.1 168.3 167.1 166.1 165.1 164 163.6 164.7 165.8 164.9 172.1 173.4 173.1 172.5 171.1 167.7 164.4 159.6 150.9 137.3 137.8 146.5 154.9 154 152.7 148.7 144.2 150.4 150.5 146.7 148.3 148.1 146.8 145.5 143.9 143.8 146.1 148.7 148.5 146.9 142.6 142.1 145.5 147.7 149 148.4 144.8 140.8 134.9 135.8 140.9 143.2 145.6 147.6 148.3 146.3 144.1 142.7 139.6 140 143.2 142.5 141.4 140.1 139.4 138.9 138.7 137.6 136.5 136 134.9 134.8 133.6 131.9 129.4 127.8 126.2 125.4 124.8 125.1 124.7 123.5 120.8 113.8 112.7 111.8 119.7 116.5 111.4 110.3 116.3 116 116.3 116.5 116.2 115.9 115.7 115 115.4 115 113.5 112.6 110 108.8 108.8 108.3 107.9 108.1 107.8 110 108.4
263.5 261.1 258.5 257.2 256.8 256.5 257.3 257 257.7 256.2 254.1 251.5 249.3 246.9 242.8 236.1 233.1 223.5 223.6 220.2 216.9 212.5 207.3 204.3 199.7 199 197.5 192.7 188.5 186.6 186.5 184.5 182.2 175.8 159 158.4 161.9 180.7 185.4 185.3 185.4 183.5 183.2 184.4 185.9 190.5 193.9 197.9 202.5 206.2 208.6 214.8 217.6 217.7 218.7 220.6 221 221.1 219.7 220.1 221 220.3 218.9 214.2 216.4 218.1 218 215.5 214.4 213.7 212 209.4 207 205 203.1 201 199 190.6 193.4 186.6 185.1 182.3 179.4 177.2 176 174.6 174.5 172.5 171.8 171.5 169.9 168.3 167.2 166.1 165 164 163.7 163.6 170 173.5 173.9 173.7 172.9 172.1 169.2 165.7 160.5 151.3 137.2 137.7 151.8 154.5 155.7 155.5 147.7 149.3 153.8 152.2 154.1 153.6 152.3 150.8 149.3 147.9 147.2 148.1 150.3 153.2 152.3 146.9 143.9 146.2 147.9 149.4 148.5 146.5 142.6 137.4 132.5 140.2 142.1 144 146.4 148.7 147.7 145.5 144.4 142.7 137.8 144.6 144.3 144 143.8 143.4 142.8 142.4 141.6 140.6 139.7 138.4 137.9 137.8 135.9 133.5 131.1 129.2 126.9 126.8 127.6 126.5 124.9 121.5 114.8 113 111.8 111.7 110.9 111.4 111 113.8 118 118.5 120.1 119.7 119.2 118.8 118.4 118.5 119.3 118 116.2 115.5 108.2 107.8 108.8 108.2 108 107.9 107.8 107.8
262.9 260 259.2 259.5 259.3 259.4 257.8 256.5 256.3 254.1 252.4 251 248.6 244.3 240 236.2 229.8 225.5 222.9 220.3 217 212.2 208.3 203.9 199.4 200 198.8 194.4 189.5 186.4 186.2 185.8 184.5 168.7 155.2 159.2 166.6 182.2 187.2 187.5 188.9 187.5 185.6 187.3 189 191.1 194.4 198.4 203.3 207 210.3 215.2 219 219.2 220.1 222.4 224.3 224.3 224 222.9 224.6 225.5 221.4 216.7 215.6 217.5 218.2 216.9 216.2 215.6 213.9 211.3 209.5 207.2 205.2 203.1 200.4 197.5 191.9 191.6 188.4 184.3 181.5 179.2 175.9 175.2 180.9 174.1 173.6 173 171.7 170 168.8 168.4 166.8 165.2 165 165 168.9 172.5 173.8 174.2 173.6 173 170.5 166.8 162.6 154.6 142.7 140.2 152.9 156.5 157.3 156.2 148.7 156.5 157 154.7 156.7 156.8 156.3 154.9 153.8 152.6 148.8 148.1 151.1 154 156.4 151.8 147.1 147.1 149.3 150.3 149.4 147.8 144.8 138 134.5 134.8 139.4 142.4 144.8 147.3 149.5 148.3 146.4 144.8 142.8 143.8 146.6 145.6 147.2 146.2 145.7 145.4 144.8 144 142.9 141.6 140.9 140.8 140.4 138.1 135.6 132.9 130 130.3 129.9 128.9 127 124.8 121.2 116.1 112 111.4 111.7 111.7 111.2 117 120.6 121.2 123.7 123.3 122.8 122.7 122.5 122.6 123.6 122.6 120.7 120 118 116.5 114.4 110.2 108 107.8 108.1 106.7
261.2 263 263.4 262.5 262.1 260.1 257.8 256.3 254.2 252 250.5 249 246.1 242.3 238.3 233.9 230.2 225.6 221.7 218.2 215.9 213.1 209.6 205.4 200.9 201.8 199.4 196.3 191.3 187.4 185.8 185.3 182.5 156.6 157.5 159.9 171.1 184 189.5 189 191.9 190.8 189 189.6 191.3 192.9 195.8 199.1 203.5 207.2 210.8 215.3 220.7 221.4 221.6 223.5 227.1 227.5 227.8 228.1 228.1 228.4 226.2 222.3 219.1 217.9 218.1 218.4 218.1 217.4 216 213.9 211.2 207.3 205.9 204.6 202.8 199 192.7 194.1 189.9 186.2 183.8 180.6 177.5 176.8 176.3 176.9 175.3 174.7 174.1 172.6 171.9 171.1 169.6 167.9 167.3 167.1 167.3 170.7 173.2 173.9 173.7 173.2 171.5 167.8 163.9 155.2 147.6 139.9 146.1 158.2 159.6 159 150.2 157.6 159.2 158.1 160 160 159.9 158.9 157.7 156.2 154.8 150.9 153.3 156.3 159.8 157.3 152.5 147.5 150.5 152 150.8 148.7 146.5 141.5 137.1 135.1 136.6 141.5 143.3 145.9 148 149.9 148.4 146.5 144.7 143.4 146.6 147.7 150.1 149.1 148.7 148.4 148.1 147.2 146 144.5 143.7 143.9 144.1 142.4 139.5 136.5 134.9 134.1 132.5 131.4 128.8 126.5 124.9 123.1 116 111.7 112.3 111.7 116.9 123.9 125.5 125.6 127 127.1 127 127 126.4 126 127.6 127.4 125.9 123.8 121.7 120.3 118.1 115.7 114.8 111.5 107 108.4
268.7 269.1 268 266.1 264.4 260.7 257.8 255.5 251.1 250 247.2 245.3 243.1 239.9 237.6 235.3 233 227.5 222.7 218 214.5 212.2 209.2 204.3 205 203.7 201.2 198.3 193.7 188.8 186.1 185.8 178.7 157.2 160.5 161.5 173.4 185.3 192.2 190.7 192.9 193.5 192.5 192.8 193.6 195.2 197.4 200.1 204.4 208.4 211.6 215.4 221.5 223.9 222.7 223.5 228.4 231.4 232.1 231.8 231.3 232 230.9 226.1 221 218.8 218.6 218.7 218 217.8 218.2 216.8 213.6 210.6 208.2 206.5 203.5 201.3 198 194.1 191.8 188.6 185.5 178.9 180.9 179 178.3 180.4 177.7 177.5 176.9 176 175.1 174.1 173 171 169.7 169.2 167.9 170 171.9 173.4 173.2 172.7 171.9 168.8 164.1 157.3 150.4 140.4 139.8 153.3 160.7 160 153.3 159.1 161.2 159 161.9 162.3 162.6 162.5 161 159.6 158.4 156.5 155.6 158.2 160.9 161.3 157.4 150.9 149.7 152.7 152.4 150.1 147.8 145.1 140 137.1 137.7 140.8 142.4 144.2 146 147.8 147.3 146.8 145 143.4 145.7 147.2 150.5 151.6 151.6 151.3 151.1 150.4 149.2 147.7 146.3 146.6 146.7 146.4 143.8 140.9 139.2 137 135.5 133.5 130.9 128.3 126.6 124.9 122.6 112.5 116.8 122.2 125.4 127.8 129.8 131.2 132 131.3 130.8 130 129.4 129.3 131.2 131.7 130.6 128.4 126.5 124.8 122.5 119.8 117.9 116.6 115.9 115.9
269.4 271.8 270.2 268.3 265.5 261.8 257.4 254.4 250.3 247.9 245.2 243.2 241.8 239.9 237.5 236.6 233.6 228.4 223.7 219 215.3 212.8 208.9 205.5 206.7 205.7 202.9 200 195.9 190.4 187.8 186.5 183.9 157.5 161.4 163.9 175.2 189.2 194.3 192.5 193.6 195.8 193.7 192.9 195.9 198.1 198.8 202.3 205.7 210.2 214 216.1 222 226.4 226.4 225.5 228.8 232.7 234.9 235.6 235 235.3 234.1 230.6 224.5 221.1 220.1 219.1 218.1 217.8 218.9 218.2 215.1 212.6 210.1 207.6 204.9 202.7 199.6 195.4 193 189.6 183.9 185.1 184.1 181.6 180.4 180.2 181.6 180.1 179.8 179.1 178.1 177.1 176.4 174.4 172.7 171.4 169.5 168.7 170.3 171.5 172.6 172.1 171.5 169.1 163.8 159.4 152.3 141.3 141.2 150.1 162 161.6 157.6 156.1 161.9 161.1 162.6 163.5 164.3 165 164 162.7 161.6 160.3 157.6 158.9 161.5 163.6 161.3 155.3 150.4 153.4 154.1 151.8 149.6 147 142.3 138.4 137.1 139.7 141.9 143.4 145.3 146.2 148 147.8 146 144.4 144.3 146 150.8 153.3 153.5 153.7 153.6 153.1 152.4 151.1 149 148.5 149.1 149.2 147.9 144.9 142.1 139.9 138.2 135.6 133.3 130.4 128.3 126.5 124.1 111.4 117.9 126.6 129 131.2 133.6 135.8 136.4 136 133.9 132.7 132.2 132 132.8 134.8 134.6 133.1 131 129.2 126.9 124.5 121.8 120.4 119.7 119.5
271.5 272.4 271 268.6 265.9 263.1 259 255.2 252.1 248.6 246.9 244.1 241.7 239.9 237.8 235.8 234.6 230.1 225.3 221 217.2 214.1 209.4 205.5 207.7 206.5 203.5 200.9 196.6 191.7 188.3 186.7 184.8 166.3 159.6 164.3 176.9 191.7 196.8 194 196.2 198.2 196.2 195.5 198.3 200.7 201.4 202.5 207 213.1 217 219.1 223.7 228.1 227.8 226.3 229.2 234.2 237 238.2 238.4 238.1 237.1 234.1 227.9 223 221 219.6 218.3 217.9 219.8 219.7 217.1 214.5 212 209 205.7 203.7 200.9 198.1 195.8 186.9 187.2 186.7 186.6 183.8 183.1 182.3 183.3 182.5 182.4 182 181.1 180 179.7 177.4 175.6 173.8 170.7 168.9 168.1 168.8 167.2 167.2 168.3 168.7 165 160.6 154.3 142.5 140.5 151.4 161.8 161.4 162 155.4 161.3 162.5 163.2 164.1 165.2 166.9 166.1 165.5 164.8 163.6 160.7 158.7 161.4 164.7 164.7 159.6 151.7 153.2 155.3 153.7 151.4 148.6 144.9 140.1 137.6 140.1 141.9 142.8 144.4 146.3 148.4 149.4 147.3 145.3 144.6 145.2 147.7 153.7 155.7 155.8 155.7 155.3 155.2 154.3 152.1 150.6 150.8 151 150.2 148.3 145.6 142.8 140.6 138.3 135.7 132.5 130 127.9 121.5 110.8 112.9 126.3 130.8 134.4 137 139.4 140.1 140.6 138.5 136.2 134.9 134.6 134.4 136.6 138.1 137 135.3 133.2 130.9 128.2 125.7 124.4 123.7 123.4
274.8 273.8 271.6 268.9 267.1 264.2 260 257.6 254.9 251.3 247.4 244.3 242.3 240.1 238 236.1 234.3 229.7 223.9 220.9 217.5 214 209.2 207.1 207.7 206.8 203.3 201.1 197 192.6 189.1 187.2 184 180.2 159.7 162.8 177.7 192 199 196.7 197.7 199.8 199.1 198.4 199.8 203.6 204 206.1 210.5 215.8 220 222.9 224.6 230.1 230.7 227.2 228.9 234.6 238.6 239.9 240.7 240.5 239.9 237.1 231.2 226.1 222.7 220.5 218.2 216.1 220.1 220.7 218.6 216.1 213.6 210.2 206.5 204.3 201.7 198.9 196 196.2 191.2 189.9 188.8 187.7 186.1 186.3 185.8 185 184.9 184.6 184 182.7 182.5 180.3 177.2 176.5 172.7 169.5 165.1 158.1 151.3 156 162.6 164.8 165.7 162.4 159.4 145.3 143 154 162 161.5 161.6 159.4 157.3 161.5 162.9 164.2 165.7 167.3 168.5 168 167.1 165.7 164.3 160.1 160.6 163.6 166.1 163 155 151.6 155.5 155.7 153 150.2 146.7 141.3 138 141.3 142.6 144.1 145.1 146.6 148.8 151.1 149.1 147.2 145.3 145.3 146.2 151.1 155.6 156.9 156.9 156.9 156.8 156.8 154.8 152.8 152.4 152.1 151.4 150.7 148.4 145.6 143.3 141 138.4 134.7 131.7 130 117.9 118.4 114.4 121.8 130.6 135.5 139.3 143 143.5 143.5 141.6 139.3 137.7 137.6 136.7 137.7 140 141.7 138.5 136.4 134.3 132 129.5 128.4 128.4 127.8
276.4 275.1 272.9 269.2 266.5 264.4 262.1 258.7 256.5 253.7 251.2 247.4 243 240.1 238.1 235.7 232.7 230.8 226.7 220.7 216.7 213.7 209.5 207.1 207.2 207 202.9 199.6 196.4 191.1 185.5 182.5 177 171.6 164.2 160.1 174 191.6 199.6 199.7 198.8 201.6 202.1 201.8 201.9 205.9 208.6 210.8 214.1 219 223.4 226.9 227.8 231.7 232.9 231.1 230.2 234.8 238.6 241 242.4 242.6 242.4 239.7 234.3 228.7 225.3 222.6 219.9 217.3 217.8 219.9 219.6 217.4 214.7 211.2 207.6 205 202.5 199.2 190.9 197.6 194.2 192.9 191.9 191.3 189.2 190.2 189.3 188 186.9 186.3 185.7 185.1 184.3 182.7 179.5 178.9 176.1 169.9 160.4 154.8 159.1 154.8 148.8 158.7 164.2 163.1 160.3 143.8 149.7 156.6 162.3 162.6 162.7 161.8 160.7 160.3 161.5 162.9 165.9 168.3 169.8 169.7 169 167.5 166 162.4 159.7 161.2 163.6 164.7 158.5 152.9 155.7 157.1 154.2 151.1 148.5 144 138.9 142 144.1 145.7 146.2 147.5 149.2 151.5 151 149 147 146.1 146.8 147.4 152.9 156.7 157.6 157.4 158.3 158.6 156.8 154.3 152.7 152.2 151.4 151.2 149.8 148 145.6 142.8 140.1 136.8 133.6 131.5 116 127.3 120 121.9 128.2 135.5 140.2 144.5 145.5 145.5 143.8 141.7 140.3 139.8 139.3 138.9 141.2 142.3 140.9 139.7 137.8 135.6 133.2 131.5 131.9 131.5
276.6 275.5 273.5 269.5 267.1 267.5 264.9 262.1 256.6 252.4 251.3 246.9 243.4 240.4 237.3 234.9 234.1 232.6 226.5 219.9 218.8 214.3 210.1 207.5 207.3 205.9 198.9 195 193.2 191 190.7 187.2 185.9 182.5 171.3 160.6 162.7 189.9 200.6 202.1 200.2 203.1 205.5 205.3 204.8 208.6 213.1 215.8 218.8 222.7 226.8 230.6 231.3 233.3 234.4 233.6 232.5 234.8 238 241.1 243.4 244 243.8 242.2 237.8 232.2 228.1 225.4 222.5 219.5 216.5 216.5 219.2 217.7 214.7 211.3 209 206 202 197.7 194.6 196.8 198.9 195.6 195 194.5 193 193.7 192.5 191.1 189.5 188.5 188.1 187.7 186.4 184.9 181.4 180.5 177.2 168.4 156.8 153 163.5 162.3 159.9 148.6 158.7 159.7 150.8 145.3 155 160 162.4 162.5 162.7 162 161.9 162.4 162.4 162.4 163.3 167.6 170.3 171 170.2 168.8 167.7 165.4 161.1 160.4 162.5 164.1 160.3 153.8 154.3 158.1 156.7 152.9 149.6 146 140 142.7 144.9 147 147.4 148.7 150.4 152.2 152.8 150.6 148.7 147.2 147.3 147.7 149.4 153.9 157.2 157.5 158.8 159.2 158.2 155.8 153.4 152.2 151.3 150.8 149.5 148.5 146.5 144.4 141.7 138.8 135.6 132.6 119.9 129.8 126.2 126.5 124.6 132.6 139.6 144.5 146.1 145.8 145.4 143.5 142.3 141.8 141.4 141.1 141.9 143.1 144.5 142.5 140.9 139.1 136.8 135 134.9 134.5
278.2 277 274.6 271 268.4 268.3 265.1 261.4 257.1 253.7 251.6 248.4 243.1 241 238.9 235.7 233.1 231.2 226 221.4 216.5 212.7 209.8 207.8 207.1 203.5 199.7 200 197.3 195.2 191.8 187.7 186.1 185.7 176 165.2 160.9 178 200.3 204.4 202.3 201.6 208.1 209.3 210.4 210.8 216.8 220.1 223.4 226.7 230.1 233.8 234.9 235.1 237.9 236.6 235.4 234.6 239.5 241.4 242.7 244.3 245.2 243.6 240.7 235.3 230.9 228.2 225.2 222.1 219.2 216 215.4 214.8 213.2 209.4 208.6 205.1 193.7 195 198.7 198.6 199.3 198.5 198 197.2 196.5 196.4 195.1 193.5 191.9 186.4 190.5 189.6 188.1 186.5 184.3 182.3 178.9 168.2 154.9 162.8 168 166.1 164.1 158.6 146.7 145.2 149.4 157 156.5 160.4 161.7 163 163.3 163.3 163.2 163.2 163 163.3 163.7 165.2 169.1 171.8 171.5 170.6 169.4 167.8 164.4 161.2 160.2 161 160.3 154.5 154.4 157.8 159.1 155 151.4 146.9 140.6 143.4 145.6 147.3 148.7 149.9 151.6 153.2 154.6 153.4 151.5 149.2 148.5 149.2 150.1 149.9 154 155 156.6 159.4 159 155.7 153.7 152 150.4 149.5 148.2 146.9 146 144.8 141.9 139.1 136.5 130.4 129 131.9 129.8 130.3 129.3 128.7 136.5 142.9 146.1 145.9 145.6 145.2 144.4 144.1 143.7 143.3 142.8 144.2 144.8 143.9 142.2 141.3 139 137.8 137.4 137
279.7 278 276.4 271.7 269.9 266.9 262.9 260.5 256.3 256.4 253.4 247.4 243.5 242.9 240.6 236.6 234 231.5 230.4 223.7 215.4 213.7 212.1 207.9 204.7 201.1 203.9 202.3 199.4 196.5 192.1 185.6 181.6 179.3 175.6 170.9 166.9 172.2 200.2 203.8 206 203.7 210.7 213.2 214.1 213.5 217.3 222.8 226.8 230.4 233.1 236.7 238 238.7 239.5 238.9 237.6 237.5 238.8 240.7 241.6 243.3 244.4 245.2 240.9 236.8 233.2 230 227.3 224.5 221 217.4 215.9 208.2 202.7 205.2 202.7 200.5 202.2 203.9 203.1 202 201.3 200.8 199.3 198.7 198.6 198.7 197.3 195.8 194.2 192.8 188.7 191.2 189.8 188.2 185 183.5 179.9 172.2 159.1 155 170.8 169 168.1 166.2 164.3 161.8 161.5 159.8 158.6 160.3 161.8 163.4 164.1 164.7 165.1 164.7 164.2 164.2 164.5 164.2 167.7 171 172.7 172.6 171 169.4 167.7 164 159.3 156.2 156.4 155.9 154.8 156.3 160.1 156.9 152 147.2 141.2 143.7 146 147.5 149.2 151.3 152.8 154.8 157.2 157.3 155.7 152.5 150.3 150.8 152.2 151.9 151.3 152.5 154.7 157.2 159.1 155.8 154 152.4 150.4 148.4 145.4 144.2 143.7 142.9 141.4 139.4 136.7 127.5 134.1 133.4 132 132.9 132.3 131.1 133.2 139.6 143.9 145.6 145.7 145.9 146.4 146.4 146 145.4 144.4 144.9 145.5 144.2 142.9 142.4 140.9 139.4 138.5 138.2
280.1 279.5 276.6 271.5 266.4 263.4 260.1 258.1 254.9 251.2 250 248 246 245.3 241.5 237.4 234.7 232 231 224.5 214.6 211.3 209.5 205.8 204.3 203.7 204.6 203 200 197 191.2 185.5 184.7 183.6 179.2 177.7 163.3 179.2 200.6 206.2 207.5 204.9 212.9 215.7 215.6 214.9 220.7 226.1 230 234.1 236.8 239.6 240.9 241.9 240.8 241.2 239.9 239.6 240.6 241.2 240.6 242.1 243.5 245.3 242 237.8 234.5 231.8 229 226 222.2 218.2 214.6 210.3 205.8 208.5 209.5 206.4 205.6 205.5 205.4 204.5 203.6 202.6 201.9 200.4 200.2 199.8 199.1 197.7 196.2 194.9 193.2 192.6 191.5 189 187 185.2 179.9 175.3 165.1 158 165.7 171.3 170.2 170.2 168.6 165.3 163.6 161.7 160.1 161 162.5 163.5 165.2 166.5 166.6 166.2 165.7 165.3 165 164.9 165.3 169.2 173.2 175.6 174.3 172 169.8 165.8 160.8 156.6 158.6 158.6 156.6 155.7 158.8 158.6 152.9 146.7 142.3 144.7 146.4 148.4 150.7 152.8 154 156.5 158.9 160.2 159.1 156.4 153.6 152.2 154.5 155.3 155 155 154.7 154.4 156.4 155.9 153.5 151.5 149.4 147.2 144.2 140.9 140.4 140.4 140.5 139.4 136.2 126.7 134.9 134.8 133.7 135.1 134.8 134.2 133.2 136.9 141.5 143.8 146 147.2 147.6 148.2 147.7 146.8 145.8 144.8 145.4 144.3 143.3 142.3 141 139.4 138.8 138.4
281 280.2 277.4 273.2 266.6 263.9 261.4 259.9 256.1 251.7 249.3 247.6 245.9 245.4 240.6 237.7 235.3 232.6 230.7 224.1 213.4 211.4 207.3 205.3 205.2 205.4 205 204 199.7 194.8 189.5 188 186.8 185.6 181.9 177.5 163.5 185.1 199.4 208.8 209.7 208.9 211.3 215.5 215.8 216.8 223.2 228.5 233.6 237.9 241 243.4 244.2 243.2 242.1 242.6 242 241.3 241.3 241.9 242 241.4 240.7 244.1 242.9 239.2 235.6 233.6 230.6 227.1 223.5 217 214.2 212.7 209.1 207.8 210.5 209.9 208.1 207.9 207.3 206.6 205.5 204.1 202.6 201.7 201.8 200.9 200.2 199.4 198.1 196.8 194.6 193.7 192.5 189.9 188.6 185.3 182 179 168.3 161.3 161.9 173.2 171.7 172.5 171.5 166.8 164.2 161.9 161.9 161.8 163 164 165.9 167 168.4 167.5 167.1 166.7 166.4 166 165.8 166.1 172 175.6 176.2 173.8 172 167.2 160.8 158.3 160.1 161.3 159.7 157.6 157.7 159.2 155.3 147.7 143.3 144.3 146.2 148.4 150.8 153.5 155.2 157.4 160 162.3 161.9 160.4 156.7 153.2 155.9 158.5 158.7 158 156.7 155.6 155.4 155.4 153.4 150.4 148.4 146 142.4 139.1 138.4 138.7 138.9 138.2 128.2 135.9 136.3 136 135.5 136.4 137 136.7 135.2 137.3 140.9 144.4 146.1 147.9 148.5 148.8 149.4 148.3 146.8 145.4 145.2 144.5 143.2 141.4 139.4 138 135.9 136.5
281.6 279.5 277 273.1 267.3 264.2 261.8 258.9 256.8 254.2 250.5 247.3 246 243.6 240.4 237.8 235.1 228.8 222.6 221.5 217.3 214.1 208.2 205.3 205.1 204.9 204.9 203.7 196.8 194.3 193.2 191.1 188.6 187.8 185.7 180 161.2 185.4 197.8 207.7 213.7 212.9 210.8 215.8 217 218.6 223.8 230.6 236.9 241.2 245.2 247.1 246.8 245.4 243.9 243.7 243.7 243.4 242.8 242.6 242.8 241.9 243.8 244.1 240.2 240.6 236.6 234.3 230.4 227.2 221.3 216.3 218.8 218.1 217.2 212.2 213.7 213 211.2 209.7 209.1 208.2 206.7 205.3 204.9 203.8 203 202 201.3 200.7 199.9 198.4 196 195 188.8 190.9 190.2 187.8 184.4 181.2 178.5 162.4 158.8 174.3 173.1 174.2 173.3 167.8 164.6 163.1 163.2 163.5 164.4 165.2 166.6 168.5 170.2 169.5 168.8 168.5 168.3 167.6 166.2 164.9 165.9 171 177.1 175.2 174.3 168 160.4 160.3 161.5 162.7 162.5 160.1 157.8 159.1 156.3 149.6 144.1 145.1 148.4 148.5 150.5 153.3 155.2 157.7 160.5 163.2 164 163.6 160.5 157 158.5 160.2 161.3 160.8 159.6 158.3 156.9 155.3 154.7 150.7 147.4 144.5 141.3 138 136.7 136.8 137.3 127.9 137.1 137.5 137.8 137.2 136.7 137.8 138.9 139.1 138.6 137.5 141.5 145 147 148 148.7 149.4 150.9 149.7 147.9 146.2 145 144.2 142.1 139.3 135.9 133.5 131.7 130.8
280.6 278.1 275.1 271.9 265.9 262.9 261.1 258.2 255.5 254.6 253 249.3 247 244 239.9 236.2 233.9 232.5 230.6 227.3 218.7 213.3 207.9 204.4 202.9 201.5 200.6 198.1 196.6 195.6 195.5 193 190 189.4 188.1 182 163.8 180.8 196.6 206.5 215.3 216.9 213.6 214.9 219.4 220.6 224.3 233.2 238.9 243.2 247.9 250.5 250.7 249.1 246.6 244.6 245.3 245.5 244.7 243.9 243.1 241.7 240.9 243.1 244.8 241.4 236.6 232.7 227.9 223 222.2 223.2 223.3 223.5 222.7 217 216.7 216.9 214.2 212.6 211 209.7 208.5 207.4 206.5 205 204.9 203.3 203.3 202.5 201.4 199.6 197.7 196.1 194.9 189.2 191.8 189.5 185.3 182.6 180.8 169.3 160 176.5 174.2 175 174.3 168.1 165.5 165.4 165.9 166.4 166.7 167.2 168.6 169.8 171.5 171.7 171.1 170.7 170.6 168.7 169.3 167.8 165.7 165.4 168.4 170.5 169.6 165.2 162.5 162.7 162 163.9 164.7 161.7 160.2 158.1 158.2 150.4 145.2 147.6 149.4 150.2 151.3 153 155.4 158 160.6 163.4 165.6 164.6 162 159.3 158.3 161 163.2 164.2 163.7 161.7 159.4 157 155.3 151.9 147.6 143.6 140.3 137 135 133.9 129.9 137.3 138.7 138.7 139.1 138.4 138.2 138.9 140 141 140.9 140 141.2 144.6 147.8 148.9 150 150.5 151.4 150.9 149.2 147.5 145.4 143.7 141.5 137.9 133.4 128 124.1 122.8
280.2 277 273.7 270.7 266.6 262.3 260.4 257.9 254.4 251.4 249.4 247.4 245.2 241.7 237.5 233.9 232.9 233.2 231.6 225.1 215.7 211.6 208 206.3 204.4 202.6 202 202.6 201.1 198.4 196.7 194 191.3 190.7 189.9 184.4 170 174.2 192.3 205.3 217.1 217.6 216.3 214.6 221.4 222.9 225 234.4 240.7 245.4 250.8 254.3 254.2 252 249.2 246.2 246.5 248.6 247 244.9 243.2 241.8 239.9 236.8 239.7 240.4 236.4 232.7 228.1 226 224.9 224.6 224.4 224 223.4 220.3 218.9 219.6 216.8 215.1 213.3 211.9 210.6 209.6 208.3 207 206 205.9 205 204 202.6 200.7 199 196.7 195.2 192.7 193.1 190.7 187 185 182.4 179.5 162.3 176.1 176.2 173.9 174.5 169.4 167.3 167.9 168.9 169.5 168.9 169.9 171.7 170.8 173.3 174.2 173.7 172.8 172.7 171.3 173.1 171.2 169.6 168 167.8 168.3 168.7 167.5 166.2 164.7 164.7 166.1 166.9 166 164.2 160.2 157.8 152.7 144.7 150.9 152.1 151.5 152 153.4 155.9 158.7 161.2 163.1 165.2 167 164.9 161.9 158.6 161.5 164.5 165.9 166.9 165.9 163.7 160.9 157.7 154.2 149.5 143 139.6 136.4 134.8 135.2 134.4 135.8 138.3 139.2 140.1 139.5 139.3 140 141.2 142.7 142.9 142.6 142.2 144.5 148.5 150.2 151.3 151.5 151.9 151.7 150 147.8 145.7 143.3 138.9 134.7 128.2 123.2 119.5 118.3
279.8 274.8 269.5 268.8 265.1 261.5 258.6 256 253.8 252.2 249.3 247.3 242.3 236.4 234.3 232.6 234.5 233.2 229.2 220.9 217.8 212.3 209.8 208.1 206.4 204.6 202.9 203.8 202.5 199.8 197.6 194.8 192.4 191.8 191.1 187.3 175.4 168.5 187.5 201.8 216.2 219.7 218.4 217.5 220.8 224.4 225.6 234.7 242 247.1 253.2 256.9 257.3 255 251.5 249.8 248.5 249.6 249.7 246.8 243.9 242.1 239.4 240.1 236 232.6 232.1 232.8 232 229.2 226.8 225.2 224.7 224.7 225.4 223.1 221.2 221.4 219.7 217.5 215.7 214 212.8 211.6 210.3 209 207.4 207.1 206.5 205.4 203.8 202.3 200.8 197.7 194.9 194.4 189.4 191.5 187.8 186 183.3 180.9 166.2 164.4 174.7 175.6 174.4 171.6 169.7 169.7 170.4 171.5 171.1 173.6 174.8 174.3 175.1 176 176.5 175.7 174.8 174.1 175.5 175.3 173.9 172.4 171 171.4 172 170.4 169.3 167.8 167 167.3 168.2 169.4 168.9 163.4 157.5 151.1 146.5 153.1 153.9 153.4 152.8 154.2 155.8 159.2 160.8 162.4 165.2 167.9 167.4 164.5 160.8 161.7 165 167.2 168.5 169 167.2 164 160.3 156.9 151.8 144.7 138.6 136.1 135.1 134.7 135 135.4 137.6 140.4 141.2 140.8 140.4 141 141.6 143.7 144.3 144.5 143.7 144.6 148.3 150.8 151.8 152.1 152.4 151.9 150.2 148.1 145.9 143.1 139.1 134.3 126.8 120.6 118.3 117.2
280.3 274.8 268.2 264.3 261.6 252.4 249 248.6 250.9 250.6 250 245.8 238.1 237.2 237.3 235.6 233.9 230.3 227.8 226.9 219.6 214 209.7 208.2 206.7 205.2 204 204 202.3 199.5 197.4 195.3 193 192.2 191.2 187.9 180 164.3 182.9 196.4 212.6 222.5 221.5 220.4 221.1 225.7 227.6 233.8 243.1 248.6 255.3 259.9 260.9 258.1 255.1 251.8 250.4 250.3 252.2 248.8 245.5 243 241.9 241.6 240.4 237.8 236.2 237.4 235 232.4 229.5 228.4 229.2 229.3 227.9 226.1 224.6 223.6 222.7 220.5 218.1 216.4 214.9 213.4 211.9 210.4 208.9 207.6 206.8 206.6 205.6 204.1 202.5 199.7 196.8 195.2 194.3 191.1 187.4 181.8 176.6 179.6 169.5 163.4 169.9 178.3 176.7 173.8 171.3 170.5 172.1 172.6 174 177.1 177.4 178.1 178.4 178.3 178.3 177.4 176.7 175.9 177.8 178.2 177.1 175.8 174.1 175 176 174.4 172.9 171.2 169.4 169.2 169.9 170.9 170.4 166.6 160.4 152.3 148.6 154.5 155.7 155.2 154.8 155.3 155.8 158.7 160.7 162.4 164.9 167.6 168 166.7 163.9 161.7 165.5 167.9 169.9 170.9 170 167.3 163.7 159.8 154.1 146.6 139.6 136.6 135.6 135.2 135.4 135.6 136.6 139.8 142.4 142.1 141.7 141.8 142.4 143.3 144.6 146 145.9 145.6 147.6 150.4 152.4 152.8 152.6 151.8 150.6 148.6 146 142.7 138.9 133.9 126.6 119.1 118.2 117.3
281.6 273.9 267.3 263.7 255.8 251.4 257 254.2 249.4 243.5 241.7 240 238.8 237.2 235 233.5 233.2 232.5 230.2 226.1 220.5 213.4 210 207.5 206 205.2 203.9 203.7 201.3 198.4 197.1 195.7 193.4 190.8 188.7 186.8 178.2 162.2 178.6 190.1 204.4 220.7 224.3 223.4 222.7 225.9 227.9 231.6 241.4 249.4 256.1 262.1 263.9 261.9 258.9 255.1 252.2 251.2 253 251.4 247.7 244.6 242.2 242.3 241.9 239.8 237.7 239.8 238.1 235.6 232.3 231.9 231.7 231.7 230.5 228.2 226.2 226.1 225.1 223.6 220.8 219.1 217.3 215.2 213.7 212.2 210.8 209.1 209.1 206.3 206.9 205.9 204.6 202.1 199.2 196.5 194.5 191.1 187.9 186.6 183.4 181.1 178.6 166.3 165.1 178.9 179 176.1 173.3 171.7 172.2 174.1 177.8 178.5 178.9 181.2 180.3 180.1 180.1 179.3 178.7 177.8 179.2 180.3 179.5 178.5 177 177.1 178.1 178.5 177.2 175.4 173 171.5 171.2 172.6 172.7 169.9 163.5 156.7 147.5 155.2 158.4 158.2 157.8 156.9 156.3 158.1 160.2 162.2 164.5 167.3 168.8 167.6 165.2 162.8 165.9 168.6 170.6 171.6 171.8 170.2 167.7 163.6 158.1 149.1 143.1 137.5 136.2 135.9 136 135.9 136.4 139.1 143 143.4 143.2 142.8 142.9 143.4 145.5 147.1 148.1 147.8 147.3 150.1 152.6 153.3 152.3 151.3 150.1 148.3 145.9 142.1 137.8 130.8 123.8 118.5 118.7 120.9
283.8 273.9 267.1 263.7 257.5 258.4 260 257 252.3 245.3 242.7 241.5 239.8 238.4 236.1 234.4 235.8 233.8 229.8 225.8 221 212.9 209.9 206.8 206 205.3 204.1 202.5 200.5 198.2 195.4 194.2 191.9 187.7 185 184 178.9 166.9 169.3 184.9 195.7 211.2 225.8 225.7 224.3 225 228.2 230.8 239.1 249.4 256.3 262.6 265.2 265.5 263 258.8 254.9 252.8 254 253.4 249.6 246.4 244.3 243.3 243.3 242.2 238.8 240.5 240.9 238.4 235.9 234.6 234.1 233.8 233.5 231.8 229.3 228.4 227.9 226.4 224 222.5 220.2 217.9 215.9 214.1 212.6 211.1 209.8 207.7 207.9 207.4 206 204.1 202.6 198.7 195.4 193.4 189.9 187.1 183.7 181.4 179.1 171.8 166.3 164.6 181.1 179.6 176.5 174.1 174.3 176.8 180.4 182 183.1 184.4 183.8 182.8 181.9 181.2 180.6 178.3 180.2 182.1 182.2 181.3 180.7 179.6 180.4 180.8 181 179.9 177.3 174.3 172.7 173.7 174.4 172.4 167.4 160.1 150.5 154.8 159 160.6 160 159.3 158.8 158.3 160.1 162.3 164.8 167.4 169.6 169.4 167 164.8 165.7 168.8 170.1 171.5 171.7 172.2 171.3 166.9 161.5 152.7 145.7 140.6 137.3 136.3 136.2 136 136.3 138 142.7 145.1 145 144.5 143.7 143.9 144.9 147 149.2 149.2 148.7 149.2 151.9 153.4 152.1 150.8 149.7 148.2 145.5 141.5 136.3 129.5 122.9 118 123.8 124.6
284.7 275 268.1 262.8 257.2 259.2 261.2 258.4 252.7 248.3 244.9 242.5 240.5 239.1 236.8 235.6 236.5 234.1 229.3 226.8 220.5 212.9 208.9 205.7 204.6 204.6 204.5 201.7 199.6 197.3 195.4 192.8 190 185.3 182.8 181.8 180.3 172 163.7 178.9 190.1 203.7 216.8 228.2 226.6 226.2 226 230.7 238.6 249.3 256.6 262.7 266.1 268.3 266 262 257.9 254.2 254.1 255.3 251.5 248.2 246.2 244.4 244.8 244.2 241.5 241.9 243.1 240.6 239.8 238 236.9 236.6 236.2 235.1 233 230.6 230.2 229.1 227.3 225.5 223.1 220.6 218.5 216.5 214.5 212.2 210.1 210.4 208 207.3 206.8 206.2 204.3 201.2 197.8 194.4 191.3 187.7 184.2 181.7 179.9 175.5 167.7 165.8 182.5 182.3 179.3 176.5 175.7 176.4 180.2 182 184.3 186.6 186.7 184.8 183.2 182 181.1 179.4 181.4 183.3 183.5 183.4 183.1 182.5 182.2 182.6 183 182.9 180.9 177.7 175.3 175 176 174.2 169.6 162.9 154.6 152.9 159.8 161.6 162.5 161.7 161.2 160.3 160.5 162.7 165.3 167.9 170 171.6 169.4 167.1 165.1 168 169.9 171.9 173.5 174.1 173.4 169.9 164.6 156.9 149.1 143.3 138.5 136.9 136.6 136.5 137 137.6 141 145.5 146.8 146.2 145.4 144.6 145.1 146.9 149.5 151.2 150.8 149.7 151 153 151.7 150.4 148.4 146.5 144.5 140.1 134.7 129 122.7 118.8 125.2 126.5
283.8 272.4 268.2 263.9 259.2 258.3 262 259.6 254.3 248.9 246 243.5 241.6 239.8 237.9 236.3 236.5 233.4 229.2 225 219.3 212.5 208.1 205.5 203.5 203.2 203.4 201.8 199.7 196.5 194.1 191.6 188.5 184.4 181.4 181 180.7 175 164.4 170.3 184.3 195.4 208.2 218.7 228.6 227.8 227.1 229.4 237.4 248.6 256.1 261.6 266.5 269.4 268.3 264.8 260.8 256.1 254.2 255.3 253 249.1 247.3 245.5 246.1 245.9 243.7 243.8 246.1 244.7 243.3 241.6 239.7 239.3 238.8 238.2 235.8 233.3 232.3 231.7 230 227.5 225.6 223.5 221.2 219.5 217.3 214.5 209.8 205.4 208.7 208.3 208.6 207.8 205.7 204.6 201.1 196.4 191.7 188.4 186.4 183.8 181.9 177.6 168.8 166.3 183.2 184.1 182.1 178.8 178.2 177.6 180.3 182.9 185.3 187.6 188.6 187.7 185.9 184.3 182.7 181.9 183.4 183.6 184.6 184.5 184.4 183.8 182.8 182.8 183.4 184.3 183.7 180.9 177.5 176.4 176.9 176.2 171.7 164.8 157.6 150.1 160.7 162.7 164.3 164.2 163.2 162.3 161.3 163.2 165.8 167.1 169.6 172.4 171 168.9 166.8 166.9 170.3 172.8 175.1 175.8 175 172.4 167.3 160.7 153.1 146.2 140.5 138 136.9 137.3 137.8 138.3 139.3 144.4 147.4 148.1 147.4 146.5 146.2 147.3 149.8 152 152.8 151.3 149.8 151.7 152.2 150.2 147.6 144.7 142.4 135.8 131.8 127.2 120.7 119.2 126.5 128.3
276.8 272.1 267.6 264.6 262.6 259.7 263.4 261.8 255.8 249.3 247.2 245.5 243.6 241.2 239 236.7 237.1 233.4 229 225.3 219.4 212.7 208 205.5 203.6 202.1 203.6 201.8 197.4 194.8 192.4 190 187.5 183.9 179.6 179.6 180.1 173.4 165 169.7 180.2 191.3 201.8 212.3 224.1 229.7 228.8 229.8 238.1 245 254.8 261 265.9 269.1 269.3 266.6 262.8 257.9 254.7 254.9 254 250.3 247.8 246.5 246.9 247.8 246.3 245.1 248.4 247.7 246.8 245 243.3 241.9 241.4 241 239 236.3 234.5 234 232.4 230.6 228.9 225.9 224.1 219.8 219.2 218.1 214.9 212 211.8 209.5 210.2 208.5 206.9 207.3 202.4 197.6 192.9 190.6 188.9 186.4 184 177.8 169.1 167.2 182.7 184.9 183.5 181.2 180.2 179.9 180.9 183.4 185.9 188.2 190 189.8 188.3 186.9 185.3 183.7 184.7 184.3 185.4 185.6 185.6 184.6 183.2 182.6 183.4 184.3 184.9 183.5 180.4 177.4 177.2 176.9 172.6 166.2 159.5 152.1 159.7 162.2 165 165.9 165 164.1 163.4 163.6 166.1 167.4 169.2 172.3 173.6 171.4 169.1 168.1 171.8 173.3 175.6 176.7 176.1 174.5 169.8 164.3 157 149.9 142.6 139.6 138.1 137.8 138.3 138.8 139.4 141.1 147.4 149.7 149.4 148.3 147.6 147.7 150.3 152.6 154 153 150.9 150.6 151.7 149.7 145.5 141.2 138 135 129.9 123.2 119.1 121.3 127 129.1
279 273.9 270.1 268.1 264.3 261.3 264.9 264.4 258 252.6 250.5 248.3 245.9 243.2 239.9 238.3 238.1 235 230.7 225.7 219.3 213.2 208.1 205.3 203.5 201.5 202.2 199 196.9 194 190.8 188.3 186.7 182.5 178.7 177.5 179.4 172.1 164.5 169.9 174.7 185.3 194.5 205.5 217.8 230.7 229.9 230 236.9 242 252.3 259.8 264.2 268.2 269.4 267.4 264.5 260.3 256.6 254.9 253.9 250.4 249.1 247.8 247.4 249.4 248.5 246.7 248.8 249.8 249.6 248.5 246.7 244.4 244.2 243.7 241.7 239 236.8 236.5 235.2 233.8 232.4 230.5 225 223.4 221.8 219.8 216.8 213.9 213.4 210.8 211.1 209.8 208.3 208.7 204.6 199.6 194.4 192.4 189.9 187.2 183.5 169.7 169.4 172.5 183.6 186.4 184.7 183.2 182 182.3 182 184.8 187.1 189.2 190.8 190.8 189.9 188.5 186.3 186.4 186.6 186.4 185.8 185.7 185.7 184.6 183 181.6 182.2 182.9 185.2 184.8 182.4 178.9 177.7 177 173.8 168 161.4 154.6 157.2 161.5 164.2 166.8 167.1 166.4 165.4 164.7 166.8 168.1 169.4 172 174.7 174 171.8 169.8 171.4 173.6 175.1 175.9 176.7 176 172.3 166.8 160.3 152.7 145.5 141.3 139.5 138.3 138.8 139.6 140 141.2 145 149.7 151.4 150.8 150.2 149.8 151.1 152.9 154.7 155 152.3 150 150.8 149.6 145.3 139.3 132.8 129.5 125.2 120.1 120.1 123.7 126.9 130.2
280.7 274.5 271.9 270.5 265.5 262.5 265.9 266.1 260.7 255 253 250.9 248.4 245.7 241.6 240.6 239.3 238.2 232.3 225.6 219.6 213.8 208.3 205.2 202.9 201 201.2 201.1 198.4 195.1 191.8 188.3 186.3 184.4 177.6 175.6 176.2 172.5 164.8 169.7 173 179.5 187 197.9 209.1 222.1 231 230.3 232.7 241.5 248.9 257.4 262.4 266.8 269.5 269.2 267.1 263.2 258.9 256.1 254.1 252.4 251 249.7 248.2 250.2 250.4 248 249.1 251.9 251.9 251.6 249.8 248.4 247.4 246.4 244.5 241.9 239.2 239.2 238.2 237.1 235.4 233.5 230.3 225.9 223.6 221.8 218.9 216 214.1 211.3 211.6 211.7 210 209.7 207 202 196.1 193 190.6 188 171 170.6 175.1 183 182.2 187.7 186.8 186.6 184.7 185.1 184.7 185.8 188 190.1 191.4 191.1 190.6 189.4 187.6 187.8 188 186.4 186 185.9 183.6 183.9 182.3 179.8 179.3 180.3 183.4 185.8 184.4 180.8 177.9 176.5 173.8 169.1 163.6 155.7 154.1 160.9 163.1 166.3 168.5 168.3 166.9 165.8 167.6 169 170.3 171.9 175.3 176.6 174.4 171.7 171.6 174.1 175.7 176.4 176.6 176 173.6 168.1 163.1 154.8 147.5 143.1 141.1 139.4 139.6 140.6 142.1 143.2 144.2 148.8 152.2 153.3 152.8 152.4 152.4 154.1 155.2 156.2 155.3 151.8 149.6 147.8 143.7 137.1 129 123.3 120.9 120.1 122.6 125 126.8 130.1
281.6 276.4 274.3 272.3 265.3 262.9 267.2 267 263.5 257.8 255.4 253.2 251 247.4 243.7 243.6 242.8 241.1 235.1 227.9 220.8 215.4 209.3 205.5 203.2 200.9 200.9 201 198.4 195.3 191.6 188.8 186.7 184.4 178.6 175.4 174 172.8 164.8 168.8 171 174.3 178.6 191.3 202.6 215.1 227.1 231.4 231.7 240.5 244.9 256.4 260.9 265.1 268.9 271 268.9 266.1 261.8 258.3 256.3 254.3 252.6 250.9 249.3 250.8 251.9 250.5 249.9 252.7 253.7 254.1 253.2 251.4 249.8 249.1 247.1 244.6 242 240.9 241 240.1 238.5 236.1 233.7 229.8 227.4 224.5 221.6 218.5 215.8 215.4 211.5 212 212 210.8 208.6 204.2 197.8 194 190.6 184.8 171 173.8 184.4 187.2 186.3 188.8 189.7 189.3 187.4 186.9 187.8 188.2 189.5 190.9 192 192 192 190.9 189.8 189.8 189.6 188.6 186.3 186.6 185.2 183.6 180.3 177.8 176.8 176.6 179.8 184.4 185 181.7 178.1 175.9 173.7 169.4 164.6 157.3 156.7 159.3 161.8 165 168 169.2 168.8 167.6 168.5 170.2 171.5 172.1 175 177.8 176.7 174.4 172.1 174.5 176.2 176.5 176.7 175.5 173.8 167.7 163 156.6 149.4 145 141.8 140.9 141.4 143.1 144.8 146.1 147.3 147.4 152.3 154.9 155.4 155 154.9 154.8 155.9 156.9 156.5 154.1 149.5 146.3 143.1 135.9 127.9 122.6 120.6 120.9 124.1 125.9 127.3 130.3
282.1 279.5 276.6 270.1 268.7 269.3 268.4 268.4 265.9 261.4 258.3 256 253.6 249.3 245.6 245.3 244.5 243.6 238.5 231.4 224.9 217.6 210 205.7 202.7 200.9 200.6 200.9 198 194.6 191 188.7 187.3 184.9 179.7 176.3 175 173 166.4 171.2 172.2 171.7 173.4 183.7 195.9 207.9 219.7 232.2 232.6 236.5 243.2 252.8 258.8 263.7 267.3 270.7 272.2 268.8 264.5 260.6 258.1 256.1 254.5 252.8 251.2 251.2 253.1 251.8 251.1 253.1 255.2 256.3 256.3 254.3 252.6 251.9 249.8 247.2 244.4 243.1 242.8 242.8 241.8 239.9 237.4 234.4 230.8 227.3 224.4 221.7 218.9 215.9 213.3 213.5 213.6 212.2 210.1 205.9 199.5 193.7 190.5 181.9 171.6 184.8 188.1 189.9 187.7 188.9 191.4 191.6 191.1 189.4 189.8 190.6 191.2 192.3 192.9 193.2 193.3 192.7 191.4 190.9 190.2 190.1 186.1 185 183.4 181.3 178.5 177.7 176.7 176.3 174.8 180.8 183.9 181.9 178.5 175.3 173.5 168.7 162.6 156.2 156 158.3 160.4 163.4 166.7 169.1 169.2 168.7 168.9 170.8 172.6 173.3 174.6 177.6 178.1 175.7 173.6 174.5 176.9 177.4 176.9 175.3 172.6 167.2 162.7 157.7 151.4 146 143.2 143.1 144.2 145.7 147.8 149.2 150.1 149.6 150.5 156 157.1 157.4 157.3 156.8 157.1 157.7 157.3 155.9 151.2 145.1 142.4 137.4 128.4 123.2 121.2 125.1 125.5 126.5 127.8 130.4
283.6 279.9 271.3 275.4 274.9 272 271.3 270.2 267.8 265.2 262.1 259.3 256.3 252.2 249.6 247.1 246.3 245.4 242.2 235.6 226.9 220.2 211.6 205.9 203.1 201.4 200.4 200.6 197.5 193.9 190.9 188.6 187.2 184.4 182.2 177.8 175 173.1 169.2 169.8 173.5 172.6 172.8 175.3 192.6 199.3 214.1 222.6 233.4 233.4 243.3 248 255.9 262.2 266 269.2 273.2 270.8 266.6 263 260.7 257.9 256.2 254.5 252.8 252 253.6 253.5 252.8 253.1 256.2 257.3 258.8 257.1 255.5 254.6 252.5 249.9 247.3 245.3 245 245 244.6 243.1 240.4 237.2 234.1 231.2 227.2 225 221.6 217.1 215.2 214.9 215.1 213.3 210.6 207.4 201 194.5 192.5 179.5 172.7 183.6 189.3 191.2 189.9 187.3 193.2 192.5 193.7 191.6 192 192.9 193.3 193.4 193.8 194.1 194.3 193.1 192.5 191.2 190 188 183 180.6 180.1 181 179 178.7 178.3 177.5 173.7 174.4 179.8 180.8 178.1 175.5 172.4 167.3 159 156.2 157.2 158.3 159.8 162.2 164.9 168.2 169.8 169.6 169.6 171.1 173.1 174.5 174.5 177.3 179.3 177.2 175.5 174.5 177 178.5 178.4 176.3 172 166.8 162.1 157 151.9 149.3 146.5 146.6 147.2 148.4 150.5 152.4 152.6 152.9 152.8 154.9 157.9 159.8 159.1 158.7 158.9 158.8 158.1 157 152.9 146.4 139.6 134.5 128.4 124.6 122 123.5 126.7 127.6 128.5 130.5
283.4 276.8 275.9 278.3 276.7 275.1 273.7 272.5 270.4 268.1 264.2 261.5 258.5 255.2 252.4 249.6 248.2 247.7 245.1 239.6 230.6 223.5 214.4 206.9 203.6 201.9 200.4 200.9 198.8 195.3 191 188.7 186.8 185.7 184 179.6 175.7 173.6 171 167.5 176.1 175.6 173.6 175.1 183.7 195.2 205.6 218 231.2 234.6 238.6 246.3 253.4 260.6 265.4 268.2 270.3 272.2 268.2 265.1 262.9 260.6 258.6 256.7 254.7 253.3 253.9 254.7 254.5 252.9 256.5 259.2 260.6 259.6 258.3 257.4 255.5 252.9 250.3 247.7 247.1 247.7 247.1 245.5 243.4 240.3 237 233.9 230.7 227.6 224 219 217.7 215.9 216 214.6 212.2 209.4 204.6 196.9 194 179.1 172.6 184.5 190.1 192.2 192.4 189.5 195.1 194.7 195.5 194.5 192.7 194.1 194.6 194.4 195.1 195.5 195.2 194.2 193.6 193 191.1 188.7 185.3 181.3 180.5 180.9 180.4 180.2 179.8 178.6 177.4 173 172.6 177.6 177.5 173.6 170.3 164.8 158.4 158.1 159 161.1 161.9 162.9 164.3 166.7 169.2 169.6 170.4 171.5 173.6 175.5 175.7 177 179.3 179.7 178 176.2 177.6 179.8 179.7 176.7 171.9 167.1 162.8 159.9 156.4 154.2 150.9 151.3 151.7 151.6 154.2 155.5 156.6 156.9 156.7 155.9 158.6 161.1 161.3 160.5 160.4 160.2 159.2 157.8 155.6 149.7 142 134.5 129.1 125.9 122.9 122.4 125.8 128.6 129 130.7
278.8 281.3 281.4 279.1 277.6 276.4 275.2 274 273.6 270.7 266.7 263.3 260.8 258 255.2 252.4 249.5 248.4 246.6 242.9 233.6 225.9 218.4 208.7 204.3 202.4 200.9 200.7 199.8 196.6 192.1 189 188.3 188.1 186 181.1 179 174.4 168 167.8 176.6 178.8 176.2 175.4 180.2 191.6 198.7 214.9 225.8 233.9 234.2 243.6 249.8 260.6 264.8 267 269.3 271.8 272.4 269 266.7 264.5 262.4 259.9 257.2 255.7 254.6 255.5 256.4 254.7 256.3 260.5 261.8 262.2 261.2 260.2 258.5 255.7 253 250.2 249.3 249.7 249.4 247.9 245.9 243.3 239.8 236.5 233.6 229.8 226.5 221.4 218.4 217.1 216.8 216.2 213.4 210.4 206.4 198.7 194.9 180.5 173.3 185.7 191.1 194.3 194.3 191.5 192 196.8 197.2 197.4 195.2 195.1 195.8 196.3 196.6 196.2 195.8 195.6 194.9 194.2 192.7 189.7 185.9 181.9 181.1 181.5 182.3 182.2 181.5 180.8 180.2 177.4 172.6 169.9 172.4 170.1 165.1 161 159.5 158.7 160.5 164.1 165.3 165.5 165.2 166.1 167.7 169.2 169.8 171.2 173.4 175.8 176.4 177 178.4 179.7 179.8 178.1 177.4 179.7 181.4 177.6 173.1 168.5 165.1 162.6 161.3 160.2 156.9 155.9 155.7 155.5 156.5 157.7 158.8 159.7 159.6 158.6 158.4 161.6 163.3 162.7 162.4 161.6 160.5 158.7 157 152.8 144.6 136.4 130.1 126.6 124.1 122.5 126.4 129.4 129.7 130.8
286.7 285.8 284.1 282.6 279.3 277.8 276.6 275.2 274.7 273.4 269.7 265.8 263.5 260.9 258.1 254.8 251.1 249.2 247 244.7 237.8 227.7 221.1 211.2 205.2 202.5 200.9 200.9 200.5 197.8 193.2 189.2 188.5 188.5 188.7 185.2 182 178.4 171.5 167.7 176.8 181.1 178.5 177.2 180 187.8 196.1 207.6 222.1 236.6 235.6 238.3 248.2 256.3 264.6 266.7 268.6 270.7 274.1 273 270.9 269.1 266.8 263.6 260.8 258.5 256.9 257.7 258.4 257.2 256.4 260.4 262.5 264.4 264.1 263.1 261 258.3 255.5 252.8 251.8 251.4 251.3 249.7 247.8 245.2 240.5 236.5 230.9 227.1 227.2 224 219.6 218.3 218.3 217.5 214.6 211.6 208.1 197.8 193.4 181.1 174.5 185.7 192.4 195.7 196 195.3 194.3 195.1 198.3 199.5 196.9 195.9 196.6 197 197.8 198.1 195.9 195.4 195.7 194.6 192.6 190.1 186.7 183.2 183.6 182.8 185.1 184.4 183.7 183.1 182.4 180.6 176.9 171.8 169 166.7 162.9 161.3 161.1 160.8 161.6 166 167.7 168.2 168 167.8 168.6 169.1 169.7 171.1 172.9 175.7 177.1 178 178.9 180.3 181 180.2 178.7 180 181.3 178.7 174.9 170.7 167.4 165.3 165.1 164.9 162.2 160.3 159.8 158.8 158.9 160.2 161.1 162.8 163.3 162 160.5 161.1 164.1 164.8 164.4 163.2 161.1 159.3 157.5 154.3 146.5 138.6 131.3 127.5 123.9 123.1 126.9 130.2 130.4 131.4
290.2 288.5 286.8 285.1 281.6 279.2 278.1 275.8 276.2 276.7 273.5 268.6 266.1 263.6 261 256.8 253.3 250.4 248.4 246.3 240.5 230.1 221.4 213.6 205.7 201.9 200.9 200.8 200.5 198.2 194 189.6 188.5 188.5 188.5 185.7 182.7 182 171.1 167.9 176.3 181.7 180.4 178.5 180.4 185.7 193.5 201.7 217.6 230.2 237.4 237.3 245.2 252.6 263.4 268.1 268.7 269.9 273.2 273.7 273.6 273 271 267.7 264.7 262.9 260.8 258.6 261.7 260.3 258.5 260.3 263.7 265.8 267.1 265.7 264.1 260.8 257.9 256 254.1 252.9 252.6 250.7 248.8 246.6 242.4 239.5 233.7 226.3 225.1 226.4 222.5 220.2 220 218.9 215.8 212.5 209.1 201.8 192.8 182.2 174.5 190.8 193.8 197.3 198.8 199.7 197.6 195.4 196.1 198.3 197.4 196.7 197.4 198.5 199.9 199.5 198.5 194.5 194.5 193.9 191.8 189.4 185.8 184.9 186.6 184.5 187.8 186.9 185.9 185 184.3 182.9 181.2 175.8 170.5 167.7 165 164.1 163.9 163.4 163.2 168.6 169.8 170.5 169.6 169.6 169.8 170.2 170.6 171.2 173.4 175.5 177.3 178.5 179.6 180.8 181.6 181.2 180.4 180.2 182.1 181.4 177.9 173.4 169.9 167.7 166.8 167.8 166.2 164.3 163.1 161.8 161.4 162.5 163 164.8 166.1 165.1 162.9 161.8 164.1 165.7 165.5 163.9 161.5 159.2 157.4 154.9 147.7 140.6 132.7 127.9 124.4 123.4 126.1 130.6 131.2 132.2
293.6 291.3 289.4 287.7 283.8 280.9 278.4 277.8 278.7 279.4 277.6 272.5 269.4 266.7 263.8 259.9 256.4 251.9 249.7 248 242.1 232.5 222.6 218.4 208.4 202.1 201.2 200.5 200 197.8 194.7 189.6 187.9 187.2 187.8 185.9 182.1 178.8 166.5 170 175.6 181 181.6 180.7 181.6 186.3 192.2 200.1 212.2 227.1 240.6 237.9 241.4 250.4 260.3 268.7 269.3 270.4 272.3 274 274.8 275.4 275.1 271.6 268.6 266.5 263.2 262 263 263.3 261.3 260.1 263.9 267.1 268.8 268.5 266.7 263.3 260.2 258.3 256.4 254.9 253.7 251.6 249.8 247.9 245.5 243.4 239.7 231.6 227.2 226.5 225.5 221.4 221.2 219.8 217.5 213.4 210.7 206.5 194.9 181.8 174.9 191.9 194.8 197.8 201.5 203.4 200.3 198 197.3 197.4 197.8 198.4 199.3 199.9 200.6 200.4 200.8 196.9 191.6 190 189.7 187.2 186 188.2 189 187.8 189.3 189.1 187.5 186.8 186 184.9 183.5 179.7 171.6 171.6 170.1 168.5 167.2 165.9 164 170.2 172.1 172.6 172.6 172.2 171.6 171.8 172.1 172.3 173.1 175.2 177.1 178.5 179.9 181.2 182 182.3 181.4 180.4 181.5 182.4 179.2 175.3 172.1 171 168.3 169.5 169.4 168.1 166.3 164.5 163.3 164.1 164.6 166.6 167.8 167.5 165.7 164.1 163.5 165.9 165.7 164.3 161.9 160.3 157.2 154.8 147.6 141.5 133 127.5 128 124.3 126 130.5 131.8 133.1
296.9 294.6 292.4 290.2 287.3 284.8 282.8 281.7 281.4 282.5 281.8 275.5 273.3 269.5 266.1 262.4 258.8 254.5 251.1 249.7 244 234.4 226.5 221.9 211.4 203.7 201.9 201.2 200 197.5 194.5 190.7 188 185.7 185.9 184.6 178 173.4 165.7 168.9 173.5 179.4 182.5 181.7 182.6 187.1 192.8 199.2 208 221.5 238.2 241 242 248.3 257.1 266.8 270.3 271.1 272.7 275.4 275.2 276.1 276.4 274.6 272.1 269.3 265.7 263.7 262.7 265.5 264 261.6 264.5 268.3 269.8 270.7 269.2 265.8 262.8 260.7 258.8 257.2 255.3 252.6 250.6 248.7 247.3 245.3 243.1 237 232.8 228.5 228.8 222.1 222.1 221.1 217.7 214.4 211.2 207.8 196.4 182.5 177.3 191.1 195.8 199.3 203.4 206.4 204.7 201.7 200.3 198.4 198.9 200 200.8 201.2 201.6 202.5 201.9 200.2 195.4 192.2 189.4 187 187.7 190.5 191.5 190.1 189.1 190.9 189.6 188.2 187.1 185.9 185 180.8 176.9 177.5 174.9 172.3 169.9 168.6 166 165.7 172.8 174.3 174.6 174.2 173 173.3 173.5 173.7 174 175 176.8 178.3 180.4 181.6 182.3 183.1 182.5 181.3 182.4 182.7 181 177.9 173.7 172.2 170.1 171 171.3 170.3 168.5 166.8 165.2 165.7 166.6 167.9 169 169.8 168.5 166.1 163.6 164.4 165 164.9 163.5 161.3 157 153.4 147.9 140.8 131 128.2 130.6 125.6 125.5 129.6 132.4 133.8
300.5 297.8 296.1 294.5 292.4 290.7 288.8 285.6 284.8 284.2 286.1 279.2 276.4 272.9 268.8 264.1 261 256.5 252.4 250.5 244.4 236.8 229.9 224.1 214.1 205.7 202.3 201.3 200.3 197.3 193.8 189.4 186.7 184.4 185 185.9 177.2 173 168.4 167.7 172.2 177.5 181.7 183.2 184.2 188.8 194.6 199.7 205.7 217.1 232.6 244 242.9 244.9 254.4 263.8 268.9 272.5 272 276.5 275.6 276.2 278.4 276.3 272.8 270.7 267.8 265.1 264.1 266.3 267.1 264.2 265.1 267.8 270.9 271.8 272.4 269.2 265.8 263.3 261.6 258.5 258 254.4 251.3 249.3 248.1 246.9 245.1 242.5 238.2 233.2 230.3 224.3 225.9 222.2 219 215.3 211.6 207.8 197.5 180.9 176.8 190.9 195.9 201.9 205.6 208.6 208.4 206.4 204 201 200.5 201.5 202.3 202.6 203.3 203.9 203.4 202.8 199.6 195.2 191.6 188.1 189.7 192.5 193.5 192.5 191.5 192.8 191.4 189.8 188.4 187 186.1 179 183.5 181.2 178.7 176.2 173.7 171.3 169.3 166.9 171.2 174.5 175.4 176 174.8 174.7 174.9 175.2 175.4 175.6 176.9 179 181 182 182.8 183.5 183.3 182.3 183 183.5 183.3 179.7 175.6 173.3 171.9 171.1 172.5 171.7 170.7 169.1 167.5 167.4 167.9 168.2 169.2 171.4 170.8 168 164.9 162.9 164.6 165.6 163.8 161.3 157.1 151.1 146.5 139.3 131.1 131.3 133.3 133.2 125.2 128 131.9 133.9
303.5 300.7 299.1 298 297.9 296.8 294.7 290.5 289.4 289.8 289.1 284.1 279 275.6 271.5 266.5 263 258.6 255 248.4 246.7 236.5 230.5 224.5 216.4 207.6 202.9 201.4 200.2 196.7 192.5 188.3 183.6 183.5 182.5 186.7 178.9 172.4 170.5 166.5 171 176.2 181.8 184.5 186.6 190.5 195.8 201.7 207 216.3 229.3 247.4 246.3 244.8 252.5 260.5 267.1 270.4 272.1 274.2 275.1 275.1 275.1 276.5 274.8 273.1 268.9 266.8 265.8 265.6 268.8 267.7 265.6 266 269.9 272.7 273.1 272.1 268.7 266.2 264.4 261.7 260.4 256.7 253.5 250.3 249.2 248.1 247 245.3 241.9 237.4 233.1 228.9 224.9 228.9 220 216.2 212.4 208.2 199 181.6 177.9 189.7 197 202.9 207.1 210.7 211 209.3 206.7 204.8 203.1 203.4 203.6 204 204.5 205.1 205 204.4 202.2 198.2 194.4 190.2 192.3 194.4 195.4 194 192.9 193.4 193.1 191.6 190.3 188.9 185.6 184.8 185.6 183.9 181.4 178.9 176.4 174 172.4 169.7 166.8 174.9 176.5 177.5 176.7 176.1 176.4 176.6 176.9 177.2 177.7 179.6 181.6 182.5 183.3 184 184.6 183.1 182.8 183.2 182.9 181.6 174.6 173.9 172.2 171.9 171.9 172 171.9 170.7 169.7 168.7 168.2 168.3 169 170.8 171.6 169.8 166.8 164.3 163.2 163.8 162.8 159.9 154.9 147.6 143.4 135.9 133.4 135.6 136.7 136.2 133.4 129 130.5 133.6
306 303.4 302 301.9 301.8 301.6 299.4 297.3 294.7 295.4 292.9 287.3 281.8 278.5 274.3 269.6 265.4 258.8 249.1 251.6 246.5 236.9 230.2 223.5 215.8 208.8 203.4 200.9 199.6 196.1 192.6 189.1 181.8 180 180.2 185.7 180.4 172.6 170.5 166.7 170.2 175.4 181.1 185.6 188.6 193.3 197.4 203.9 210.6 217.4 230 246.1 249.1 245.3 249.2 256.8 261.8 269.3 272.3 271.6 274.4 275.1 275.1 278.4 278.3 275.4 272.6 270.1 269.1 267.7 267.4 270.1 268.1 267.6 267.1 270.3 272.1 272.4 270.3 268.1 265.8 264.6 262.4 259.1 255.9 252.8 250.2 249.1 248.2 247.3 245.2 240.9 236.4 233.2 225.1 227.3 225.4 217.3 212.9 207.5 197.8 185.1 177.9 187.4 197 203.4 207.6 211.5 212.9 211.5 209.9 208 205.9 205.3 205.2 205.2 205.6 206.1 206.3 204.8 203.2 201.1 197.4 193.4 195.7 196.4 196.7 195.7 193.9 194.4 194.8 193.4 191.9 190.3 186.6 188.1 187.3 186.4 183.9 181.7 179.6 176.7 174.6 171.8 169.3 170.3 177.2 179.5 178.3 177.7 177.9 178.2 178.5 178.7 179.2 180.4 181.8 183 183.8 184.4 185 184.3 183.1 182.6 183.1 182.7 179 175.7 174.4 172.9 172.8 172.6 172.5 171.9 170.7 169.5 168.8 168.8 168.4 170.1 171.5 170.7 167.6 164.3 161.3 161.3 159.6 156.3 152.2 143.9 135.4 135.2 136.8 139.7 140.1 138.2 136.5 133.4 127.6 133.4
307.7 306.3 304.5 304.5 305.1 305.6 304 302.2 300.6 299.6 295.8 289.3 283.9 280.2 274.9 270.5 261 252 251.9 251.8 243.5 236.1 227.3 219.8 214.8 208.3 203.3 199.2 198.1 195.5 192.4 187.5 179.2 177.4 178 183.8 181.1 171.9 170.3 166.4 169.8 174.7 181.5 186.9 190.4 192.6 198.1 206.2 211.8 217.7 227.4 241.2 252.3 248.3 248 255.9 257.1 266.4 275 272.6 271.7 276 275.5 275.1 280.6 278.7 276.3 273.6 272.3 270.3 267.7 266.2 268.6 267.4 265.2 265.5 266.7 268.4 270.2 269.9 268.7 265.5 263.9 260.1 258.4 255.3 252.3 250.2 249.3 248.5 247.5 243.6 238.7 235.7 225.8 225.9 224.4 217.4 212.7 206.3 197.7 187.8 179.8 186 197.5 203.8 207.9 212 214.6 214 212.8 210.5 208.7 207 206.8 206.6 207 207.1 206.6 206 204.5 203 199.4 194.1 197.8 197.8 198 197.9 196 196 196.5 194.7 193.1 191.5 188.7 189.8 189.2 188.5 186.9 184.8 182.3 179.4 176.8 174.3 171.8 169.1 175.1 178.6 179.6 180 180.1 180.2 180.3 180.5 180.9 181 182.2 183.3 184.4 185 185.6 185.5 184.2 182.8 183.6 183.5 180.5 176.6 175.3 173.8 173.4 173.5 173.3 173.2 172 170.6 169.3 169.3 168.4 169.2 170.6 170.6 168.3 164.9 161.3 157.9 156.3 151.3 147 138.7 137.1 138.9 141.3 143.1 143.3 142.4 140.4 135.4 128.6 129.9
309.3 308.1 306.8 306.4 306.8 309.2 307.1 304 303.5 302.6 298 290.8 286 281.8 276.2 269.3 256.7 252.6 251.1 247.8 241 234.2 225.9 218.5 213.1 208 203.9 198.2 197.5 195.5 191.6 187.1 179 174.9 175.6 181.7 181.6 172.3 170.4 167.1 168.5 173.4 181.5 187.7 192.1 195.4 199.2 204.3 211.6 218.5 226.7 241 255.2 252.3 247.8 253.4 258.9 262.2 271.6 276.7 272.7 270.9 275.1 275.6 275.2 280.1 278.6 276.8 274.3 271.5 269 266.7 263.2 262.8 264.1 263.4 263.4 263.5 265.9 266.1 268.8 267.1 265.2 262.7 260.5 257.4 254.2 251.7 250.2 249.6 248.9 246 241 236.5 226.5 225.9 220.6 217.1 212.1 205.8 197.6 188.7 179.7 180.7 195.7 204.4 208.5 211.7 215.2 215.5 214.5 212.7 211.2 209.3 208.6 208 207.6 207.1 206.6 206.3 205.9 204.4 201.1 196.4 199.6 199.6 199.5 199.5 197.9 196.9 197.9 196.7 194.8 190.5 192.3 191.9 191.4 190.4 189.1 187.1 184.4 182.2 179.9 177.3 174.7 171.8 169.7 178.5 180.5 180.7 181.5 182 182.1 182.3 182.2 182 183.1 184.2 185.1 185.8 185.8 185.7 184.5 183.1 183.7 183.8 181.6 177.3 175.6 174.2 172.8 173.3 173.9 174.2 173.2 171.6 170.1 169.6 168.7 168 169.5 170.1 168.2 165.3 161.7 157.2 152.5 147.5 139.6 140.3 144.3 145.4 146.5 146.9 147.1 145.8 142.8 136.9 133.6 134.6
309.9 309.2 308.5 308.7 309.5 311.3 310 307.1 306.2 304 298.3 291.4 286.4 281.9 275.2 265 255 249.5 246.5 243.7 237.9 230.4 223.7 217.5 212.2 208.2 203.7 198.6 197.4 195.1 190.6 185.1 177.8 173.2 173.9 178.5 181 172.2 170.6 168.9 168.1 173.7 180.6 187.4 192.6 195.1 201 205.5 211.5 219.3 227.4 243 257.7 254.9 249.7 250.2 259.7 261.6 266.2 273.2 276.3 272.5 270.9 271.4 273.1 271.9 271.6 273.4 274.4 272.1 269 266.4 260 256.3 256.7 257.8 259.3 260.2 261 261.3 262.1 266.6 266.3 264.4 262.1 259.3 256.4 253.5 250.7 250 249.2 247.3 242.5 237.6 226.9 226.4 220.7 214.9 210.9 204.5 196.5 187.8 181.8 179.8 191.9 204 208.1 211.5 214.9 215.8 215.8 214.3 212.5 212.1 211.1 209.4 208.2 207.1 206.7 206.3 205.9 204.7 202.2 198.9 201.2 201.1 201.1 201.2 200.4 198.7 198.6 198.4 196.4 193.3 194.7 194.2 193.1 192.1 191 189.3 187.2 185 182.8 180.5 177.9 175.1 172.3 172.8 178.7 181.5 182.4 182.9 183.6 183.6 183.5 183.3 183.9 185 185.5 185.8 185.7 185.5 185.1 183.4 183.5 183.4 182.2 178.2 175.9 174.5 173.1 172.6 173.6 173.7 173.8 172.6 170.8 169.7 168.9 168 168.1 168.9 167.9 164.8 160.7 155.9 150.8 140.6 141.9 142.6 147.9 149.5 150.1 150.1 150 148.5 145.6 140.9 134.8 133.5
310.3 309.8 309.5 311.6 312 312.4 311.4 309.6 307.5 304.5 298.1 287.6 282.1 274.9 266.6 259.4 251.6 246 243.5 239.4 234.2 226.8 221.3 215.3 210.6 206.7 202.5 197.7 195.5 193.3 189 182.7 175.5 173 172.6 175.7 179.1 172.5 170.8 169.9 166.6 174.1 178.2 187 193.9 197.8 203.5 207.3 213.6 220.9 228.7 247 259.6 256.4 252.1 249.7 256.9 261.9 262.3 267.1 272.4 274.1 271.4 268.4 266.4 264.3 262.5 260.9 263 265.2 266 263.1 258.9 255.1 252 250.2 252.3 255.7 256.6 257.1 253.1 257 263.6 264.3 262.9 261.2 258.2 255.3 252.6 250.3 249.5 248.4 244.2 239.2 229.5 227.8 221.3 211.6 206.2 199.6 196.1 187.9 183.4 180.9 182.5 205 208.7 211.4 214.3 216 216.3 215.5 213.9 213.9 212.8 210.7 209.4 208.2 207 205.9 204.3 203.2 202.4 199.8 202.2 202.7 203 203.2 202.5 200.8 199.8 200 197.8 197.4 197.1 196.1 195 193.9 192.8 191.5 189.8 187.8 185.5 182.7 181 178.4 175.8 174.3 172.7 180.4 183.5 184.4 184.9 184.9 184.5 184.5 184.8 185.1 185.5 185.8 185.7 185.5 185 184.1 183.3 182.4 181.8 178.6 176.1 174.7 173.5 172.5 173 173.3 173.9 172.8 171.4 169.9 169.1 168.3 167.5 166.8 166.6 163.3 158.3 154.4 144.8 147.4 147.8 144.5 149.2 153.1 153.8 153.5 153 152 149.5 146.1 139.8 133.9
309.3 309.6 310 313.1 313.7 312.4 312.1 311.3 309.1 305.1 296.7 284.2 275.8 267.6 260.9 254.2 246.7 242.4 237.6 234 229.8 223.4 218.5 213.4 209.1 204.8 200.9 196.4 194 191.5 187.5 180.4 175 172 170 172.6 176.7 172.1 170.1 170 167.5 174.1 178.6 187.4 195.7 200.7 206.1 209.4 215.9 223.5 229.2 247.2 263 258.2 254.5 251.3 254.7 263 261.7 261.1 264.6 267.4 266.4 271.8 268.1 264.4 260.9 257.2 254.3 250.8 252.7 253.6 253.2 251.1 248.7 247.1 245.8 249 251.9 253.4 252.3 249.8 251.1 257.3 262.2 261.2 259.1 256.3 253.8 251.4 250 247.8 244.9 239.7 232.9 228.6 222.4 214.6 206.2 197.3 193.1 188.5 185 182.1 181.9 200 210.8 212.1 213.9 216.3 216.8 216.6 215.4 215.1 214.8 212.5 210.6 209.2 207.8 206.9 204.9 202.9 201.6 200.6 201.9 204.3 205.1 205 204.5 202.8 201 201.4 197.5 199.7 199 198.1 197.1 195.9 194.5 193.1 191.5 190.3 188.2 184.9 183.6 181.4 178.9 177 175.2 173.4 183.9 185.7 186.2 186.4 185.7 185.3 185.2 185.1 185.4 185.7 185.7 185.3 184.5 183.5 182.5 181.6 179.7 178.1 176.3 175.1 173.9 172.6 172.7 173 173.8 173 172.1 171 169.7 168.7 167.4 164.4 164.5 161.3 155.3 146.2 149.4 150.7 149.8 147.6 148.3 154.5 156.7 156.3 156 155.6 153.3 149.2 144.6 136.5
308.4 308.9 309.5 312.5 314.9 312.9 312.2 310.4 308.1 304.4 295.3 281.6 272.9 264.5 256.7 250.6 245.4 240.6 236.1 231.4 226.9 222.8 218.4 213 208.6 204.7 200.1 195 191.9 190 186.2 178.1 173.4 170.5 168.2 167.8 170.6 169.6 169.5 167.4 166.3 173.8 179.9 186.5 196.5 203.4 208.6 213 219.8 226.3 231.2 245.6 261.2 260 258.3 255.2 253.6 260.6 262 261 259.8 257.7 256.4 257.2 258 255.7 253.4 250.8 251 250.8 248.8 245 243.4 241.3 241.2 241.5 240.9 243.9 248.1 250.1 249.6 244.5 241.6 244 248.8 253.6 256.6 255.9 254.8 253 250.4 248 245.2 240 234.6 228 225.3 217.4 208.7 200.1 195.2 191.7 187.8 182.9 181 199.8 211.1 212.9 213.4 215.4 216.6 216.8 216.9 216.7 216.1 214.4 211.9 210.2 208.6 206.9 205.3 203.4 202.7 200.8 202.4 204.6 206.1 206.6 206 204.9 202.8 202.2 200.5 201.1 200.5 199.8 199.2 197.8 196.5 195.1 193.9 192.7 189.7 187.3 185.7 184.3 182.5 180.5 178.7 174.3 178.1 184.6 186.7 187.8 187.2 186.9 186.3 185.8 185.6 185.7 185.6 184.4 182.9 182.1 181.3 180.4 177.3 176.5 175.8 175.3 173.9 172.1 171.1 171.6 173 173.3 173.2 171.5 169.9 168.2 166.3 163.4 156.6 152.9 149.9 152.5 153.4 153.3 151.9 150.2 148.8 153.7 158.3 158.5 158.2 157.9 155.5 152.6 148.2 140.5
309.2 307.6 308.7 311 316.2 314.1 310.1 307.4 305.4 301.4 291.7 280.2 270.6 264.2 256.7 251.9 246.7 243.1 238.5 233.8 228 223.5 218.2 212.8 208.2 203.1 198.6 193 189.6 187.1 184.2 177.9 173.2 166.7 168.8 168.9 166.8 168.4 167.6 166.4 170.1 174.2 180.2 187.2 197.9 206.3 209.3 215 222.3 230.6 236.6 246.5 255.8 261.8 261.9 258.1 254.2 258.1 263 262.1 259.6 256.8 253.5 248.8 245.4 242.5 238.8 236.2 234.5 231.8 232.4 232.8 233.8 232.1 230 233 236.5 239.9 244.1 246.5 246.1 242.9 235.4 234.5 236.9 240.1 244.7 249.1 251.9 252.1 250 248.1 245.4 240.6 234.9 228.1 225.7 221.3 213.2 205.8 200.9 196.4 188.9 184.2 181.5 196.2 207.9 214.4 214.3 214.3 216.3 217 217.8 217.7 217.1 216 213.4 211.2 209.3 207.4 205.1 202.7 201.3 200.2 202.4 204.6 206.7 207.9 207.4 206.8 204.8 202.5 201.9 202 202.1 201.8 201.5 200.3 198.9 197.7 196 194.9 192.4 190.1 187.3 185.6 184.4 183.1 181.5 179.2 175.9 178.2 186.7 188.3 188.6 188.8 188.3 187.8 187.1 186.3 184.3 182.8 181.3 180.7 180 179.1 175.8 173.9 174.4 175.7 174.4 171.5 170.2 168.6 172 172.7 173.2 171.1 168.9 167.1 164.9 158.7 152.9 153.3 154.1 155.5 156.4 156.4 154.5 152.9 151.8 152.4 158 160.5 160.4 159.6 158.3 155.3 151.8 143.9
309.8 309 307.8 308.6 312.7 309.8 303.8 300.7 296 290.9 284.8 277.3 269.8 264.3 258.6 254 250.6 246.2 241.1 236 229.8 222.7 215.7 211.3 207.9 204.1 197.7 197.5 189.1 185 181.5 176.4 173.3 166.6 170 170.3 168.3 166.4 170.4 170.8 170.3 172.4 181.7 189.5 203.2 209.8 210.9 216.6 225.3 231.5 241.5 247.6 255.7 262.5 264.1 260.5 256.2 254.5 260.2 263.1 259.8 256 253.1 249.7 244.4 241.5 237.6 228 223.3 217.9 220.1 220.9 221.8 224.6 227.8 232.2 234.3 235.8 239.8 242.3 242.9 240.1 230.5 228.8 230.8 232.9 235.1 237.6 241.6 244.6 248.5 247 244 239.9 234.5 227.9 226.2 223.8 219.9 212.9 205.6 200.3 191.4 184.4 183.7 196 207.6 214.7 215.2 214.4 215.9 217.7 217.8 217.7 217.6 217.2 214.9 212.3 211.5 209.3 206.7 203.9 201.7 201.1 201.3 204.2 207.5 208.7 208.9 208.2 207 204.1 204.6 204.5 204.7 204.1 203.6 202.7 201.5 200.2 198.1 196.7 195.2 191.7 188.9 187.3 186.2 185 183.7 182.9 182.8 179 176.3 181.8 189.7 190.2 189.4 188.6 187.8 187.3 185.5 182.3 179.9 178.7 177.4 176.8 175.3 172.9 172.2 175.7 174.5 170.4 169.8 167.9 167.1 171.3 172.5 171.6 168.7 165 159.9 156.9 158.2 157.6 158.1 159.2 159.4 159.5 157.5 155.8 155 154 157.2 162.4 162.5 162.1 161.3 158.7 154.8 148.4
312.9 312.2 309.6 307.1 306.6 302.7 298.7 293.7 289.9 285.2 280.7 274.4 270.2 266 261.6 258 253.2 246.8 242.8 237.5 231.3 219.4 213.9 210 206.7 202.4 198.8 199 190.7 183.7 179.5 176 172.4 169.2 171.7 171.9 171 171 170.9 170.7 170.5 173.1 185 194.3 208.9 215.8 212.3 216 223.9 232.7 242.8 249.1 255.6 263.1 263.7 260.8 256.5 252.2 254.9 259.5 256.6 253 250.4 246.6 243.2 238.1 225.7 218.9 217.1 217.7 216.3 219.5 223.6 227.3 230.7 231.1 231.7 231.4 233.8 236.7 237.8 235.5 225.3 221.7 226.2 226.8 228.7 231.2 234.3 236.8 238.2 237.2 236 235.1 230.7 227.8 226.4 224.9 221.7 218 210.9 202.7 193.6 185.5 184.2 192 206.1 214.3 217.7 216.5 215.8 216.7 217.1 217.5 218.2 218.1 215.8 214.1 213 211 208.4 206 203.6 203.5 202.8 203.2 206.8 209.1 209.2 209.4 209 206.2 206.5 206.9 206.5 206.2 205.8 205.1 203.9 202.9 200.6 198.8 196.9 194.2 190.8 189.8 188.5 187.3 185.7 185.9 185.8 186.7 182.9 179 179.5 190.2 190.1 189.3 188.8 188.2 186.4 184 180.1 178 174.6 174.1 173.5 172.1 171.8 171.6 171.7 170.6 170.6 170.6 170.3 167.4 164.4 168.2 163.7 159.3 158.2 162 162 161.6 161.8 162.4 162.8 162.4 162.1 159.8 157.8 155.9 156.4 162.1 163.5 164.4 163.4 161.2 157.4 150.6
315.1 313.9 311.6 308 304.7 302.4 299.1 295.7 291.9 285.4 279 276.1 272.3 268.1 263.6 258.7 253.6 249.8 246.3 236.3 226.8 217.5 211.8 208.8 205.1 199.8 202.3 200.1 192.9 185.5 180.4 176.6 172.3 171.3 172.8 173 171.6 171 170.8 171.2 171.3 174.1 187.3 197.6 213 216.2 213.3 215.6 221.1 231.2 242.9 250 253.8 259.4 263 260.1 254.7 250.9 250.3 248.7 245.6 243.7 242.6 241.4 236.3 226.1 220.6 217.3 216.3 218.6 218.2 221 225.2 229.7 233.1 234.5 233.4 231.3 226.9 230.4 230.9 229.3 220.5 217.2 217.4 221.6 221.1 225.2 229.7 230.6 232.3 234.1 232.6 231.9 230.4 227.6 226.1 224.3 224.9 220.4 214.5 202.8 195.7 186.6 185.5 191 203 215.1 218.7 219 217.5 217.1 217.4 218.2 219.4 219.3 217.7 215.8 214.6 214 211.7 209.2 206.9 205.6 203.9 203.4 206.3 209.6 210 210.4 210.2 208.7 208.8 208.9 208.3 207.6 207.5 207.6 206.1 205.1 203.3 201.3 198.7 195.8 192.7 191.7 190.8 189.2 188.3 188.6 187.7 189.3 188.1 186.3 180.7 185 189.6 190 189.7 189 187.1 184.9 182.2 178.3 176.9 175.8 175.2 174.2 173.9 172.2 171.4 171.8 172 172 172.1 170.8 167.3 163.6 165.8 164.9 165.3 164.5 164.8 164.9 165.3 165.4 165.9 165.8 165.5 164.8 162 159.2 158.1 160.5 165.3 166.2 165.3 163.4 160 153.8
316.3 316.2 313.9 309.9 305.8 303 300 296.5 292.5 286.8 280.9 277.6 274.7 270.1 265.2 259.5 254.3 247.1 240.7 235 224 214.9 210.2 206.7 202.4 199.8 202.8 200.8 194.3 187.7 181.4 176.5 170.4 171.6 173.6 173.3 171.8 170.9 171.7 173.3 172.9 176.7 188.5 199 213.8 217 214.7 215.9 219.2 230.4 238.8 248.3 251.9 256.3 259 258.5 253.8 250.7 248.8 248.3 244.4 240.3 236.1 231.6 227.3 223.7 220.9 217.5 217.1 219.4 220.3 222.8 227.3 231.8 235.3 236.5 234.8 231.7 225.7 224.4 224.5 221.7 217.4 216.3 217.4 217.5 218 219.3 213 225.1 228.3 230 231.6 233.6 231.3 227.3 226.7 223.9 224.1 222.2 216.7 202.8 201 189.5 185.3 192.2 203.2 215.6 220.4 220.3 219.9 219.6 219.4 219.4 222.2 221.4 220.1 218.2 216.5 215.8 215 212.7 210.6 207.5 206.1 205.4 206.3 209.3 210.7 211.2 211.5 209.6 210.3 209.9 209.7 209.6 209.6 209.7 209.3 207.6 205.9 202.8 200.1 197.2 194.5 193.6 192.6 191.5 190.3 189.9 190.5 191.2 191.6 190 186.4 180.5 181.9 187 188.1 189 187.4 185.1 182.3 178.7 180.6 179.1 178.5 177.6 177.6 176 174.8 173.8 173.4 173.6 173.6 171.7 170.3 170.9 169.7 168 167.6 166.7 167.1 167.5 167.6 168 168.8 169.1 168.9 168.2 166.1 163.4 160 159.3 164.1 167.9 167.1 165.6 162.1 157.1
318.6 316.4 314.2 310.7 305.9 302.9 299.8 297.7 293.1 288.9 283.2 278.9 276.3 270.7 263.1 254.2 249.2 244.9 237.9 230.2 222 214 209.4 205.2 201.6 200.5 202.6 200.9 195.6 188.2 182 176 169.9 172.9 174.6 174.6 172.2 171.9 173 175.1 176.7 179.6 188.9 198.8 211 216.9 216.7 217.5 219.2 225.1 234.3 245.1 249.6 252.5 254.8 254.9 252.5 249.4 247.7 246.2 241.5 237.7 233.8 229.7 225.4 223.7 222 219.8 218.3 221.3 223.4 225.8 229.7 233 236.1 237.9 235 231.3 224.1 222.7 222.3 218.2 216.7 216.2 217.8 220.4 222.3 226 224.1 216.4 215.8 226.9 229.3 229.7 227.4 226.7 227.2 224 222.4 223 217.3 203.1 202.8 191.1 186.7 198 206.6 217.4 221.3 223 223.2 222.8 222.5 222 224.7 224 222.8 220.6 218.8 218.1 217.5 215.6 213.2 211 210 207.7 208.2 210 211.7 212.3 212.2 210.3 211.6 211.7 211.7 211.6 211.7 211.5 210.9 209.8 207.9 204.6 201.5 198 196.3 194.8 193.7 192.9 192.1 191.4 192 193.1 194.3 193.3 190.9 183.9 181.4 182.4 185.2 186.9 187.2 185.1 181.9 179.3 181.8 181.6 181.5 182.4 181.5 180.2 179.1 177.4 176 176.3 175.9 175.1 174.3 173.6 172.9 171.3 169.8 169.1 169.3 169.9 170 171 171.7 171.7 171.1 171.3 170.3 167.6 163.8 161 161.2 167.1 168.6 167.4 164 158.7
321 318.2 314.7 311.1 305.9 302.9 299.6 296.3 292.5 289.4 284.6 279.2 274.7 265.5 258.5 252.5 247.2 241 234.6 226.8 215.7 213 207.9 204 202.4 201.7 201.1 200.7 196 188.8 182.2 175.6 169.1 173.2 175.4 176 174.1 173.6 173.7 176.6 178.1 181.6 188.3 199 208.1 216.6 216.1 218.9 219.8 222.5 229.3 237.6 245.2 248.3 249.7 250.4 249.9 246 243.6 242.4 239.8 236.5 232.2 228.6 221.9 220.9 221.7 221.7 219.4 222 224.8 226.2 230.3 233.2 236 238.3 235.1 231.1 223.8 220.9 220.3 218.3 217.2 217.4 217.6 220.7 223.6 227.8 226.6 227.6 220.9 211 225.2 225.3 224 226.5 220.7 222.4 219.4 220.6 216.8 205 203.9 188.7 188.3 199.5 210.6 221.3 224.6 225.7 226.8 226.5 226.2 225.4 227.4 227 225.9 223.7 221.1 220.1 220.3 218.6 215.6 214.3 213.6 212.1 210.2 210.9 212.3 213.3 213 212.5 211.7 213.1 213.5 213.4 213.1 212.9 212.2 211.6 210.7 208 203.5 199.5 197.8 196.3 195.2 194.2 193.5 193.2 193.3 194.6 196.4 196.4 194.8 188.2 183.2 181.4 183.5 183.7 185.5 184.5 181.2 179.5 181.7 183.5 184.7 185.7 186.3 184.5 182.2 180.2 178.1 178.2 178.3 177.8 177.1 176.5 175.9 174.7 173.1 171.7 171.4 172.1 172.4 174 174.1 173.6 173.5 173.8 173.3 171.6 167.8 164.6 162.8 164.9 168.1 168.5 165.7 160.3
317.9 318.9 316.8 311.4 307.4 304.8 301.8 297.8 292.3 289 284.1 274.9 268.4 261.7 255.6 250.4 245.1 236.7 226 222 215.8 211.3 206.2 201.9 200.1 200.6 200.9 200.3 195.6 189.1 182.3 175.3 169.4 170.6 176.2 176.8 176.1 175.4 177.4 180.5 180.8 184.8 186.9 198.5 206.1 217.1 216.7 218.9 220.9 222 225.7 230.2 236.1 242.2 244.6 244.4 240.9 240.6 239.6 236.3 233.9 229.6 226.4 221.6 216.4 217.8 220.4 222.6 221.3 222 223.9 225.6 229.8 232.9 236 238.3 235.3 230.5 223 218.9 219 218.5 217.9 218 217.8 220.6 223 227.2 227.9 227.5 229.1 219.2 208.7 223.5 223.1 225.5 220.6 221.2 218.8 216.8 217.2 207.6 204.7 188.1 190.2 204 214.3 223.9 227.5 228 230.1 229.8 229.5 228.9 229 230.1 229 227.1 223.9 222.6 223 222.1 218.1 216.9 215.9 215.4 213.2 213 213.6 214.2 213.7 212.9 212.3 214.1 214.7 214.7 214.5 214.3 213.6 213.3 212.7 210.3 205.7 200.9 198.6 197.4 195.1 194.8 194.7 194.8 194.9 195 197.5 198.4 197.6 193.3 185.9 182.4 181.5 181.4 182.9 182.3 181.5 181.5 181.6 184.2 186.9 188.5 189.2 188.1 185.7 183.2 180.8 180.3 181.3 180.6 179.8 179.2 178.6 177.9 176.6 174.9 172.9 173.4 174.4 176 176.2 175.8 175.9 175.8 175.7 174.9 172.5 169 165.5 164.2 167 168.4 166.7 161.7
317.6 314 311.1 307.4 304.6 300 296.1 292.3 287.8 282.5 277.3 270.6 263.7 258.5 253.8 248.5 241.8 233.5 228.4 222.8 213.6 208.4 203.4 200.4 199.3 199.5 199.5 198.9 193.1 187.5 181.3 174.9 169.9 173.8 175.4 177.1 177.5 178.1 180.4 184.7 183.9 186.4 188.4 195.8 205 218.3 217.5 218.7 222.2 223.2 224 225 228.2 234.1 237.9 239.5 235.6 232.2 228.6 225.1 223 219.1 215.1 213.8 214.1 216.8 219.5 221.2 222 221.4 223 224.4 228.2 231.3 235 237.2 235.1 229.7 222.7 218.6 218.8 218.6 217.8 218 218.3 220.5 223 227.3 228.6 227.2 233.6 226.2 218.6 209.2 215.5 224.8 217.1 214.9 218.4 213.3 213.5 209.7 203.9 191.3 191.7 205.6 216.3 227.8 230.7 230.8 232.6 233 232.6 232.2 232.6 232.6 231.5 229.6 227.4 225.5 225.3 224.9 220.9 220.4 218.5 217.9 216.4 215.2 215.5 215.4 214.6 214.1 213.5 215.1 216 216.1 215.8 215.7 215.2 215 214.1 211.9 207.3 202.3 199.1 197.3 196.7 196.2 196 195.5 195.5 195.1 197.1 198.8 198.8 197.2 190.3 184.8 183.1 182.3 182.2 182.5 183.7 182.5 182.4 184.2 187.4 190.1 191 190.8 188.5 186 183 182.5 183.5 183.4 182.1 181.7 181.4 180.7 179.4 177.8 175.9 175.2 175.7 177.4 178.3 178 178 177.9 177.8 177.6 176.3 172.8 170 166.9 166.1 167.5 166.9 162
318.2 314.8 311.2 306.9 303.4 297 292.1 287.6 282.8 277.2 272.6 267.9 261.9 256 251.1 244.4 236.7 230.8 223.8 216.4 209.9 206.3 203 200.1 198.5 199.2 197.7 196 191.3 185.9 181.5 175.2 170.1 172.8 174.4 176.2 177.8 179.2 183.1 186 186.3 187.1 189.7 193.3 201 218.3 217.2 217.5 221.6 223.6 225.2 224 224 225.6 229.3 231.6 229.2 224.7 221.2 219.4 216.9 214.8 212.1 212.5 213.8 216.3 219.1 221 221.1 221.2 222.4 223.4 226.8 230.3 234.1 237.1 234.4 229 221.5 218.9 218.7 218.7 217.7 217.8 218.1 220.6 223.1 226.2 228.3 227.2 232.6 229.1 223.9 221.4 211.5 224.7 204.7 202.4 215 216.3 213.9 213 206 191.1 192.9 207.2 218.4 229.9 233.1 233.8 236 236.4 236 236 235.2 234.6 233.5 231.5 229.8 228 227.6 226.9 225.3 224 221.8 220.7 219.8 218 218 217.2 216 215.2 214.7 215.8 217.1 217.7 217.4 216.9 216.7 216.3 215.4 213.4 208.9 203.8 200.4 198.2 197.8 196.9 195.4 195.7 195.2 194.8 196.7 198.8 199.5 198.8 193.3 188 185.6 184.1 183.4 183.7 184.9 183.6 183.3 183.8 187.2 191 192.9 193 191.3 188.3 185.1 184.6 185.9 186.1 184.9 183.9 183.6 183.4 182 180.6 178.3 176.7 177 178.6 179.8 180.2 180.1 180 179.9 179.7 178.6 175.9 172.4 169 166.5 167.1 166.7 161
315.1 313.7 310.5 305.7 302 296.4 292.1 287.2 282 275.8 270.8 266.5 260.5 251.2 246.6 239.5 232.6 226.6 219.5 214 209.5 206.5 203.5 199 197.5 197.4 196 192.4 188.4 183.2 177.9 173.1 170.2 169.9 172.9 175.2 177.5 179.3 182.3 186.2 188.1 187.5 189.4 192.4 196.2 204 210.2 214.7 219.3 222.5 225.8 225.3 224.6 223.2 221.5 223.4 223.7 223.8 219.6 216.9 214 212.4 211.1 212 213.6 216.3 219.3 222.6 224.4 222.3 222.7 223 225.8 228.7 233.5 236.9 236.4 228.3 221.7 219.4 219.1 218.5 217.9 217.6 218.1 220.5 222.5 224.5 228.3 226.9 230.8 230.5 225 224.6 221.2 224.4 217.3 215.3 203.7 206.1 207 207.2 196.8 191.4 197.3 209.4 219.2 230.1 235.2 236.2 237.9 239.3 239.4 238 236.4 236.2 235.7 234.5 233.3 230.9 229.4 228.5 229.5 227.5 225.2 223.1 222.3 220.5 220.1 219 217.8 216.7 215.8 216.5 217.9 219 218.5 217.5 217.8 217.1 216.3 214.3 210 205.1 201.5 198.9 198.5 196.6 195.1 194.7 194.2 193.4 194.8 197.1 198.7 199.2 195.9 191.2 188.7 186.7 185.7 183.9 184.6 185 184.7 184.9 187.1 191.1 193.9 194.9 193.3 190.2 187.1 186.4 187.4 187.3 186.9 186.4 186.1 185.4 183.9 182.4 180.2 178.5 178 179.3 180.4 180.8 180.8 180.5 180.6 181.2 180.4 177.8 174.5 171.1 167.8 165.9 164.6 159
311.1 309.7 308.8 306 301.4 296.1 290.9 286.8 280.5 273.4 267.9 261.8 254.9 247.8 241.8 236.2 229.2 222.5 218 213.7 212.6 208.6 204.3 199.1 197.2 195.3 192.6 189.4 184.9 179.8 173.6 170.1 169 167.4 171.8 174.6 177.3 179.3 181.5 185.1 188.1 187.2 189 193.2 194.7 198.8 201 207.8 213.4 218.8 225.4 226.7 225.7 224.4 225 222.4 221.4 223.7 220.4 216 212.9 210.5 209.9 213.3 215.2 216.9 219.8 222.4 222.9 223.5 223.2 223.3 225.6 228.8 232.9 236.7 237.6 229.5 223.5 220.4 219.6 219.7 218.3 218.3 218.5 219.3 221.3 223.4 227.3 226.4 228.6 231.3 226.3 227.3 225.8 224.6 225.2 224 220.2 212.3 202.3 200 197 191 204.2 210.2 218.9 230.6 237.2 238.5 240.2 242.1 241.8 240.2 238.7 237.2 237.6 237.2 236.1 234 231.6 231.6 232.3 230.6 228.3 226 224.9 223.7 222.4 220.9 219.7 218.2 217.9 218.1 219.2 219.9 220.1 219.8 218.8 217.9 216.9 215.4 211.4 206.4 203.1 200.2 198.7 196.3 196 194.2 193.3 192.6 192.7 194.4 196.9 197.6 197.3 194.2 191.3 188.3 186.9 185.9 186.7 187.2 187.2 186.5 187.4 191.7 194.6 195.4 194.8 191.8 189.1 187.5 188.7 188.5 188.2 188.2 187.8 187.2 185.7 184.2 182.4 180.6 178.9 179 180.5 181.1 180.7 180.3 180.4 181.1 181.1 179.7 176.5 172 168.7 165.7 163.7 158
309.9 304.7 303.5 303.3 298.7 292.7 288.5 283 276 268.8 263.2 257.5 251.9 245.4 239 231.3 225.7 220.8 217.6 215.1 215.5 212.1 206.1 202.4 199.7 195.5 191.8 186.2 178.8 176.2 171.9 168.7 167.5 167.9 170.2 173 176.2 179.4 181.3 183.3 185.5 186.2 189.3 192.5 194.5 192.3 193.2 199.4 205.4 213 218.9 226 226.4 225.7 224.1 225.4 221.8 219 217.6 213.6 210.8 208.4 212.3 215.9 217.4 218.8 220.4 223.2 224.4 225.7 225.1 224.2 226.4 229.6 233.1 236.4 238.7 232.5 226.6 221.7 221.5 221.9 220.1 219.8 220 220.1 219.6 221.9 225.7 224.2 224.7 227.9 227.6 228.9 228.7 224.6 228.1 228 224.6 219.6 215 212.4 202.2 192.4 210 210.8 217.8 228.3 237.4 240 241.1 243.3 244.1 242.7 240.9 238.8 238.9 238.8 238.5 235.8 233.9 233.5 234.2 233.3 231.2 229.2 227.3 225.5 224.2 222.7 222.4 220.7 218.5 219.1 220.4 220.9 221.1 221 218.9 218 217.1 215.8 213.1 208.3 204.4 201.4 198.6 197.9 198.1 196.3 194 193 191.7 192.1 193.7 195.2 196.2 196.4 193.3 188.6 187.7 187.6 188.6 189.1 189.6 188.9 188 191.5 194.5 195.3 195.1 192.6 189.7 188.4 189.8 190.4 190.5 189.7 189.4 189 187.4 185.9 184.2 181 179.9 179.7 179.8 180.5 180.3 180 180.1 180.2 180.1 180.4 177.5 173.3 169.9 166.7 163.3 157.7
306.8 302.4 298.3 295.2 292.9 288.7 284.3 278.9 272.7 265.4 259.3 253.5 247.7 241.5 235.8 228.4 223.7 220.2 217.9 216.5 217.1 214 207.2 204 199.6 194 190.2 185.5 176.4 172.6 170.8 169 168.7 169.3 169.7 172.7 175.9 178.4 181.4 183.4 185.5 186 190.3 193.9 195.1 192.5 192.4 193.9 196.8 202.9 210.1 217.7 225.2 226.2 223.7 223 222 219 214.3 209.8 207.1 209.7 215 218.5 220 221.4 222.2 224.8 229 228.4 227.3 226.3 228.1 230.7 233.4 236.4 239.2 234.9 229.3 223.8 223.3 223.1 222 221.3 221.4 221.6 221.4 220.8 223 222.5 223.2 225.4 229.1 231 231.1 225.1 229.9 230.1 228.7 222.3 220.6 213.7 206.4 192.6 212.3 212.5 217.3 225.5 237.4 241.6 243.2 244.8 245.9 245.3 243.2 241.1 240.3 240.6 240.6 238.4 236.2 236.3 235.7 236.4 234.2 232.4 230.5 228.6 226.4 224.9 224.1 222.4 220.5 218.6 220.6 222 222 221.9 219.7 217.6 216.7 215.5 214.2 210.4 206.2 202.7 199.5 198.1 200.8 198.3 195.9 193.9 192.6 191.2 190.9 190.7 191.5 193.6 192.7 188.4 187.9 189 189.5 190.7 192 191.1 189.6 190.6 193 194.3 194.7 192.8 189.8 189 190.2 191 191.7 191.3 190.8 190.5 188.7 186.9 185.4 181.8 179.8 178.2 178.1 179 178.7 178.1 177.9 178.2 178.2 178.6 177.8 174.6 170.7 167.2 162.8 156.9
300.3 293.6 291.9 290 288.6 284.5 279.2 273 266.1 258.3 251.6 246.3 242 236.9 231.2 224.9 221.7 220.9 218.3 216 216.9 214.5 207.8 205.3 200.3 192.3 186.7 179.7 173.6 169.7 169.2 169.3 169.2 169.6 169.8 172.7 174.9 177.2 180.5 183.2 185.1 186.3 189.1 193.4 196.6 193.8 192.5 192.9 193.1 193.9 197.5 206.2 218 224.4 222.6 218.9 215.5 206.9 202.8 203.2 208.5 213.8 218 222.9 224.4 224.6 224.9 226.3 230.6 231.7 230.8 229.3 230.9 233.1 234.2 235.5 239.6 236.3 232.2 226.7 224.2 224.5 224.2 223.7 223.3 222.7 222.2 221.6 221.7 221.7 224.1 226.4 230.5 232.4 232.2 225.4 230 233.5 229.9 224.6 221.8 215.9 207.8 193.6 214.1 214.4 215.5 222.6 232.7 241.7 244.4 246 246.9 247.5 245.8 243.1 241.9 241.6 241.9 241.3 239.4 239.1 238.2 238.6 237.3 235.1 232.9 230.7 228.5 226.5 225.3 223.5 221.7 220.1 220 222.9 223 222.6 221.1 218.3 216.2 215.3 214.3 212.2 208.5 205 201.7 200.5 203.1 201.3 198.9 196.3 194.8 193.8 192.2 192.4 192.1 191 192.7 191.3 189.8 188.4 187.4 190.3 191.9 191.9 190.2 189.9 191.1 192.6 193 191.1 188.4 189.5 191.6 190.9 191.4 191.6 191.4 190.9 189.2 187.6 185.9 182.3 178.4 176.6 175.6 176.7 176 175.5 175.3 175.5 175.3 175.5 175.3 173.8 170.8 167.3 162.3 155.1
297.1 294.5 287.7 284.4 281.2 277.9 272.9 267.7 261 253 246.4 241.1 236.3 231.7 227 223.1 222.1 221.8 217.2 215.6 215.5 211.5 208.1 204.6 199.1 190.5 183.2 175.4 170.9 169.2 169.4 169.5 169.7 168.6 169.6 172.4 173.2 174.4 177.5 180.3 183.4 186.3 188.8 193.1 195.2 193.5 192.4 192.9 193.5 193.4 193.5 194.2 205 215.6 220.8 211.2 200.6 200.7 202 207.4 214.1 218.5 222.6 226.8 227.6 227.7 227.8 227.9 232.4 235.1 235.5 234.1 233.7 236.2 237.2 236.4 239.8 239.5 234.8 229.3 224.9 226.2 226.7 225.2 225.3 224.2 222.6 222 221.5 221.7 224.3 227 230.1 233.8 233.4 226.7 229.3 236.3 231.7 229.3 224.6 219.6 209.6 202.7 207.3 216.3 215.5 218.9 229.4 239.7 244.1 246.9 248 248.5 247.7 245.2 244 242.8 242.5 242.3 242.2 242.2 240.7 239.9 239.8 237.3 235.1 232.9 230.6 228.4 226.6 224.8 223.3 221.7 220.5 223.8 224 223.2 222.5 219.7 216.9 215.4 215.1 213.2 210.4 207.2 204 200.5 204.5 204.2 201.6 198.9 198 196.6 195 194.6 194.6 192.9 195.3 193.8 192.2 190.8 189.2 188.7 190.8 192.3 190.9 189.9 189.7 190.5 190.9 189.9 188.5 190.4 192.4 192.7 191.1 190.8 190.9 191 188.7 186.4 184.7 182.4 177.3 175.4 173.8 173.6 173.4 172.8 172.6 172.6 171.7 170.6 170.6 168.8 167.2 165.7 161.4 155.2
292.5 289 285.6 281 277.7 274.3 269.7 264.2 258.4 251.2 244.4 239.4 232.7 230.3 226.2 223.2 222.7 220.3 214.8 213 211.2 208.9 205.8 201.8 196.3 187.3 180 172.9 169.7 169.4 169.6 169.7 169.8 169.8 168.2 170.8 171.6 176.7 181.8 184.2 183.2 183.2 187 191.5 194.4 192.4 192.7 193.9 194.4 194.3 193.5 193.6 194.6 197.1 202.2 198 200.2 202.9 205.9 212.8 218.6 224.4 228.4 231 232.4 232 231.8 231 234.6 237.9 239.3 238.6 237.1 240.1 240.5 239.7 241.1 242.4 237.1 231.6 225.7 227.7 228.9 226.9 227.3 225.6 223.8 222.4 221.6 222 223.9 227.1 230.3 234.6 234.1 229.2 228.3 236.4 235.4 233.8 225.3 221.3 209.6 205.2 194.6 218.1 217.7 217.8 225.4 235.1 242.1 246.1 249 249.9 249.2 247.3 246.1 244.4 244.1 243.4 244.8 244.6 243.5 242.6 241.7 240.4 237.4 235 233 230.4 228.4 226.5 225.5 224 221.8 224.1 224.9 224.1 223.3 220.2 217.4 216.1 215.6 214.3 212 208.6 204.5 200.8 205.6 206.4 204 201.4 200.3 199.5 198.3 197.8 196.4 195 196.9 196.5 194.9 193.3 191.7 189.9 189.1 189.9 190.1 189.2 189.1 190.6 191.6 189.7 189.4 190.6 192.5 194 191.9 190.5 190.2 190 187.9 185.1 183.2 180.7 177.5 176 174.8 172.4 171.7 171 169.8 168.8 167.1 164.2 163.1 162.5 161.4 160.8 158.7 153.5
287.5 285.6 282.6 278.4 274 269.3 264.1 259.9 254.4 248.1 242.4 237.2 232.3 228.6 225.2 224.8 221.9 218.1 211.6 209 206.7 205 202.3 198 194 185.9 177.5 171.3 169.2 169.4 169.7 169.9 169.9 169.7 169.2 169.6 173.1 177.6 184.1 185.9 186.6 187 188.7 189.6 189.5 193.7 194.4 195 195.3 194.6 193.8 193.9 194.5 195.3 196 197.9 202.1 206.8 210 217.4 224 230 233 235 236.8 237 236.2 236.1 235.9 240.5 243 243.6 241.4 244.9 245.3 244.5 243 244.7 239.2 233.1 226.6 229.5 230.1 228.9 229.2 227.5 225.8 223.5 222.3 222.6 222.8 226.3 229.6 232.1 233.3 232 227.8 236.4 238.3 235.4 227.3 223.4 212.8 203.3 206.8 195.5 216 219.8 220.9 229.6 238 243.1 248.8 250.9 249.4 248.6 246.8 246.7 246.6 245 245.3 246.5 246.2 245.3 244.5 243.1 240 237.9 235.5 232.4 230.2 227.9 227.3 225.4 222.7 223.9 226.1 225.2 223.7 221 218.5 217.2 216.5 215.2 213.4 209.6 205.8 202.8 206.5 208.6 206.4 203.7 202.1 201.7 201.1 199.6 198.1 197.2 198.3 197.9 197.5 196.3 194.7 192.7 191.7 190.4 189.5 188.3 189.1 189.9 192.3 191.1 190.9 191.9 192.7 194.3 194.3 192.8 191.4 189.1 187.1 185.3 182.5 180.7 179.3 177.2 175.7 173.7 172.5 170.9 169.6 164.9 163.6 160.6 156 154.3 154.1 153.6 152 149.7
283.8 281.7 278.6 274.7 268.4 264.2 260.6 256.5 251 246 241.2 236.3 231.2 227.6 225 223.9 220 215.6 208.6 204.7 201.6 199.9 197.6 193.8 190.3 182.7 173.8 170.6 169.4 169.5 169.8 170 169.8 168.8 169.8 169.4 173.7 178.1 183.4 186.6 188.5 189.1 191 192.1 193.7 194.9 196 196 195.8 194.9 194.4 194.8 195.6 196.4 196.7 197.5 202.5 209.4 213.4 220.8 229.2 233.7 236.5 238.2 239.8 240.1 240.3 240.2 238 242.5 245.8 247.4 245.7 249.8 249.7 249 244.5 244.9 240.3 234.2 228.2 229.4 231.6 230.4 230.5 229.2 227.4 225.3 224 223.5 222.8 224.9 226.9 229.5 231.5 231.6 228.3 235 238.2 236.7 228.2 226.4 217 208.6 208.9 209.1 197.3 218.1 220.6 224.9 233.3 239.8 244.7 251.5 251.9 250.1 249.4 249.4 249.1 247.7 247.2 247.6 248 247.7 247.1 245.6 242.3 240.2 237.5 234.3 232 229.4 228.9 227.3 223.2 224.8 226.4 226.5 224.3 222.2 220 218 216.9 215.9 214 210.9 207.6 204.6 207.6 209.6 209.4 206.3 204.2 203.5 203.1 201.9 200.4 200 198.6 199.8 199.7 198.8 197.7 195.7 195.4 194.3 192.9 190.5 188.8 189 190.6 190 190.4 191.9 193.2 194.5 194.7 192.7 192.8 190.3 188.2 186.1 183.8 181.3 179.5 177.5 176.6 175.6 173.4 171.7 167.7 154.5 149.6 149.3 149 148.3 146.9 147.1 146.8 145.9
279 276.7 273.7 270.1 264.6 261 258.8 254.4 249.2 243.9 239.6 234.6 230.7 227.7 224.8 221.7 218.1 212.7 206.1 200 197.1 195 193 189.7 185.5 178.3 172.8 170.9 169.6 169.6 169.8 170.1 169.3 169.5 169.8 169.7 174 178.8 183.6 188.2 190.6 191.3 192.9 193.5 195.4 196.3 197.1 197.9 198.8 198.5 197.8 196.9 196.8 197.6 198.7 200.5 205.5 212.2 217.2 224 233.2 236.9 239.2 240.8 242.5 243.7 244 243.6 242 243.8 247.3 249.3 248.9 253.9 253.4 252.3 247.5 247.2 241 235.7 228.9 229.9 231.6 231.1 232 230.5 229.8 227.5 226 224.6 222.8 223.5 224.6 227.1 229.2 229.8 229.2 232.6 236.4 238.3 229.5 225.9 218.4 211.5 211.8 213.2 209.6 201.6 218.8 222.8 228.9 234.8 238.8 249.4 252.7 252.8 251.2 251.3 251.1 250 249.1 249.3 249.6 249.5 248.3 247.3 244.7 242.1 239.5 235.8 231.8 228.8 227.5 226.3 223.3 224.9 227.4 228 225.1 223.3 219.8 217.3 215.2 214.3 213.2 211.4 207.3 207.3 209.2 210.6 211.7 209.4 206.4 204.8 205 203.9 202.6 201.2 199.5 201.1 201.4 200.9 200 200.2 199.3 198.4 196.8 193.5 190.1 188.3 188.4 188.7 189.6 191.6 193.3 194.4 194.1 192.1 189.5 191.5 190.3 188.1 184.5 181.9 179.8 178.3 178.4 176.4 173.1 167.5 152.2 151.4 152.2 154.3 156.8 152.3 148.3 146.9 146.5 146
273 271.3 268.7 264.2 260.8 258.2 256 251.7 246.8 241.5 236.9 232.3 229.5 226.7 222.4 218.3 215.2 211 203.2 196 192.7 189.6 188 185.2 181.2 175.1 171.7 171.6 170.9 169.6 170 170.5 169.4 169.3 169.1 169.2 173.2 178.8 185.5 190.7 193.4 193.6 195.1 195.8 197.1 197.7 198.9 200.6 203 203.9 203.5 202.7 201 199.8 203 206.9 211.9 219.2 222.5 226 234.9 239.8 241.6 243.1 244.6 247.2 246.5 246.8 245.8 245.6 248 249.7 250.4 256.2 256.6 255.7 251.1 248.3 240.8 235.5 229.6 229.9 230.6 231 231.6 231.5 231.3 230.3 227.9 226.2 224.2 224.7 225.9 225.8 226.9 228.6 230.8 230.2 233.6 237.4 229.2 224.8 218.3 211.9 213.7 216.2 216.8 207.9 199 211.7 225.3 230.7 235.3 240.6 249 254 252.7 252.6 252.1 251.6 250.9 251.1 251.6 252.1 250.4 247.6 245.8 242.5 239.4 235.9 230.9 227.1 225.1 223.4 223.7 225.3 227.7 228.2 226.2 222.8 220 215.5 213.7 211.9 211.5 210.6 208.3 209.5 209.9 211 212.4 211.7 208.7 205.7 205.9 205.4 204.3 202.8 201.3 202.2 202.9 203.1 203.2 202.8 202.3 202 200.6 197 192.7 189.1 189 188.5 189.2 190.7 192.7 194.7 193.7 192.2 189.2 188.6 188.6 187.7 181.8 179.1 177.3 177.6 179.5 178.3 175.4 164.7 151.8 155.5 159.6 161.1 159.7 153 148.3 149.2 147.9 146.5
265.8 264.4 262.5 259 256.5 254.8 251.8 247.6 244.2 239.6 235 231.3 228.6 226.2 220.1 215 211.9 207.8 199.5 192.6 187.3 183 181.5 180.3 176.8 173 171.7 171.4 169.9 170.5 171.3 171 170.5 169.8 169.1 169.7 172.9 181.8 187.8 192.8 196 196.8 197.8 198.8 199.2 199.5 201.6 203.4 207 211.6 211 209.6 206.8 203.2 205.5 211.9 217.5 226 227.4 227.4 236.3 242 243.5 245 246.5 249.5 251.1 250.9 249.5 247.6 248.1 249 250.6 256 259.2 258.8 253.7 247.9 238.7 233.7 230.8 230.7 231.2 231.8 232.7 233.3 232.9 232.2 230.7 228.6 227.4 225.7 227 226.9 226.2 226.9 229.4 230.6 231 234.8 229 221.4 216.5 214.7 216.6 219.1 219.8 219.2 210.5 206.3 205.1 227.6 232.5 236.2 241.2 248.9 252.1 253.8 253.2 252.4 252.1 252.1 252.8 253.6 252.7 249 245.3 242.3 239.3 236.3 232.3 229 226.5 224.4 224.3 225.8 227.7 229 227.5 221.7 218.9 213 209.5 209.6 209.8 208.6 208.5 210 210.6 211.1 212.9 213.2 210.4 208.3 206.8 206.5 205.9 204.5 203.1 202.9 203.5 203.8 204.3 204.8 204.3 204 202.6 200 196.1 190.9 189.7 189.1 189.1 189.5 191.3 193.8 195.4 194.7 190.8 184.8 180.2 178.1 177 176 175.9 178.3 180.9 179.7 177 164.2 152.8 157.5 162.2 163.4 157.6 151.1 156.9 155.4 152.6 149.5
259.5 256.2 255.9 255.2 253.9 252.2 250.9 246.5 242.4 237.7 233 230.2 227.8 224.1 219 212.1 208 202.6 195.2 190.1 185.3 181.5 177.1 174.7 173.8 171.9 171.2 170.6 170.6 171.2 171.5 171.3 170.8 170.3 169.8 169.4 176.1 184.7 191.2 195.8 199.4 199.8 200.3 201.3 200.9 201.3 203.4 205.5 210.8 217.1 216.1 214.6 211.7 208.2 207.8 215.3 221 230.1 231.7 231.5 237.8 244.2 245.7 247 248.8 251.3 253.4 254.5 253.2 249.6 249.6 249.6 249.9 254.6 260.5 260.8 256.2 249.5 242 235.3 232.4 231.5 232.9 232.6 234.4 235.2 234.5 233.9 233 231.3 230.5 228.4 227.9 229.4 227.9 227 227.3 231.1 229.5 232.1 227.8 218.2 215.2 214.1 218.4 223.3 224.2 223.7 220 213.1 211 210.2 230.8 232.2 236.3 240.1 245.7 252.3 253.9 253.2 252.6 252.6 253.2 253.9 255.5 251.6 244.7 242.1 238.7 234.8 230.9 227.6 226.2 224.9 226.9 225.7 229.2 231 228.7 220.1 217.1 210.5 210 209.4 209.1 208.7 209.3 210.6 211.2 211.2 212.7 214.1 211.9 209.3 208.3 207.6 207.3 206.3 204.9 203.7 204.3 205 204.9 205.6 206.2 205.6 204.3 202 197.8 192.4 190.3 189.5 189.5 188.7 190.6 193.2 195.2 195.4 193.4 188.8 183.9 180.4 177.9 176.7 177.3 180.2 182 180.7 179.3 169.2 155.3 154.4 163.5 164 157 158.1 162.1 160.4 158 154.7
255 251.7 250.8 250.7 251.6 250.2 248.9 245.3 240.2 235.8 231.4 229.1 226.7 221.8 217.3 209 203.7 196.4 192.1 189.9 188.9 184.7 178.5 173.3 172.3 172.1 171.5 170.9 170.9 171.5 171.5 171.5 170.8 170.2 170.1 168.9 177.2 186.5 194 199.5 202.6 203.6 203.4 204.8 203.1 203.7 206.2 207.7 212.9 218.8 220.4 218.9 216.3 212.4 212.9 217.5 223.4 232.3 235.5 235.3 239.5 246 248.6 250.1 250.2 253.1 255.2 257.1 256.6 252.1 250.3 250.3 250.5 253.9 259.7 263.7 261.2 253.7 244.6 237 234 232.9 234.4 234 234.6 236.3 236.3 236.7 235 234.1 233.7 231.7 230.4 231.1 230.2 227.5 227.7 229.3 231 230.2 227.4 217.6 214.8 214.7 219.5 225.7 227.4 228 226.1 222.2 217.3 204.9 222.9 232 232.5 235.3 239.4 242.9 249.6 253.2 252.4 253.1 253.1 254 257.1 254.6 247 241.5 236.3 231.4 228.1 227.1 227.8 227.4 230.1 229.7 230.8 233.1 229.4 221.3 213.8 210.8 209.5 209.5 209.2 208.8 208.5 210.1 210.6 211 212.2 213.7 213.6 210.8 209 208.2 207.8 206.8 205.7 204.7 205.2 206.1 205.6 206 206.8 206.7 205.3 202.9 198.7 193 190.6 189.4 189.2 188.9 190.6 193 194.9 195.6 194.8 191.4 187.7 183.6 179.4 177.6 178.1 181.5 182.9 181.7 179.8 171.8 159.2 154.3 162.7 165.4 158.1 160.7 165 163.5 161.9 159.8
251.5 248.1 245.9 246.1 248.7 247.9 246.3 243.1 237.7 232.3 229.2 227.3 224.6 220.4 215.7 207.6 198.6 193.9 191.7 192 190.7 184.5 177.5 172.8 172.3 172.1 171.7 170.9 170.8 170.9 171.4 171.6 170.6 170.5 170.6 170 179.1 188.8 196.5 203.1 206.2 207.5 206.2 207.6 206 206.4 208.3 209.9 212.6 219.2 222.6 222.6 220.5 216.5 218.6 220.7 226.4 234.2 238.5 238.7 241.6 247.3 251 252 252.1 254.7 255.6 258.1 258.5 255.4 251.5 250.6 250.8 252.6 257.9 264.3 264.6 257.5 248.3 239 235.1 234.6 236.1 235.5 234.9 236.6 236.7 237.7 237 237.1 237.6 236.9 234.2 233.5 233.2 228.8 228.8 229 232.7 227.2 227.3 221.3 218.5 217 221.2 227.1 230.1 231.3 231.2 227.9 223.3 211.3 204.5 228.3 232.1 231.7 234.3 237.9 240.2 243.7 249.1 250.1 250.4 252.8 256.2 258.1 250.8 242.7 237.4 230.8 228.6 229.6 230.7 230.1 231.9 233.3 233.5 234.8 231.3 223.6 217.7 214 211.7 211.7 210.8 210.4 209.5 209.5 210.1 210.9 211.7 214 215.2 212.4 209.6 208.6 208.4 207.4 206.4 205.6 205.6 206.5 206.8 207.1 207.4 207.4 205.9 202.9 199.2 193.9 191.2 189.5 189 187.4 189.4 191.6 193.9 195.7 195.4 192.5 189.1 185.6 181.6 178.5 178.1 181.4 183.1 181.9 180 173.6 162.3 154.8 163.5 166.6 161.1 160.1 167.1 167 166.1 163.7
248.4 245.2 241.5 239.5 242.5 241.4 242.4 239.1 233.9 228.8 224.7 223.1 222.6 219 214.2 206.3 197 195.9 194.5 194.7 189.4 183.2 177.6 173 172.2 171.8 171.4 170.9 170.9 170.8 170.8 171.5 171.6 171.4 171 169.1 178.8 190.1 199 205.6 209.9 210.9 209.7 210.3 209.5 208.9 212.2 214.3 216.4 220.6 223.9 225.9 224.7 222.1 222.9 225.3 225.9 237.4 241.7 242.3 243.3 248.5 252.5 254.7 254.5 256.4 256.1 258.2 259.5 255.1 250 250.9 251.2 252.1 256.5 262.8 266.7 260.6 250.7 241.5 237.2 234.6 237 236.8 236 237.7 237.5 238.8 239 239.3 240.7 240.9 238.2 235.9 236.4 231.7 228.1 229.2 233.1 229.4 228.6 225.8 222.4 219.7 223.1 227.4 231.5 234.1 234.6 233.2 228.1 216.2 212 206.7 219.4 225.2 231.8 233.5 235.3 237 239.5 241.8 245.4 249.3 255.7 260.2 254 245.2 240.5 231.5 230.2 230.9 232 232.9 234.1 236.2 236.3 236.1 233 226.3 221.1 217.3 214 213.9 213.4 212.1 211 210.7 210.5 210.7 211.5 212.7 215.5 214.3 211.6 209.4 209 208.1 207.3 206.7 206 206.8 206.2 206.7 207.1 207.2 206 203 199.7 194.8 191.6 190 187.5 186.9 188 190.2 192.6 194.9 195.5 193.6 190.3 187 183.1 178.2 177 180 182.5 181.9 179.8 173.6 161.4 154.7 164.4 167.3 164.1 159.8 168.5 169.7 169.2 167.6
244.7 242.8 239.6 233.9 235.4 235.5 236.6 234.9 229.7 225.3 220.2 218.7 219.4 217 213.7 205.3 200.4 200.4 196.7 196.9 190.3 181.9 178.2 173.1 172.2 171.8 171.3 171.3 171.3 171.4 171.5 170.6 170.7 171.1 169.5 168.6 179.6 191 201.2 207.8 212.8 213.7 212.5 212.9 211.8 212.9 217.1 218.5 219.6 222.9 226 228 226.6 227.4 227.8 229.1 229.3 241.7 245.1 245.2 245.5 249.8 253.8 257 256.7 257.4 257.6 257.7 259.3 256.7 250.9 247.2 250.3 251 254.5 261.2 266.2 263 253.1 243.5 238.2 236.3 238.2 238.4 237.3 237.3 237.9 239.6 241 241.7 242.7 244.4 242.2 238.4 239.5 235.6 228.8 228.8 229.6 233.8 229.5 228.6 225.6 222.4 224 228.6 232.8 236.9 238.1 237.5 235 230.1 225.1 213.9 210.4 216 231.5 234.7 238.2 241.7 241.3 240.9 241.3 246.8 253.8 260.3 256.3 247.3 241.2 233.8 232.7 232.3 233.4 234.4 235.1 238 238.5 238.3 236 230.1 224.6 221 217.5 216.1 215.9 214.8 213.2 211.6 211.4 211.4 211.3 211.7 214.6 216.7 214.2 210.9 209.8 209.1 208.7 207.8 206.7 207.1 207.2 205.7 206.1 206.1 205.2 202.8 199.1 195.3 191.9 190.5 188.4 185.9 186.8 188 190.8 193.6 195.3 194.4 191.4 188 183.9 178.3 176.1 177.4 181 181.4 178.8 174.1 163.2 156.4 167.1 168.3 167.4 161 168.4 171.1 171.1 171.2
242.4 238 230.2 220.8 222.8 228 230.6 230.9 226.3 221.6 216.6 214.4 216.6 215 211 205.1 203.4 202.9 199.3 198 189.5 181.8 177.2 172.7 172.7 172.4 172 172 172.1 172.2 171.9 170.5 169.7 169.9 168.7 169 179.3 191.8 202.8 210.1 215.5 216.7 215.1 215.4 214.6 216.1 220 222.3 223.2 225.8 228.1 230.1 229.3 230.9 232.4 232.9 232.6 245 248.8 248.9 246.4 252.2 255.3 258.5 258.4 258.4 259 257.8 257.6 257.6 253 248.3 246.3 248.3 250.2 259.1 264.1 263 254.7 244.6 238.2 238.6 239.8 239.9 238.6 237.6 238.5 240.9 243.1 243.8 244.6 246.5 246 241.9 241.8 239.6 231.8 229.3 230.9 233.9 231.1 230.7 227.7 224.3 223.8 229.7 234.4 238.5 241.4 241 239.3 235.9 232.7 224.5 218.4 209.6 229.3 235.9 240.1 244.4 245.1 244.6 243.7 245.6 251.8 257.7 257.5 249.4 241.9 236.8 234.5 233.7 234.6 235.7 235.9 238.7 239.5 239.4 237.6 232 227.3 224.3 220.9 217.6 219 217.8 215.7 213.2 212.3 212.1 211.9 211.5 212.4 215.9 216.1 212.3 210.5 209.4 209.1 208.7 207.7 207.5 207.7 206.4 205.1 204.8 204.4 202.6 198.8 194.9 192.4 191 188.8 186.2 184.5 185.8 188.2 190.9 193.7 194.1 191.7 188.7 184.7 178 175.6 175.7 178.9 181.5 179 174.7 164.9 157.6 168.3 169.1 168.8 164.6 167.1 172.3 173.2 173.7
238 225.8 227.7 234.6 224.6 217 216.9 224.1 222.2 218.7 214.3 211 213.3 211.7 208 201.5 205.6 204.9 201.4 198.1 190.6 182.7 176.4 173.1 172.9 172.5 172.3 172.2 172.3 172.4 171.2 170.7 169.9 169 170.1 171.9 178.8 193 204.7 212.4 218.1 219.7 217.6 218.1 218.8 217.5 222.9 225.7 226.8 228.9 230 231.8 232 234.5 237.1 237.8 237.6 245.6 251.8 251.8 249 253.8 256.9 261 260.5 259.6 260.6 261.7 259.9 258.3 253.9 250.9 248.9 247.5 246.2 254.1 260.2 262.2 253.5 243.6 238.1 237.9 240.6 241.5 240.2 238.8 239.3 241.7 245 245.9 246.7 248.4 249.3 245.9 244.5 243.5 234.5 230.1 231.3 232.4 231.9 232.1 230.3 226.5 224.9 229.7 234.9 238.8 242.9 244.4 242.5 239.6 236.1 231.7 213.9 209.4 225.5 233.9 240.6 245.8 248 247 245.7 245.1 249.9 255.7 259.4 251 243.4 239.7 236.4 236.9 237.6 237.4 237.2 238.8 240 240.3 239.4 234.6 229.9 226.9 222.6 221.6 221.8 220.8 218.4 215.2 214.4 213.9 213.5 212.9 211.8 213.1 215.5 213.5 211.9 210.1 209.5 209.2 208.5 208.1 208.1 207.3 205.3 204.6 203.9 202.1 199.1 195.2 193.4 190.4 188.6 185.9 184.5 183.9 186.3 188.4 190.9 192.9 191.1 188.8 184.4 178.1 174.9 175 177.3 180.6 178.9 176.1 166.4 157.1 169.1 169.5 169.9 167.3 165.8 172.9 175.5 176.8
228.4 232.6 240.1 240.8 235.1 226.3 216.3 209.7 207.8 210.7 210.7 207.9 209.5 208.6 204.8 202.3 206.6 206.2 202 198.1 190.6 183.1 177.9 173 173 173 172.3 172.1 172.1 172.2 171 170.8 170.3 170.5 172.4 173.7 178.9 193.1 207.2 214.7 220.6 222.1 220.8 221.3 221 219.6 226.4 229.1 230.5 232.6 234.9 234.6 235 239.3 241.4 242.5 242.4 240.8 253.4 254.7 253.3 255.1 258.9 263.4 263.1 262.2 262.9 263.2 261.4 259 255.7 253.8 251.3 248.5 245.3 248.8 253.9 255 248.6 241 237.4 237.5 241.4 243.1 241.4 240 240.4 242.5 246 248.1 249.1 250.4 252.6 249.3 246.5 247.2 238.1 230.8 231.1 234 234.9 233.6 231.3 227.8 225.3 228.6 234.4 239.8 244 246.2 244.9 242 238.1 233.8 222.5 209.9 222.1 232.6 240.8 246.2 250 249.1 247.4 245.3 248.2 254.3 260 253.6 246.4 242.1 239 240.6 240.9 240.3 239.2 239.3 241.9 242.1 240.5 236.5 232.6 229.6 224.2 225.8 224.6 223.6 221.7 218.5 216.9 216.4 215.2 214 212.1 211.6 212.8 215.3 214 212 210.1 209.7 209.4 208.4 208.4 207.8 204.6 205.2 204.4 202 199.4 196.2 192 188.4 186.3 186.4 185.5 183.8 184.2 186.4 188.8 191 190.8 188.4 183.4 178.7 174.4 172.1 173.7 176 177.7 175.7 171.1 157.7 169.6 169.7 170.4 169.5 165 172.6 175.4 178.9
229.2 240.2 243.2 242.1 237.3 230.8 226 217.9 212.6 203.3 201.1 199.4 199.3 200.1 201.8 202.1 206.7 207.1 202.7 197.6 190.5 184 178.8 175.2 173.5 173.6 172.4 171.9 171.9 172.3 170.5 170.4 170 171.9 174.7 174.3 178.8 195.8 208.4 215.5 222 225 223.8 223.4 222.7 222.9 228.7 232.7 234.3 236.9 238.8 238.2 241 242.5 245.6 246.9 248.2 245.1 254.1 256.5 255.8 257.7 261.3 265.7 265.4 265.3 264.8 264.8 263.9 261.6 259.5 256.1 253.2 250.4 246.9 244.7 247 246.5 242.8 238.6 237.8 238.8 243 245.5 244.1 241.5 241.7 242.8 246.4 250.1 251.3 252.4 254.8 252.6 248.9 249 242 232.2 231.8 234.3 236.6 235.6 233.4 229.4 226.1 227.8 233.3 239.9 243.5 245.8 246 243.1 238.6 234.1 226.2 210.1 219.3 231.8 240.4 246 251.3 251.4 250.1 248.4 246.8 252.1 258.1 255.5 248.7 244.2 242.5 243.3 243.8 243.4 241.9 240.4 243.4 243.7 242.1 238.4 234.9 231.5 230.8 229.2 227.8 226.5 224.3 221.8 220.3 219.8 218.7 218.2 216.1 214.4 213.7 216.6 216.2 213.8 211.4 210.6 210.2 209.3 208.4 207.7 206.8 199.7 198.3 201.7 198 192.6 188.4 187 186.7 188.1 186 184 182.3 184.1 185.9 188 189.3 188 183.3 178.1 173.7 170.3 166.9 168.3 171.8 173.3 171.7 160.8 159.3 169.4 170.8 171 166 172.3 176.1 179.9
