ncols 200
nrows 94
xllcorner 310000
yllcorner 480600
cellsize 50
29.4 33.6 36.7 36.1 34.1 30 26.2 23.3 21.1 19.5 19.8 21.9 26.1 29.4 26.5 23.1 20.5 17.9 17.1 17.7 17.3 18 23.9 35.1 41.7 43.4 46.9 53.3 56.3 58.3 70.2 83.6 105.4 136 166.7 200.9 235.7 263.2 287.9 303.3 314.4 319.9 326.2 340.2 354.3 360.4 360.8 362.1 368.6 375.2 376.7 367.8 361.4 360.8 358.7 361.5 365.8 383 406.6 427 447 465.7 484.5 501.4 515.3 530 542.1 553.4 565.3 576.4 582 582.3 582.5 579.4 574.4 566.8 560.5 550.1 540.2 530.9 522.8 515.5 506.7 493.2 475.9 457 437.1 416.1 399.1 381.3 359.8 343.7 329.7 317.7 301.6 283 268.2 249.6 214.6 180.9 151.8 123 101.2 93.4 99.9 111.3 124 139.3 150.4 157.9 161.7 159.7 152.4 141.6 129.8 117.4 104.1 93.2 86.8 82.9 80.6 77.7 74.1 66.6 74 70.4 69.3 65.9 57 53.8 51.8 58.8 57.5 53.9 55.9 56.4 57.8 62.9 70.3 79.3 85.3 89.1 92.9 97.1 96.4 85 73.6 69 66.9 61.3 68.6 76.4 78 74.9 71 64.8 54.6 46.5 42.4 38.4 36.9 36.4 35.8 38.9 43.4 47.5 51.6 54.4 50.1 42.6 32.7 22.9 12.5 6.3 6.6 6.7 6.6 6.5 6.6 6.8 6.9 7 7.2 7.2 7.1 6.6 6.3 6 5.7 5.6 5.4 5.5 5.6 4.5 4.7 5 4.1 3.9 4 -2.6
29.1 30.7 34 33.8 32.5 28.6 24.6 20.7 19.6 19.1 18.9 19.6 23.9 28.7 26.9 24.1 21.5 19.2 17.8 17.2 17.2 19 27.6 38.3 41.5 45.1 54.1 54.4 53.7 57.2 65.9 79.3 99 126 157.6 190 221.9 245.9 271.5 299.7 315.6 309.9 322.9 335.9 347.6 353.2 354.7 352 357.1 359.1 348.9 340.7 332.8 333.4 329.9 337.5 366.5 393.6 417 438 457.3 475.7 493.7 508.5 524.1 539.3 549.4 560.7 572.1 580 584.4 585.9 584.5 580.7 574.6 567.5 562.4 553 542.3 531.8 524.2 514.4 502.9 488.3 470.9 450.5 430.6 410.2 392.1 374.9 354.6 342.2 328.8 318.3 305.5 286.8 265.7 246.8 214.8 184.2 159 131.2 102.3 88.8 97.5 102.8 111.6 121.7 130.7 136.8 141 139.5 132.8 124.1 112 101.3 89.7 82.3 79.6 78.6 76.4 74.2 68.5 62.2 67.7 67.8 63.7 56.6 53 49.6 50.2 53.7 55.5 51.7 56.4 57.7 61.1 65.9 72.3 76.1 80 81.7 82.2 82.7 79.6 69.5 59.5 58.7 60.3 68.4 75.3 80.1 79.1 76.8 69.8 60.6 53.6 46.6 40.5 37 35.5 35.4 34.7 41.6 46.2 51.3 54.9 54.7 47.9 38.6 31.2 22.4 11.7 6.3 6.8 6.8 6.8 6.8 6.9 7 7.2 7.3 7.4 7.4 7.2 6.6 6.3 5.9 5.6 5.8 5.8 5.8 5.7 5.2 4.5 4.6 6.2 4.3 4.1 4.6
29.6 28.5 31.2 31.3 30.1 27.4 24.4 21.4 19.4 19 19 19.8 23.4 25.8 25 23.3 20.2 18.9 17.7 17.4 18.4 19.3 27.2 35.4 37.8 43.3 46.9 51.1 49.9 54.1 63.6 78.3 94.6 118.2 148.7 178.2 204.5 230 252.4 272.2 282.9 301.3 326.1 342 345.8 347.4 344.6 338.6 337.6 331.1 320.8 309 299.8 302.5 329.2 353.9 379.5 404.9 426.7 448.7 467.8 484.8 501.7 518.5 533 546.5 554.4 565.9 576 582.7 585.9 587.1 584.9 579.1 573.3 565.3 560.2 549.9 539.4 529.6 522.1 510.8 496.4 481.2 464.9 445.5 424.1 402.8 381.6 364 347.7 336 322.6 313.8 305.1 290.6 265.5 242.1 217.2 189.1 162.3 137 103.8 83 91.4 94 99.4 106.1 112.4 119.8 121 119.9 116.1 107.3 98.1 89.2 81.5 76.5 75.8 74.8 72.9 71.3 61.4 58.9 66.3 62.7 57 53.6 51.1 48 48.3 49.1 50.1 53.6 60.3 62.3 63 65.7 68.8 68.3 69.7 69.2 67.2 67 62.2 55.4 58.5 64 67.2 72.4 77.9 80.6 79.7 75.1 64.5 57.6 50.9 44.8 38.3 34.7 34.1 34 36.1 42.5 45.6 51.7 53.3 50.5 44.4 36.5 29.1 22.2 11.5 6.4 6.9 6.8 6.5 7 7.1 7.2 7.4 7.5 7.5 7.5 7.1 6.5 6.1 5.8 5.6 5.9 5.9 5.8 5.8 5.7 3.6 4 4.1 4.6 4.5 4.3
31.6 28.7 30.6 31.7 31 30 26.8 22.6 20.4 19.1 19 20 22.9 24.5 25 24.8 22.6 18.5 18.2 17.8 18.3 20 25.2 29.9 32.2 42.6 49.2 55.8 51.5 55 66.7 79 91.3 110.2 136.8 162.7 187.2 210.5 229.4 243.6 269.7 298.2 329 342.7 347.2 342.6 331.2 321.7 313 302.5 289.7 278.5 297 318.6 341.1 366.8 392.1 416.2 438.1 459.1 478.4 493.9 510.4 525.3 538 549 555.3 566 576.5 582.5 584.8 584.5 579.4 573.8 567.7 560.1 554 544.6 533.9 524.8 515.3 502 488.1 472.7 457.1 439.1 420 397 374.1 353 336.4 323.6 313.1 303.6 297.4 286.2 259.3 234.2 210.3 184 160.8 136.2 109 87.6 76.7 81.9 87.2 92.5 98 104 106.6 104.4 99.7 92.9 86 80.6 77.3 73.2 71.3 70.9 70.2 68.3 56.9 54.2 60.1 56.3 53.3 50.9 49.2 46.9 46.7 47.9 50.1 55 61.6 63 60.9 61.5 62.8 59.6 58.7 56.2 53.9 55.6 56.5 53.1 60.1 65.7 69.6 77.6 81.1 81.3 79.2 72.9 61.7 55.9 49.6 42.3 35.5 33.1 32.5 33 37.6 42 46.7 52.4 52.1 48.2 42.4 35.2 27.7 21.5 11.4 6.4 6.9 6.5 6.6 7.2 7.3 7.4 7.5 7.5 7.4 7.4 7 6.5 6 5.7 5.7 5.7 5.6 5.6 5.5 5.5 4.5 4.1 4.5 6.4 4.6 4.1
33.2 30.6 31.2 33.5 33.3 32.5 28.1 23.1 20 19 19.5 21.3 24.1 24.8 25 25.3 24.4 21.2 19.4 18.4 16.8 18.4 22.9 25.4 26.7 40.4 53.2 52.8 51.6 55.9 67.4 80.1 92.2 107.2 125.9 147.3 168.2 186.3 213.8 244 271.8 302.1 327.8 336.3 329 323.7 313.2 299.3 284.5 272 263.8 285.8 307.2 330.2 353.9 377.5 402 426 447.4 469.4 487 500.6 515.2 528.8 538.6 547.2 555.9 565.5 574.3 578.9 580.1 576.8 570.3 565.3 557.6 551.8 543.6 536 524.7 514.6 503.8 491.7 477.7 462.8 445.6 432.5 414.9 393.2 368.6 344.9 326 306 294.5 285.8 282.5 272.7 246.9 222 199.7 176.1 154.7 133.4 112.4 100.6 84.8 70.5 76.8 79.1 84.9 90.5 91.6 90.1 86.5 82.1 77.5 73.6 72.5 70.1 68.2 68.3 67.7 65.5 52.4 50.3 53.4 50.7 49.7 48.5 47.1 45.9 46 46.4 48.2 55.4 58 55.8 51.7 51.9 50.2 50.5 49.3 47.7 48.7 52.1 51.5 53.4 60.5 66.4 72.8 81.3 83.6 81.3 78 72.2 61.7 53.8 48 36.6 32.4 29.7 30.9 33 37.8 43.2 49 49.4 49.5 49 39.7 34.3 26.8 18.5 8.7 6.4 6.5 6.6 7.4 7.3 7.4 7.5 7.7 7.6 7.4 7.3 7 6.5 6 5.6 5.5 5.5 5.4 5.4 5.4 5.3 4.9 4.3 4.7 5.1 4.8 4.2
35.2 32.6 31.8 33.6 33.9 32 27.3 22.4 19.4 19.6 20.3 21.7 23.6 24.4 24.9 25.1 24.5 23 20.1 19 17.6 18 20.3 25.7 25.9 33.2 42.9 48.5 55.4 63.4 72.8 80.8 91.6 105.1 120.9 138.5 158.8 187.2 217.3 248.1 276.2 305.9 315.3 317.8 314.8 305.2 289 272 256.3 254.5 275 294.6 318.2 340.7 364.5 388 412 434.2 454.9 475.3 491.3 504.4 515.2 525.9 535.1 545.7 553.8 565.8 572.4 573 569.3 564.2 558.1 552.1 545.3 540.6 533.3 524.5 514.6 502.8 492.4 479.7 466.3 450.4 436 421.8 406.9 384.6 361.1 339.3 322.6 297.8 265.9 261.2 263.1 256.5 230.9 206.7 186.4 163.3 144.5 125.7 108.2 103.9 83.1 69.4 68 69.2 74.8 80.3 82.4 81.2 79.5 79.6 75.4 70.8 68.1 66.9 65.7 66.4 63.9 59.4 50.7 47.5 48.1 47.7 47.1 46 44.3 44.4 44.9 45.5 49.7 49.3 46 43.1 42.9 42.9 43.2 45.6 45.7 47.9 49.8 51.7 54 61.2 66 74.6 83.3 86.4 84.4 79.8 76.9 72.8 64.8 53.7 39.2 34.5 30.1 28.7 30.8 36.3 39 43 45.5 47.6 51 46 38.2 32.3 23.2 14.9 11 9.4 7.3 7.5 7.3 7.3 7.5 7.7 7.8 7.8 7.6 7.3 6.9 6.4 5.9 5.5 5.4 5.3 5.2 5.2 5.2 5.1 5.1 4.4 4.8 5.1 5.1 4.5
36.2 34.9 32.8 34 34.3 33 29.4 22.5 20.6 20.6 20.6 21.5 22.7 23.5 24.2 24.7 25.2 24.9 21.2 18.9 17.5 17.6 18.4 21.8 24.4 31.2 39.1 48.9 56.4 65.9 74.5 79.8 89.1 100 113.9 131 153.4 184.7 221.6 254.7 280.3 291.4 300.6 300.3 297.2 280 260.9 238.8 246.3 267 284.1 305.8 327.9 350.2 373.2 396.6 419.2 438.8 457.4 474.6 489 500.8 510.3 519.2 532.3 540 551.2 561.2 565.3 561.8 555.4 549.3 543.3 536.4 533 526.9 520.2 510.7 502.2 490.2 479 467.5 454 440 423.5 407.7 393.9 373 351 332.9 319.5 298.7 270.8 243.2 235.7 235.2 214.5 191.2 170.6 149.3 132.9 115.5 101.7 97.2 71.1 66.1 65.5 64.6 67.8 73 74.9 76 76.3 74.1 69.8 64.9 63.7 63.8 64.6 63.7 60.2 52.6 46.6 45.3 45.2 44.7 44.1 43 43.8 43.3 44.4 44.3 43.6 42.2 40.7 41.3 43.4 46.5 52 54 56.2 59.9 62.7 67.7 71.1 78.3 85.4 91.4 91.4 88.5 84 77.5 75.7 71.3 63.2 51.6 39.4 30.8 28.5 28.3 35.2 36 37.4 39.9 42.6 47.3 48.3 43.3 35.7 27.6 18 13.5 13.3 9.5 7.6 7.5 7.3 7.4 7.5 7.7 7.9 7.9 7.5 7.1 6.7 6.3 5.8 5.6 5.4 5.3 5.2 5.1 5 4.9 4.9 4.6 4.9 5.1 5.7 4.9
37.1 36.8 35.5 34.5 34.6 34.7 32.3 24.2 22.7 22 20.9 21.5 22.4 23 23.6 24.3 25.1 25.3 22.3 19.7 18.2 17.6 18.2 20.1 24.1 30.1 36.3 42.2 49.2 54.7 68.7 76.8 79.2 90.3 105.9 122.3 143.2 178.6 216.7 254.5 273.9 280.5 282.2 283.9 271.1 250.3 229.4 230.9 254.5 276.4 294.9 315.4 336.2 358.4 380.8 400.7 418.5 437.4 457.1 471.4 485.1 494.7 500.7 514 524 532.2 544 551.8 553.8 546.9 539.7 532.1 524.1 518.2 514.9 510.6 504.5 497.1 487.1 476.7 467 456 440.9 425.9 412.5 390.9 370.5 351.9 330.8 319.8 305.8 291.1 272.7 253.9 216.1 200.6 194.3 172.7 154.9 136.2 120.2 105 93.7 84.5 63 62.9 62.5 62.7 64.9 68.8 71.8 75.1 75.3 69.1 62.8 60.7 61.1 62.6 63.5 62.1 54 45.8 43.6 43.2 43.1 42 41.1 41.6 42.2 43 44 42.8 42.3 41.1 42.3 47.6 60.5 60.6 62.8 67 70.5 80.3 84.5 89.3 91.2 98 102.6 102.1 93.7 88.4 82.9 75.7 71.3 66.1 57.3 51.4 37 28.1 26.6 28.5 31.5 32.7 34.1 37 41.3 43.7 43.5 38.5 28.7 19.8 13.3 13.7 11.8 7.5 7.5 7.5 7.3 7.4 7.6 7.7 7.7 7.7 7.4 7 6.6 6.2 5.7 5.7 5.6 5.5 5.4 5.2 5 4.9 4.7 4.7 4.7 4.7 4.7 4.9
37.5 38.4 37.4 34.8 34.6 35.3 33.4 25.9 23.3 22 20.7 21.3 22.1 22.3 23.4 24.2 24.6 24.3 22.4 19.8 18.9 17.9 18.2 18.9 21.8 26.8 35.9 36.9 40.2 44.6 55.5 60.6 67 82.7 98 114.1 135.4 166.7 207.3 229.2 250.1 259.6 261.2 259.2 240 215.2 220.1 248.5 268.7 285.5 304.3 321.5 343.5 366.4 386.9 402.3 419.1 434 449.1 460.4 471.9 479 488.9 499.1 512.8 522.8 532.4 539.5 539.4 532.8 523.6 514.6 506.8 501.2 496.6 491.3 485.8 481.4 472.7 465.4 456 441.6 427.4 407.8 385.7 364.2 325.9 311.8 296.6 297 292.7 278.4 261.8 245.8 211.7 169.9 170.4 154.3 142.5 126.4 110.3 96.5 84.9 70.3 63 59.8 60.2 60.6 63.6 68 73.2 78.8 77.9 63.5 58.5 58.5 58.2 58.4 59 56 48 43.6 42.2 42 41.7 41.2 41 41.4 41.8 42.3 42.6 41.2 40.4 43.6 50.7 59 69.4 70.7 74 77.9 87.6 96.8 99.9 99.1 105 109.6 109.2 98.8 90.5 85.7 80.6 73.8 66.8 56.3 52.9 42 30.5 25.1 26.1 27.5 28.3 28.6 30.7 34.7 38.5 39.7 38 29.5 21 14.9 11.5 11.7 7.8 7.3 7.3 7.3 7.3 7.4 7.4 7.4 7.4 7.4 7.2 6.9 6.5 6 5.8 5.7 5.7 5.7 5.6 5.5 5.3 5.1 5 5 4.8 4.6 4.7 4.3
37.5 39.5 39.3 36.7 33.2 34.9 32 27 24.1 22.3 20.8 21.1 21.4 21.7 23.2 23.7 24.2 23.7 22.3 20.2 19.4 18.4 17.9 18.6 20.4 24.7 33.1 33 34.1 36 42.3 49.4 58.7 75.7 88.9 104.5 125.4 152.2 177.6 198.6 218.5 228.9 237.2 232.2 208.6 205.4 234.5 261.7 282.5 298.7 316.5 332.9 351.5 368.2 384.3 399.8 412.9 424.2 436.3 446.8 457.3 465.8 475.9 488.1 499.5 509.2 519.4 526.1 526.6 521.1 511.4 500.7 489.8 485.1 479.3 474.1 471.1 467.9 462.2 458.5 445.7 424.2 378.5 357.2 342.3 327.5 307.8 293.8 282.8 272.2 264.4 253.8 244.7 230.4 206.3 163.5 141.5 135.2 128.8 115 101.2 89.4 77.2 66.2 58.4 57.4 57.5 58.7 64.6 70.9 77.1 80.5 66.9 56.7 54.9 54.9 55.1 55 53.8 49.8 42.7 40.8 40.8 40.8 40.6 40.1 40 41 41.1 41.2 41.6 40.2 45.8 55.4 61.6 66.8 72.5 77.2 81.4 93.4 103.2 104.8 101.7 108.3 113.8 111.9 104.8 91.4 86 81.5 75.9 70.7 61.3 53.5 51 38.6 25.9 22 25.5 27.4 26.7 26.6 29.5 32.5 34.7 34.2 30.1 21.9 14.7 9.9 9.8 8.2 7.1 7.1 7.1 7.1 7.1 7.1 7 7 7 7 7 6.7 6.3 5.9 5.8 5.6 5.5 5.6 5.7 5.7 5.6 5.4 5.4 5.2 5 4.8 4.7 4
36.7 38.8 38.7 37.8 34.7 32.7 32.4 27.2 24.5 22.5 21.2 21.2 21.3 21.8 23.2 23.4 23.8 23.9 22.8 21.1 19.7 18.8 18.1 18.7 20.6 22.4 26.3 28.2 29.9 32.9 37.7 44.5 52.8 67 84.4 94.9 113.1 133.7 150.9 171.4 189.1 201.6 212.6 200.6 191.8 223 251.3 271.6 291.5 309.7 329.7 344.8 356.7 367.5 380.7 395.1 405.6 416.3 425.2 434.7 445.3 453.8 464.7 476.1 488.4 498.7 508.3 513.9 513.7 506.8 496.8 483.4 473.9 468.8 465.8 462.8 459.1 456.7 455 447.5 417.1 382.7 362.1 347.5 335.7 321.7 305.4 284.5 274 253.7 239.6 228.5 220.9 213.7 196.4 164.2 127.2 115.6 112.2 101.7 89.5 78.8 70.2 62.7 55 53.8 54.4 59.8 66.7 73.6 78.7 70.4 55.9 52.2 52.1 51.2 51.6 52 48.7 41.8 39.6 39.4 39.3 39.6 39.5 39.1 39.4 40.1 40.4 40.1 41.6 45.5 50.8 59.9 66.1 70.7 75.5 80.4 85.1 96.3 103.3 102.6 105 112.2 114 108.5 96.1 86 80.9 76.4 71.5 65.8 59.3 52.3 44.4 34 23.4 21.8 24.9 25.6 24.9 25.1 26.9 29.1 29.9 28.4 25.7 16.3 11.1 7.3 6.7 6.9 6.8 6.8 6.9 6.9 6.9 6.9 6.9 6.7 6.7 6.7 6.7 6.6 6.2 5.9 5.7 5.6 5.4 5.4 5.5 5.5 5.6 5.7 5.4 5 4.7 4.5 5 4
33.1 36.4 38.2 38.5 36.8 34 30.8 27.5 25.2 23.1 21.5 21.4 21.2 22 23.3 23.4 24.5 25 23.4 21.4 19.8 19 18.8 18.7 20.4 22.2 24.6 26.9 29.3 32 36.1 41.1 47.9 60.9 79 81.8 94.2 108.8 122 138.7 158.5 174.1 180.5 181.1 210.8 238.3 263.3 282.7 303.2 320.3 341.5 354.4 362 368.8 378.9 388.7 398.5 407.4 414.6 425.2 433.4 440.8 450.6 462.3 474.7 484 494.5 500.7 500.6 493 481.1 469 459.9 456.3 454 450.3 450.4 449.2 445.9 425.2 394.6 365.6 350.1 343.3 329.2 316.2 302.6 278.5 262.7 239.5 219.8 201 190 188.6 173.4 150.1 126.4 92.2 96.3 88.6 79.1 71.3 64.6 57.8 51.8 50.8 53.8 59.7 67.8 72.8 69.8 57.4 51.3 50.3 50.1 48.4 48.4 45.6 41.8 38 38 37.9 37.8 38 38.4 38.7 39.1 39.6 37.9 40.7 43.8 49.2 55.5 62.2 68.6 72.6 76.5 80.8 86.1 93 96.9 99.8 104.3 109.9 107.3 93.7 86.4 81.5 75.6 72 69.8 66 60.9 54.1 42.3 30 22.5 20.4 23.9 23.5 23.4 23.7 24.6 26.9 29 28.1 23.3 15.6 9.5 6.5 6.8 6.7 6.6 6.6 6.7 6.7 6.7 6.7 6.7 6.6 6.5 6.4 6.3 6.3 6 5.8 5.7 5.5 5.4 5.2 5.3 5.3 5.4 5.4 5.4 5.1 4.6 4.8 4.9 4.8
29.3 32.6 37.5 38.5 38.1 36.1 35.5 31.9 26.6 23.5 21.4 21.3 21.4 22.8 23.8 24.1 24.8 25.5 25.8 21.6 19.5 18.7 18.8 18.6 20.1 22.1 24.6 27 30 33.2 36.6 41 47.2 52.6 54.7 63.8 72.6 81.1 90.2 109.4 122.7 155.5 175 203.3 228.9 252.8 275.5 294.9 317.8 335.8 347.6 356.3 361.3 365.7 372.6 382.7 390.6 396.8 405.3 412.8 418.7 425.9 435.8 447.5 459.7 470 479.3 485.6 484.7 477.3 465.9 455.7 447.9 445 441.2 442.6 442.6 440.1 431.6 407.3 375.1 345.8 332.1 323.9 314.2 302.1 287.9 269 253.3 233.6 211.5 185.6 171.6 169.7 153.8 133.2 114.6 89.7 79.9 75.7 68.6 64 56.6 51 48.9 49.1 52.3 58.9 66.3 67.5 61.6 50.8 48 47.7 47.2 45.9 44 41.2 37.9 36.2 36.4 36.4 36.5 36.8 37.1 37.7 38.4 39.3 40.1 43.6 46.9 52.7 57.2 62.3 67.4 71.1 73.8 76.1 79.3 83.4 89.2 95.8 97.5 95.5 92.6 87 81.8 75.2 70.1 67.9 68.5 65 59.1 50.9 39.7 27.7 21.7 20.6 21.6 22.3 22.3 22.6 25.6 29.6 30.9 26.8 22.6 15.3 12.3 7.3 6.7 6.7 6.4 6.4 6.4 6.5 6.5 6.4 6.4 6.4 6.4 6.3 6.2 6 5.9 5.7 5.6 5.4 5.3 5.2 5.1 5.1 5.1 5.3 5.5 5.9 3.9 4.6 4.8 4.4
26.4 29.1 31.9 37.3 38.6 37.7 36.8 34.3 26.3 23.7 21.5 21.5 21.7 23.4 24 24.6 25.2 25.2 25.2 21.5 19.2 18.4 18.7 18.5 20 22 24.6 27.7 31 35.6 38.3 41.5 44.9 51.6 58.9 68.1 79.5 94.8 113.7 132 149.4 172.9 196.2 220 240.8 267.6 288.5 311.2 331.5 347.2 356.2 354.4 361.6 363.8 365.8 371.8 378.7 385.7 392.7 398.2 403.1 410.6 420.8 432.6 444.5 453.5 462.9 468.7 468.3 461.2 453.8 444.8 435.2 431.9 432.6 433.2 433.3 430.8 413.3 382.8 351.6 322.4 314.2 310.2 301.6 294.4 282.1 254.8 242.1 225.1 203.8 179.2 165.4 156.3 135.7 117.8 101.5 86.7 69.5 64.4 61.4 55.9 51.2 48.2 47 47.4 51.1 58.3 63.9 60.2 48.9 45.6 44.8 44.7 44 43 40.6 38.3 35.6 34.4 34.9 35.2 35.4 35.8 36.2 36.8 38.3 39.3 42.5 46.4 50.1 53.6 57.5 60.9 65 67.8 70.6 72.6 74.3 78.6 86.3 90.6 91.3 90.5 87.4 83.6 78 70.6 68.4 66.5 64.2 61.1 54.9 46.5 35.5 26.1 21.2 20.1 18.3 21.5 22.7 26.6 31.8 33.8 28.5 21.2 17.5 13.3 13 12.4 7.7 6.5 6.2 6.2 6.2 6.3 6.2 6.2 6.2 6.2 6.2 6.1 6.1 6 5.8 5.7 5.5 5.3 5.1 5 4.9 4.7 4.7 5.3 5 3.9 4.4 4.6 4.7 4.1
26.4 29.8 35.5 38.3 39.2 38.2 36.3 33.9 25.5 23.5 21.8 21.7 22.5 23.1 23.1 23.5 23.8 23.9 24.9 21.4 19.1 18.6 18.7 18.8 19.4 21.8 24.1 27.8 32.3 36.5 38.8 40.8 44.8 51.5 56.8 62.9 75.6 93.7 110.1 132.1 148.7 166.9 190.4 211.1 240.6 272.5 291.8 321.1 336.6 344.9 346.3 346 351.5 355.5 359.4 363.1 366.7 372.3 378.3 383.1 389.1 397.3 405.8 417.4 429.4 437.4 446.2 452.3 451.8 449.7 442.4 431.5 423 420.9 421.1 424 424.7 420.1 391.9 358.1 323.7 304.6 301.1 296.1 290.9 272.8 243.4 232.1 217.4 206.8 193.1 170.5 151.7 145.5 129.1 112.4 90.7 78.1 66.2 60 56.2 53 48.8 46.6 43.4 45 50.2 56 58.3 53.4 42.6 42.8 41.7 41.2 41 40.3 38.5 35.9 34.4 33.8 34.2 34.7 35 35 35.5 36.8 37.9 40.5 43.5 47 48.8 51.9 54.9 57.5 61.4 64.6 67.4 69.4 71.3 75.8 81.8 85.8 89.1 87.7 85 80.9 75.2 68.9 64.9 62.7 61 57.1 50.2 40.3 34.2 29.7 21 19.6 18.5 18.6 26.7 31.8 35.1 31.9 22 16.7 17 18.2 19.5 17.6 9.6 6.4 6.1 6 6 6 6 6 6 6 5.9 5.9 5.9 5.9 5.7 5.6 5.4 5.3 5.1 4.9 4.8 4.6 4.7 5.2 3.8 4.3 4.9 1.8 3.3 4.4
30.1 35.7 39.8 40 40.1 38.9 34.9 26.9 24.1 22.3 22.1 22 23 23.7 24.1 24 23.5 24.5 24.3 22.5 20.4 20 18.4 18.6 19.4 21.3 23.3 27 31.2 34.4 36 37.2 40.2 44.4 49.9 58.9 74.4 91.3 100.8 115.3 134.9 156.1 174.9 199.7 230.9 260 287.6 310.3 328.7 334.8 336.9 338.4 341.4 343.4 347.6 351.3 354.1 356.6 360.8 365.8 375.3 385.4 394.4 404.4 416.1 425.3 433.8 440.3 442.5 439.4 431 421.1 409.5 406.8 409.5 412.5 414.1 407.9 377.7 330.1 304.2 291.7 289.4 288.2 284.3 252.1 227.8 211.8 207.7 196.4 176.3 159.1 141.2 125.9 111.2 97.1 85 70.7 61.6 56.6 53.4 51.2 48.5 44.6 42.8 45.2 49.8 51.5 50.1 44.5 38.5 40.7 37.9 37.5 37.2 36.9 35.7 34.3 33.4 33.1 33.5 33.9 34.1 34.4 34.6 35.6 36.7 39.5 41.9 44.7 46 48.9 52 53.8 58.6 61.4 64.1 66 66 74.8 81.7 85 87.4 85.7 82.5 78.7 73.4 68.4 60.9 57.9 55.3 49.9 44.7 38.6 34.1 28.2 21 19.2 18.4 17.5 17.2 26.8 29.4 22 17.1 18.3 23.6 25 23.6 20 11.2 6.4 6.1 5.9 5.9 5.9 5.9 5.9 5.9 5.9 5.9 5.9 5.9 5.9 5.6 5.5 5.3 5.1 5 4.6 4.7 4.8 6.5 4.3 4.2 4.1 4.2 -2.6 -2.6 -2.6
33.1 36.3 39.8 40 40.4 39.9 37.1 29.8 25 22.6 22.4 22.7 23.5 24.1 24.6 25 23.9 25.6 24.7 24.1 22 19.1 18 18.1 18.8 20.2 22.6 25 27.8 30.1 31.2 33 35.6 38.5 43.6 55.7 70.2 82 90.4 103.7 119.7 140.6 164.1 187.7 216.4 246.3 270.6 290.1 312.4 319.1 324.1 325.7 326.8 329.8 334.2 337.9 340.3 340.1 342.9 351.1 362.3 371.7 381.6 392.7 407.2 420.1 430.7 435 434.5 429.8 421.7 408.3 394.1 386.8 392.3 398.3 400.6 398.1 362.5 314 295.1 281.3 277.6 279.2 270.6 248.4 219.1 195.9 188.7 180 163.7 145.8 126.1 112.4 102 88.4 73.8 62.9 57.3 52.8 50.9 49.2 47 42.9 39.8 44 45.6 44.2 41.9 38.8 36.3 39.4 37.7 35.6 34 33.7 33.6 34 33.1 32.9 33.1 33.3 33.8 34 34.1 34 35.1 37.2 40 41.3 41.7 43.1 47 51.6 55.7 57.3 59.1 59 66.5 76.2 82.7 86 85.8 81.6 77.3 74.8 70.8 64.2 57 50.8 46.8 43.2 40.3 36.8 31.3 26.2 23.2 23.5 23.2 22.3 19.8 14.1 17.6 18.2 19.2 24.5 27.5 26.2 24.8 20.3 12.2 6.1 5.8 5.8 5.8 5.9 5.8 5.9 5.9 5.9 5.9 5.9 5.9 5.8 5.3 5.3 5.2 5 5.1 4.4 4.6 6.3 4.7 4.5 4.7 4.6 4.6 -2.6 4.7 -2.6
34.5 36.8 39.5 40.2 40.7 40.8 39.2 31 26.5 23.8 23.6 23.5 24 24.6 25 25.4 24 26.1 25.3 25.2 21.4 18.2 17.5 17.8 18.3 19.4 21.8 23.8 25.6 27.1 28.6 29.8 31.4 33.3 37.2 48.9 63.1 73 81.5 93.4 112.5 129.1 150.1 174.8 200.7 226.8 253.3 272.3 301.2 307.8 309.7 312.9 313.2 316.3 321.8 324.2 322.2 321.8 322.6 338.4 347.6 359.1 374.8 390.2 404.5 415 423.2 427.3 427.5 423 409 393.2 375.7 359.8 370.3 380.2 390.3 388.3 355.1 302.5 284.5 273.1 268.5 259.4 259.2 246.6 213.1 192.4 178.5 166.3 147.4 132.1 120.9 97.7 82.2 78 65.6 58.5 53.1 50.2 48.8 46.9 45.1 42.5 38 40.3 39.9 39.3 38.1 35.7 36 37.5 36.1 35.3 33.7 31.1 32.2 32.6 32.8 32.8 33 32 33.4 33.6 33.5 33.4 33.6 33.8 36.6 36.9 36.5 39.3 44 48 50.9 51.6 52.8 58.1 71.5 82 84.5 84.4 80.6 72.5 68.8 65.1 61.2 56.7 50.2 44.4 40.7 38.8 36.9 32.6 31 28.6 27.2 27.6 32 30.4 25.5 18.7 15 13.5 22.8 26.1 24.9 22.5 21 16.5 9.9 5.8 5.8 5.8 5.8 5.8 5.8 5.7 5.8 5.8 5.9 5.9 5.9 5.4 5.5 -2.6 -2.6 5.2 5.1 5.2 5.1 4.3 -2.6 -2.6 5.1 4.8 3.6 -2.6 4.1 4.4
18.7 35.3 39 40 39.3 41.3 40.6 37.2 30.1 27.4 25.7 25.8 25 25 25.4 25.9 23.4 24.5 23.4 23.5 21 17.5 17.4 17.7 18.2 18.5 20.1 22.1 23.8 25.3 26.7 26.9 27.6 29.4 32.6 43.2 57.7 67.1 75.2 83.4 96.4 113 133.2 158.4 183 205.4 229.2 253.4 280.6 289.5 292.5 296.6 297.7 302.8 308.7 309.1 304 301 312 320.4 343.6 357.6 370.6 384.9 398.1 407.9 415.8 416.9 418.2 412.8 396.2 372.9 349.9 333.6 352 368.9 380.5 380.7 348.2 295.9 278.5 266 258.8 252 241.7 228.4 210 182.4 165.8 154.9 140.6 127.6 109.3 92.6 77.6 66.9 60.4 54.7 50.9 48.6 46.6 45 43.3 41.7 38.8 38.8 38.1 37.5 35.6 34.1 35.3 36.2 34.8 33.7 32.8 31 29.9 31.4 31.4 32 32.5 32.8 33.1 33 32.9 32.8 32.7 32.4 32.6 33.3 34 36.4 39.8 42.8 44.6 45.5 50.1 62.6 75.8 82.8 83.7 79.6 71.5 65.5 62.8 57.3 52.9 48.5 42.8 40.1 37.9 36.6 37 38.9 38.7 36.7 29.8 29.1 35.3 39 30.1 20.9 14.8 13.3 19.1 21.8 19.3 15.7 13.3 9.5 6.2 5.8 5.7 5.7 5.7 5.7 5.8 5.7 5.6 5.7 5.7 5.8 5.8 -2.6 -2.6 -2.6 -2.6 5.3 5.1 5.1 4.9 4.1 -2.6 -2.6 -2.6 -2.6 -2.6 -2.6 4.6 4.3
5.1 29 40.2 40.7 42.6 43.3 41.5 38.1 32.8 29.6 28.9 27.5 25.7 25.3 25.8 26.1 23.2 22 21.2 21.1 20 17.6 17.3 17.6 18 18.4 18.6 20.2 22 23.8 24.7 24.5 25 26.4 30 37.2 50.6 60.2 67.6 76.3 87.1 101 116.6 139.9 163.9 186 205.7 230.7 253.1 268.9 273.5 278.3 282 288.4 292 288.1 282.1 288.3 304 320.5 338 350.8 359.9 374.2 388.3 396.4 402.8 406.6 410.7 400.8 373.8 348.7 322 314.2 339.9 360.4 371.8 373.9 342.5 289.1 271.4 259.4 253.4 243.9 229.9 213.8 180.1 166.5 144.5 134.6 129.9 113.3 102.9 85.9 69.7 62.2 55.3 51.4 48.8 46.4 44.5 43.3 41.7 40 37.4 37.1 36.6 35.9 35.1 34 32.8 32.9 32.5 32.2 32.2 31.3 29.3 30.8 31 31.4 32 31.5 31.6 32.2 32.3 32.2 32.3 32.2 31.5 31.6 32.8 33.4 34.1 34.1 35.6 37.3 46.3 63.5 75.5 77.6 74.5 68.6 63.8 60.1 57.5 52.9 49.2 45.7 42.9 41 39 40 49.9 49.5 48.1 42.6 33.2 28.7 31.7 38.9 34.4 22.6 14.4 12.5 12 15.1 12.2 8.9 7.6 6.9 6.5 5.8 5.7 5.7 5.7 5.6 5.7 5.7 5.6 5.6 5.6 5.9 5.7 -2.6 -2.6 4.9 4.4 -2.6 5.3 4.6 4.4 4.5 -2.6 3.8 -2.6 -2.6 4.4 4.3 4.1 3.9
2.9 8.7 29.3 47.4 46.7 45 41.7 37.9 33.3 30 29 27.8 27.4 26.4 25.3 25.4 23.3 21.4 19.9 19.5 18.9 17.8 17.3 17.3 17.7 18.1 19.5 18.9 20.7 22.5 23.1 23 23.1 24.7 28.5 36.5 46.8 54.6 62.6 72 81.7 94.8 109.6 126.5 147.4 169.3 189.3 211.4 231.5 243.8 251.1 260.5 267 273.1 274.8 267.3 271 287.6 300.9 312.8 324.9 338.3 349.9 364.9 376.4 383.6 390.1 397.3 398.9 376.3 351.7 320.6 297.2 300.6 328.5 350.6 364.1 367.2 334.8 286.5 260.3 248.1 247.2 235.7 215.4 181.7 160.3 144.7 126.5 115.6 112.7 104.3 93.2 76.7 63.5 57.1 50.6 48 46 44.2 42.3 41.1 39.9 38.2 36.5 36 35.5 34.9 34.2 33.5 32.3 31 30.8 31.6 29.8 28.5 31.8 30.4 30.9 31.2 30.2 30.2 30.2 30.9 31.5 31.6 31.9 31.2 30.6 30.6 31 31.3 31.5 31.7 32 32.2 37.8 50.6 59.2 58.3 58 57.9 56.1 53.5 52.7 51.3 49 48.1 45.7 42.5 41.6 42 52.7 56.8 51.7 45.5 38.7 32.8 30.5 34.9 30.8 21.1 12.2 11.7 11.4 10.8 10.8 9.3 8.4 7.5 6.6 5.7 5.7 5.6 5.6 5.6 5.6 5.7 5.6 5.4 5.4 6 5.6 4.4 -2.6 -2.6 4.5 -2.6 4.8 4.3 -2.6 -2.6 -2.6 3.7 3.9 4.2 4.6 4.8 4.2 3.9
2.4 3.1 12.2 29.3 35.3 48.7 45.6 42.4 38 34 34.9 33.7 30.3 29 27.6 26.2 25.1 22.4 20.9 19.9 19.1 18.4 17.7 17.3 17.5 17.7 18.9 18.3 20.4 20.6 21 21.3 21.7 23.9 27 34.9 41.5 47.8 59.5 71.1 79 88.6 102.3 117.8 137.1 157.6 176.4 197.8 212.6 222.3 231.2 239.7 246.5 251.4 253.8 247.1 270.5 281.7 292.6 304.5 314.7 327.4 342.6 355.3 366 371.2 380.4 386.1 386.2 358.6 331.1 293.9 267 286 314.1 339.5 349.7 352.8 325.9 274.6 252.1 236.6 236.4 214 184.4 163.2 146.4 127.5 112.8 103.4 98 89.4 81.5 71 62.5 53.4 47.4 45 43.3 41.6 40.2 38.9 37.5 36 35.5 35 34.5 33.9 33.3 32.7 31.9 30.2 29.4 31 30 30.6 30.9 30 30.3 30.9 31.4 29.4 30.4 30.6 30.8 31.1 31.2 30.8 30.4 31.5 31.5 31.4 30.9 30.8 30.8 31.4 31.2 35.4 41.4 43.4 46.3 48.5 49.8 51 52.8 52.5 51.8 48.5 46.4 44 42.4 42.4 48.8 57.8 57.4 52.6 47 38.8 30 28.4 28.4 20.9 13 10.9 10.8 10.4 10.4 8.7 9.1 7.7 6.9 6 5.5 5.6 5.5 5.5 5.8 5.3 5.1 4.9 5 5.4 5.4 -2.6 -2.6 -2.6 4.4 -2.6 3.7 -2.6 -2.6 4.8 4.7 4.3 4 4.2 4.5 4.6 4.5 4.2
1.9 2.5 3.2 22.6 36.4 51 48.9 45.5 42.7 39.8 43.2 37.2 34 30.3 28.8 27.9 27.1 25.6 24.2 21.7 19.9 18.9 18 17.2 17.4 17.8 18.5 18 18 18.6 18.3 20.2 21 23.1 25.6 31.8 37.3 43.1 53 64.6 74.4 81.9 93.2 107.5 125 147.5 168.6 178.5 189.5 204.1 214.4 217.1 223.1 227.4 228.3 244 261.2 272.4 282.6 293.1 303.8 318 334.2 346.4 356.4 363.6 372.8 375.8 366.3 340.7 304.1 270.5 247.6 272.7 297.4 313.9 324.1 338.2 319.7 280.7 243.8 226.7 228.1 201.9 176.7 154.8 132.4 116.3 105.9 95.1 84.1 79.8 74.2 66.3 55.8 50.2 44.8 42.1 40.9 39.4 38.2 37.1 35.6 35 34.2 33.9 33.5 33 32.3 31.6 30.4 30 28.8 30.2 29.1 32.3 30.4 29.7 29.6 30.1 30.8 29.8 29.7 30.1 30.4 30.5 30.5 30.4 31.8 32.6 30.6 31.9 30.5 30.5 30.6 30.7 31 31 32 35.2 41.3 48.1 54.7 57 58.4 53.5 50.4 47.8 46.6 46.4 46.5 45.4 44.6 52.7 54.2 56.9 50.2 41.4 37 26.3 23.9 23 18.4 12.5 10.2 9.7 9.6 9.4 8.8 6.7 7.3 6.5 5.5 5.6 5.4 5.4 5.4 4.9 4.6 4.6 5.2 5.4 5.4 -2.6 5.4 4.8 4.8 4.7 4.6 4.5 4.4 4.4 6.1 4.3 3.9 4.4 4.5 4.6 4.6 4.6
1.3 2 2.7 4.8 19.6 47.7 51.6 46.6 42.5 43.3 41.3 37.1 33.2 31.3 31.1 30.2 29 26.4 24.3 23 21.2 18.9 18.1 17.3 17.4 17.6 17.6 17.7 17.9 17.9 17.7 19 20.4 22.4 25 28.7 34.4 39.6 46.6 56.3 66.1 72.8 81.3 95.3 114.7 129.3 133.6 149.3 165.4 182.6 190 193.3 198.7 206.4 222.8 234.5 246.4 259.6 272 282.2 295.5 310.4 328 340.1 350 358.4 363.9 366.1 349.2 323.1 286.6 255.6 233.7 252.3 272.5 288.5 308 326 315 279.1 232.9 216.1 212 188.5 161.6 137.6 117.4 104.8 100.4 90.5 76.9 72.3 66.8 58.3 48.3 43.8 41 39.7 38.4 37.5 36.4 34.8 33.7 33.6 33.2 32.8 32.4 32 31.2 30.4 30.3 30 28.9 28.6 26.5 30.3 30.3 29.7 29.2 29.5 30 29.7 29.6 29.7 30 29.9 30 32.6 34.9 31.4 32.3 32.2 30.5 30.4 30.6 30.7 30.7 30.7 30.7 33.7 40 48.1 59.9 66.9 61.6 54.3 48.6 46.7 46.5 46.8 46.9 46.3 43.7 46.4 53.2 55.1 50.5 42.4 44.1 32.2 29.4 27.9 24.2 17.3 10.7 8.8 8.7 8.5 7.8 7.2 6.9 6.7 5.9 5.4 5.2 4.9 5 4.6 4.5 4.8 5.4 5.6 5.3 -2.6 5.1 4.9 4.7 4.6 4.7 4.6 4.5 4.4 4.4 6.4 3.9 4.4 4.5 4.6 4.6 4.7
0.8 1.5 2.2 2.9 6 31.3 47.4 45.6 44.1 44.1 39.6 36.1 35.2 36.4 34.3 31.9 30.1 29.7 28.3 25.3 22.5 20.1 18.5 17.8 17.9 17.6 17.2 17.3 17.3 17.8 17.7 18.2 20 22.5 25 28.3 32.3 36.7 41.1 47.4 53.1 57.7 67.8 86.6 106.5 127.2 149.2 168.2 173.5 187 198.2 205 214.9 228.9 243.4 254 261.3 267.9 273.4 282.2 294.3 305.9 317.7 326.2 347.3 354.6 358.2 357.1 338.5 306.8 274.7 244 219.6 233.8 252.9 272.3 292.9 298.9 300.3 272.3 234.2 211.5 204.2 174.4 148.1 124.8 107.1 96.4 90.5 80.3 70.4 62.4 55.8 50.8 43.3 40.7 39.7 37.9 36.3 35.5 35.1 32.8 32 32.2 32.9 32.6 31.8 31 30.2 29.7 29 29 29.1 28 28.7 29.9 29.2 28.9 28.7 28.8 29.6 29.6 29.4 29.3 29.6 29.5 30.2 32.7 33.8 32.5 33.4 33.3 31.2 30.4 30.6 30.7 30.7 30.6 30.6 32.8 40.3 49.2 65.2 64 60.2 54.7 48.9 46.6 46 45.8 45.9 45.2 43.2 45.5 50.8 53.2 54.3 45.4 47.2 40.8 42.1 43.8 34.4 21.9 10.5 8.4 7.8 7.5 6.9 6.3 6.3 6.4 6.5 5.9 4.9 5 5 5 4.4 4.8 4.9 2.5 5.1 5.4 5.3 5.2 4.9 4.8 4.7 4.6 4.6 4.5 4.5 4.5 4.1 4.4 4.4 4.5 4.5 4.2
0.3 1 1.6 2.3 3.1 13.7 49.2 24.5 38.9 45.3 40.8 38.6 39.4 39.1 36.6 33.9 33.5 33.5 31.3 28.9 26.8 23.2 21.1 19.7 18.2 17.8 17.7 17.5 17.4 17.2 17.7 17.6 20 22.5 25 28.2 31.8 35 38.4 41.7 48.8 58.5 72.9 88.1 103.4 125.7 154.6 184 204.1 210.2 226.2 235.8 240.1 248.4 260.8 269.4 273.3 278.5 282.4 289.4 303.5 313.5 324 332.9 344.4 352.2 354.9 353.5 335.8 310.9 280.3 238.2 208 217.8 232.9 252.4 266.7 268.1 270.3 256 230.1 207.4 187.1 159.9 135 115.4 94.5 80.3 80.8 73.2 64.1 57 51.6 44.7 40.6 38.6 38.3 36.6 35 34.2 33.6 32.4 30.7 31.4 32 31.9 30.8 30.1 29.6 29.1 28.6 28.3 28.4 28 25.6 29.1 28.5 28.1 28.1 28.2 28.9 29.1 28.6 28.7 29.5 30.5 31.8 31.9 33 35.7 36.7 35.1 32.2 30.9 30.6 30.6 30.6 30.6 30.6 32.2 40.4 45.4 55.9 65 65.5 62.5 62.4 53.6 48.5 47.4 46.9 44.5 42.3 47.7 52.9 58.7 54.7 48.3 48.5 52.9 53.4 46.2 36 22.5 8.4 7.3 7 6.8 6.3 5.9 5.7 5.3 5.7 6.2 5.7 5.4 5.7 5.7 5.6 5.5 4.9 4.9 3.9 5.1 5.1 5 4.9 4.9 4.8 4.7 4.6 4.5 4.5 4.5 4.8 4.4 4.3 4.3 4 4.6
-0.3 0.4 1.1 1.8 2.6 3.6 23.7 16 21.4 44.3 44.4 45.3 43.7 43.2 39.2 37.7 38.2 38.3 37.1 34.1 34 31.2 25.7 23 20.5 19.3 19.4 18.9 18.5 17.6 17.5 17.9 20.1 22.5 25 28 30.5 33.8 37.1 41.9 49.3 60.8 71.7 83.9 98.7 122.9 153 189.7 217.8 233.8 245.4 258.6 263.9 262.8 279.5 281.3 288.2 293.7 293.3 301.5 310.7 316.5 326.3 335.8 343.2 348.3 351 349.2 326.9 294.6 262.6 230.6 198.8 203 214.6 229 237.5 241.3 240.2 231.7 216.2 191.3 165.8 143.8 121.3 100.3 84.2 80.9 72 62.2 57 50.7 47.5 41.6 40.2 38 35.9 35.3 34.1 32.5 32.6 31.5 29.9 30.6 31.5 30.6 30.1 29.6 29.1 28.5 28 27.6 27.5 27 26.8 28.1 28.2 28.2 28.2 28.3 27.6 28.7 29.2 30.6 31.7 33 35.1 35.8 37.2 37.1 36.6 36.3 33.3 32.2 30.9 30.6 30.6 30.6 30.6 30.6 33.7 40.6 59.7 75.1 74.2 78.4 70.4 58.6 55.9 53.8 49.3 44.8 43 50.9 58.3 53.3 50.8 50.9 48.9 48.8 45.3 38 33.2 23.2 8.7 6.5 6.7 6.4 5.9 5.6 5.5 5.6 5.9 5.8 5.4 5.5 5.7 5.8 5.8 4.9 4.7 4.6 5 5.1 5 5 4.9 4.9 4.9 4.8 4.7 4.6 4.6 5.5 4.6 4.4 4.2 4 3.9 4.2
-0.8 -0.1 0.6 1.3 2 2.8 6.4 23.3 31.7 47.7 48.9 49 46.8 46.1 43.2 40.6 42.6 43.3 41.9 39.9 41.9 37 31.7 27.6 24.4 22.3 21.7 21.5 19.5 19.6 19.1 17.6 19.4 21.8 24.3 26.1 28.5 30.7 35.5 40.3 44.8 56 65.7 77.6 95.4 119.8 149.2 185.5 217.5 245.8 255.1 272.9 285.3 276.1 289.2 287.7 299.1 305 307.8 309.1 312.6 316.4 324 330.9 338 341.9 343.2 340.4 328.1 289.9 257.4 223.5 194.4 186.5 197.7 208 214.3 218.2 218.3 213 200.5 177 151.1 129.2 107.9 85.2 71.6 69.6 63.4 56.1 50.5 47.2 42.6 39.5 38.3 35.9 34 33.6 33.3 32.3 31.8 30.3 29 29.9 30.7 29.8 29.4 28.9 28.4 27.9 27.4 26.9 26.5 26.6 26.2 26.1 27.4 27.7 27.5 28.3 28.9 29.4 32.6 33.5 37.6 40.3 42.5 43.6 43.4 40.3 37.9 36.4 34.6 32.8 31.6 31.3 31 30.9 30.7 30.5 31 36 49 66.1 72.7 72.1 65.5 57.1 56 54 49.1 43.3 41.7 44.7 47.8 51 51.6 53.1 49.1 48.9 44.5 34.4 30.5 23.5 8.7 6.2 6.4 6.2 5.7 5.6 5.7 5.8 5.9 5.6 5.5 5.6 5.7 5.8 6.2 5.7 5.3 5.2 5.6 5.4 5 5 4.9 4.9 4.9 4.8 4.8 4.6 4.4 4.5 4.4 4.3 4.1 4 4.5 4.8
-1.3 -0.6 0 0.7 1.5 2.3 3.1 13.2 39 45.2 37.5 35.6 44.4 45.7 44.3 44.6 48.6 48.4 46.4 45.6 46.3 40.5 42.1 34 34.8 32.1 26.9 24.3 24.1 25.1 25.5 19.7 18.4 20.3 22 23.8 25 26.4 32.2 37.2 41.7 50.7 62.7 74.7 90.6 114.4 143.9 179.4 211.7 237.7 256.1 269.6 282.8 285.3 286.1 291.1 303.4 308 310.3 313.6 313.7 315.2 320.5 326.2 330.8 333.1 334.7 335.4 318.3 283.3 249.5 219.7 191.3 168.5 178.4 186.1 192.2 196.1 199.5 199.5 186.2 161.8 137 115.8 97.6 74.5 60.7 54.5 53.4 49.5 45.1 39.5 39.2 37.2 35.9 34.3 33.4 30.7 33.2 32.2 30.4 28.6 28.2 29.1 29.8 29.1 28.6 28.1 27.6 27.1 26.6 26.5 26.4 26.8 26.5 25.1 26.6 27.2 27.5 28.2 29.3 33.7 37.9 43.1 47.7 48.8 50.2 50.4 48 44 40.8 38.1 36.8 35.3 33.4 31.9 31.3 31.2 30.8 30.4 31.2 32.7 44.6 58.8 60.7 59 54.8 52.7 51.8 48.9 43.8 40.7 42.4 46.4 51.6 53.3 54.6 56.1 52.2 51.7 40.8 32.3 28.5 19.4 7.6 6.4 6.3 5.9 5.6 5.7 5.7 5.8 5.9 5.7 5.6 5.7 5.8 5.9 6.4 6 5.5 5.2 5.2 5.3 5 4.8 4.8 4.8 4.8 4.8 4.7 4.7 5.5 4.5 4.4 4.3 4.2 4.3 4.6 4.9
-1.9 -1.3 -0.6 0.1 0.9 1.8 2.6 4.1 19.6 28 18.7 22.6 42.4 43.6 41.3 45.8 48.6 50.2 51.9 52.6 49.1 44.8 43.1 40.2 43.6 41.1 29.3 28.2 29.4 31.1 28 22.3 17.2 18.6 19.8 21.6 22.3 23.2 26.5 34.2 38.3 45.3 58.1 71.4 85.2 106.7 135.6 169 199.5 223 246.2 272.1 281.1 284.6 289 291 302.6 304.6 309.9 312.1 312.7 312.3 318 321.7 324.8 330.6 334.4 337.4 318.9 282.4 251.5 220.9 193.2 163.5 163.7 166.5 170.6 176.6 181.5 182.5 170.6 146 123.3 105.2 88.8 68 52.9 47.1 43.7 40.8 36.4 35.6 33.9 34.1 34.3 33.3 31.7 30.2 31.2 29.6 28.5 26.8 27.2 28 28.7 28.4 27.9 27.3 26.8 26.3 26 26 26.7 26.5 26.4 25.3 25.3 27 27.2 29.8 35 38.8 45.9 50.2 52.8 53.6 53.7 53.9 51.8 48.9 46.2 43 40.7 39.2 37.5 35.3 33.9 32.1 31.3 31.5 31.6 33.9 36.5 42.3 46.1 46.1 47 47.2 46.1 42.7 40.5 41.1 47.2 52.6 56 62.1 61.2 57.5 51.9 47.6 41.8 34.5 26.4 16.1 7 6.7 6.3 5.8 5.6 5.7 5.7 5.8 5.9 5.7 5.7 5.8 5.9 6 6.2 5.7 5.4 5.1 5 4.9 5 4.7 4.7 4.6 4.8 4.9 4.6 4.6 4.4 4.4 4.4 4.4 4.3 4 4.4 4.6
-2.6 -1.9 -1.2 -0.4 0.4 1.2 2.1 2.9 6.1 11.4 16 28.2 46.1 40.9 37.7 43 46.9 50.7 53.5 53.2 49.8 45.8 43.9 42.4 41 36.9 33 35.4 37.2 34.2 34.5 26.1 17.9 17.5 18.7 19.2 19.8 20.3 22.6 29.3 35 40.6 52.4 64.2 76.4 99.6 126.1 154.7 182.8 208.6 232.1 259.2 272 279.8 284.3 286.9 291.9 302 306.7 310.5 309.7 304.3 309.5 315.8 320.3 326.6 332.9 337.4 317.6 290.4 264.4 228.4 198.5 166.6 142.7 149.2 149 154.4 161.8 164 151.8 128.4 109.2 94.3 77.9 61 52.1 45.1 39.3 36.8 33.9 32 31.8 30 30.3 30.2 28.2 27.6 27.8 26.8 26.1 26.3 26.6 27 27.5 27.4 26.9 26.5 26 25.6 25.8 25.8 25.7 26.2 26.8 26.7 26.8 26.6 30.4 38.6 45.7 50.3 52.1 53.6 56.4 57.4 57.5 57.2 55.4 53.7 50.3 47.5 44.6 43 41.4 39.4 37.1 35.5 35.2 36.9 37.6 36.2 35.4 37.8 40.4 41.9 41.7 41.9 40.9 39.7 40.8 48.2 53.7 55.5 59.8 66.3 65.7 59.3 54.6 51.6 46.1 38.6 32 21.5 8.4 6.6 6.2 5.7 5.6 5.6 5.7 5.8 5.9 5.8 5.9 5.9 6 6 5.9 5.7 5.4 5.1 4.9 4.8 4.7 4.6 4.5 4.6 4.7 4.8 4.6 4.5 4.4 4.4 4.3 4.3 4.3 4.3 4.3 4.4
-2.6 -2.6 -1.8 -1 -0.1 0.7 1.6 2.4 3.2 7.4 31.8 38.2 42.5 35.3 36.7 43.6 47 50.3 51.5 51.1 48.4 46.4 43.7 40.8 38.2 36.6 38.4 44 45.3 41.6 33.5 24.5 19.3 17.5 17.4 17.2 17 17 19.5 24.8 33 36.7 47.2 59.1 71.4 94 117.5 143 168.4 193.8 217.8 241.9 260.4 273.2 278.8 285.5 285.6 299.8 305.6 307.1 298.8 292 305.4 312.4 317.8 323.6 328.1 329.5 325.3 311.1 275 236.6 205.7 172.9 142.5 132.1 134.7 134.9 141.4 143.7 134.3 113.6 95.8 82.1 66.1 56.8 50.4 46.6 43.7 41.9 39.7 35.3 33 31.5 30.5 28.4 26.9 25.6 27.2 26.3 25.4 25.7 26 26.5 27 26.5 26.1 25.7 25.4 25 25.4 25.9 25.7 25.5 25.4 27.1 27.5 33.4 41.7 54.2 59 58.8 57.4 57.7 59.4 61.2 60.8 60 58.8 57 53.8 50.7 48.5 46.8 45.2 43.5 41.3 39.7 40.4 42.1 42.2 40.2 37.9 38.1 39.4 39.9 40.6 40.1 40.2 40.7 45.5 54 56 59.2 62.3 66.2 63.4 58.8 58 58.8 50 43.7 37.8 27.8 10.9 6.4 6.1 5.6 5.6 5.6 5.6 5.8 5.9 5.9 6 5.9 6.2 6.4 6 5.7 5.4 5.1 4.8 4.7 4.6 4.5 4.4 4.5 4.7 4.8 4.9 4.4 4.3 4.4 4.4 4.4 4.4 4.4 4.5 4.6
-2.6 -2.6 -2.6 -1.4 -0.5 0.3 1.1 1.9 2.6 4 17.3 31.9 37.5 33.2 36.4 43 47.8 48.6 49.6 51 50 48.2 44.8 42.7 41.5 42.1 44.7 47.7 46.4 38.9 31.7 23.8 17.8 16.9 17.3 16.5 16 15.6 15.8 21.1 27.7 33.7 40.3 51.8 66.9 85.6 108.7 133.4 158.2 181.2 205.6 226.9 245 263.3 274.8 276.2 278.4 282.1 290.7 292.2 283.4 281.3 296.7 305.3 313.4 320.4 326.3 328.8 328.9 317.7 283.6 249.1 218.5 180.3 150.7 122.8 118.3 120 120.6 125.3 118.6 99.5 83.5 68.8 60.3 54.8 49.5 46.8 44.6 42.5 40.6 39.4 37.7 35.9 33.9 32.6 30.1 25.2 24.3 25.7 24.9 25 25.5 26.1 26.2 25.9 25.6 25.2 24.8 24.5 24.8 25.2 25.5 25.4 26.8 27.5 34.7 46.1 62.3 69.4 64.8 63.1 61.7 61.6 63.3 64.5 63.9 62.9 60.7 58.7 55.5 54.1 52.4 50.5 48.8 47.5 45.4 44 43.3 42.5 42.1 41.1 40.1 40.8 41.7 42.9 44 44.3 45.1 45.5 50.9 56.7 58.1 60 62.9 64.6 60.6 57.9 58.2 59 52.5 48 43.3 33.8 13.7 6.5 5.9 5.6 5.6 5.6 5.5 5.6 5.7 5.9 6 6 6.1 6.4 6.2 5.7 5.4 5.1 4.7 4.6 4.5 4.4 4.4 4.5 4.2 4.2 6.2 4.6 4.2 4.3 4.3 4.4 4.5 4.5 4.5 4.4
-2.6 -2.6 -2.6 -1.8 -1 -0.2 0.5 1.3 2.1 2.9 5.6 29.1 28.5 32 35.2 41.3 46.6 47.7 48.3 50.9 51.7 50 46.1 43.4 44 45.1 46 45.7 45 41.1 33.7 24.3 17.8 17.2 16.2 15.8 15.4 14.9 14.7 17.3 23.3 29 36 46 60.1 76.7 99.2 122.9 146 170.3 195.8 215.1 231.4 248.8 262.2 268.6 269 269.1 270.2 274.4 269.7 272.2 285.2 297.2 308.4 315.5 321.6 324 321 315.3 296.8 259.3 227.3 189.5 160 131.3 107.4 105.5 107 110.5 101.8 85.7 70.9 63.2 56.7 52.6 49.5 46.7 44.3 42.1 40.2 38.9 37 35.8 34 32.1 29 26 24.1 23.2 24.2 24.5 24.4 24.8 25.2 25 24.9 24.7 24.3 24 24.2 24.5 24.4 24.7 29 36.2 52 68.7 77.9 75.3 69.1 66.6 65.6 66.4 68.2 68.1 67 65.5 62.9 60.2 55.8 55.3 54 54.6 55.6 54.9 52.7 50.2 47.5 46.8 46.1 45.2 44.9 45.1 45.9 48.7 49.9 51.3 52.4 53.2 53.8 57.4 61.8 63.4 63 60.7 59.7 59.8 57.5 55.6 53.7 49.5 51.5 34.7 13.2 7.2 6.2 5.6 5.6 5.5 5.4 5.4 5.5 5.6 5.7 5.8 6 6.2 6 5.7 5.4 5 4.7 4.5 4.4 4.4 4.5 4.5 4.7 4.3 4.8 4.2 4.1 4.2 4.3 4.4 4.5 4.4 4.4 4.4
-2.6 -2.6 -2.6 -2.6 -1.5 -0.8 0 0.7 1.5 2.3 3.1 9.6 24 25 35.7 42.3 48.4 48 47.2 50.1 51 50.7 47.9 46.6 45.7 45.8 44.4 43 42.2 39.3 33.2 24.9 18.7 17.1 16.1 16.2 14.8 14.3 14 14.2 19.8 24.8 31.2 39.4 52.9 67.9 87.6 111.1 133.3 157.5 185.7 209.9 220.7 234.2 246.9 254.6 257.2 257.8 255.1 255.6 253.7 263.3 273.8 290.6 301.4 309.1 316.2 319 312.2 310.7 299.3 267.5 238.3 200.4 168.3 139.4 113.1 93.4 96.5 95 86 73.8 64.4 57.2 52.8 50.7 49.4 44.8 43.4 41.6 39.7 37.7 36.6 34.8 34.1 33 31.1 27.3 24.1 22.5 23.7 23.6 23.6 23.3 24.3 24.1 23.9 23.7 23.6 23.4 23.5 24.2 24.2 28.1 38.8 53.1 68.5 79 83.4 83.2 73.2 70.3 70.2 72.4 72.9 71.3 69.7 68.1 66.9 66.8 66 66.4 68.7 73.6 74 73.5 66 58 55.8 53.8 51.2 49.8 48.3 47.7 48 51.9 53.2 54.1 54.7 57.8 57.1 58.6 64 65 63.8 61.8 61.8 61.5 59.3 55.9 53.7 51.1 50.5 31.9 10.3 6.7 5.9 5.6 5.5 5.4 5.4 5.3 5.4 5.5 5.6 5.7 5.9 6 5.8 5.5 5.2 5 4.7 4.4 4.4 4.4 4.5 4.6 4.6 5 4.8 4.5 4.2 4.3 4.4 4.4 4.4 4.3 4.2 4.4
-2.6 -2.6 -2.6 -2.6 -2.6 -1.4 -0.6 0.1 0.9 1.7 2.5 3.6 9.4 27.9 40.9 44.9 47.8 46 45 46.4 47.8 48.1 46.7 46.6 46.3 44.7 42.9 42 39.6 35.4 31.3 24.6 19.6 17.3 16.3 15.4 14.2 14 13.8 14 15.5 21 26 34.1 45.3 58.9 74.6 95.3 120.6 144.7 172.8 204.8 213.2 221.3 233.6 241.8 245.4 246 243.7 241.3 234.6 251.7 262 280.2 291.4 299.9 305.2 306.1 297.3 292.8 285.3 264.1 242.5 212.4 177.4 147.6 121.5 98.7 84.8 83.2 73.8 65.9 58.3 51.7 46.2 43.9 43.7 43 40.4 38.5 37.1 35.6 35.2 34.8 34.5 34 32 28.2 24.8 23.8 21.6 22.1 22.6 22.8 22.8 23.9 23.5 23.2 23 22.8 23.4 24.6 27.3 36.8 52.8 67.1 77.8 85 88.8 85.8 77.8 74.2 72.8 74.8 74.7 73.4 71.8 76.4 81.7 84.5 86.8 83.9 85 87 85.8 83.1 77 74.7 71.9 64.9 56.2 54 51 48.6 48.8 51.1 54.9 57.8 56.5 57.1 56 60.8 66.3 68.3 66.7 65.7 66.7 66.1 60.9 57.7 53.9 50 38.1 23.5 8.2 6.4 5.6 5.6 5.5 5.4 5.3 5.3 5.3 5.4 5.5 5.7 5.8 6 5.7 5.4 5.1 4.8 4.6 4.4 4.5 4.5 4.6 4.7 4.9 4.9 4.8 4.6 4.4 4.4 4.4 4.4 4.4 4.3 4.1 3.4
-2.6 -2.6 -2.6 -2.6 -2.6 -2 -1.2 -0.4 0.4 1.2 2 2.8 5.4 25.6 40.6 42.5 44.8 45.2 44.5 44.4 42.7 43 43.9 45.2 45.7 44.5 42.3 42.4 40.9 37.5 33.3 25.4 19.8 17.8 16.4 15.6 15 13.8 13.6 13.9 14.8 18.2 22.4 28.6 38.5 51.1 63.6 82.1 104.6 133.8 159.3 183.2 202.8 214.1 222.8 231 235.3 236.4 233.4 227.4 218.1 232.5 244.9 260.3 274.5 281.9 287.4 286.4 279.6 275 266.8 244 222.8 203.4 181.3 148.7 122.4 101.3 81.7 73.8 66.6 61.2 54.3 50 45.5 42.4 40.1 38.4 37 35.5 34.5 34.1 33.6 33.2 32.9 32.3 30.9 26.8 24.3 24.1 22.4 21.5 21.6 21.9 22.3 23.4 23.1 22.8 22.2 24 24.3 27 34.9 50 64.7 76.5 84.1 90.4 92.3 87.8 80.6 76.2 73.8 74.1 74.8 77.7 86.9 97.9 101.2 99.8 101.8 95.8 92.4 91.3 88.7 85.8 85.9 82.9 76.8 67.3 57.4 55.4 52.9 50.1 50 52.6 57 58.1 55.5 57.8 58.7 61.8 68.3 72.4 71.8 68.2 69.9 66.6 63.7 59.7 58.2 51.9 35.1 20.1 7.9 6.4 5.6 5.6 5.5 5.4 5.3 5.2 5.4 5.5 5.5 5.6 5.7 5.9 5.5 5.2 5 4.7 4.4 4.4 4.5 4.6 4.8 4.8 4.9 4.7 4.5 4.4 4.3 4.2 4.3 4.4 4.4 4.2 3.5 -2.6
-2.6 -2.6 -2.6 -2.6 -2.6 -2.6 -1.7 -0.9 -0.1 0.7 1.5 2.3 3.1 8.1 26.8 37.8 40.2 43.7 43.9 42.7 40.7 41.4 42.6 44.2 43.6 43.4 42.9 42.6 40 35.7 32.1 26.2 20.5 17.6 16.2 15.6 15.2 16.4 13.4 13.9 14.5 15.5 19.4 24.6 34 45.1 57.8 72.1 96.4 122.1 147.2 171.1 193.7 208.8 215.7 222.7 226.7 227.7 226.2 214.1 203.8 211.2 223.1 237.1 251.8 262.2 268.5 267.4 259.4 252 238.1 219.6 203.4 185 161.5 136.2 115.6 95 78.2 68.3 65.9 62.1 58.1 51.4 45.4 41.4 38.5 37.2 35.8 34.1 33.2 32.7 32.1 31.6 31.3 30.6 28.5 25 24.5 24.5 23.8 21.7 20.6 21.3 22.1 22.8 22.4 20.3 23.2 25 29.1 33.3 45 60.5 73.5 82.3 88.4 92.4 92.8 89.6 82.3 77.3 74.2 74.3 76.5 90.2 99.4 106.4 113.1 109.9 103.4 96.5 94.4 91.7 89.7 87.5 83.4 80.6 73.4 65.1 59.2 55.3 54.1 50.7 50.3 52.9 54.3 54.8 54.9 57.4 58.1 61.4 70.3 76.5 73.3 70.6 71 68.5 65 59.4 55.1 49.3 38.5 19.8 7.6 6 5.6 5.6 5.5 5.4 5.3 5.2 5.5 5.6 5.6 5.7 5.7 5.7 5.5 5.1 4.8 4.6 4.5 4.5 4.5 4.7 4.8 5.1 4.7 4.5 4.2 4.1 4 4.3 4 4.3 4.3 4 3.5 -2.6
-2.6 -2.6 -2.6 -2.6 -2.6 -2.6 -2.6 -1.3 -0.5 0.3 1.1 1.9 2.7 4.4 17.8 20.4 32.6 42.7 41.9 41.2 40.5 40.9 41.8 41.1 40.9 43.2 42 42.2 40.5 37.3 33.6 27.6 21.3 17.7 16 15.3 14.7 13.5 13.5 13.7 14.3 15 16.7 22.5 27.7 38.4 52.4 67.1 87.7 111.8 137.5 162 184.5 203.2 213.9 216.8 222.8 223.9 222 207.4 188.6 193.4 200 213.2 226.6 244.5 252.4 243.8 231.4 219.8 206.2 193.6 180.9 163.5 144.2 123.3 105.1 84.5 72.9 68.8 63.5 57.2 51.3 47.3 44 40.8 38.1 36.1 34.5 32.9 31.9 31.2 30.6 30.1 29.5 28.5 27.4 24.4 24.6 24.8 24.3 21.7 19.5 20.7 21.7 22.1 19.4 23.5 25.3 29.4 34.1 42.1 56.6 71.7 81.7 86.4 89 91.3 94.2 90.2 83 77.2 75.5 76.7 86.7 98.6 104.1 113.3 117.4 108.4 104.5 99 95.8 93.5 89.6 85.9 82.5 80.3 74.3 68.1 61.5 56.2 53.1 51.4 50.7 52.3 55.3 56.5 56.7 57.2 57.9 61.7 78 80.7 75.5 74.4 73.9 70.7 63.6 58.3 54.4 52.1 44.5 23.6 7.1 6 5.7 5.6 5.5 5.4 5.3 5.2 5.5 5.7 5.7 5.7 5.9 5.7 5.3 5 4.7 4.5 4.5 4.5 4.5 4.7 4.9 4.6 4.5 4.3 4 3.8 3.8 4.4 4.2 3.4 3.8 4 4.4 -2.6
-2.6 -2.6 -2.6 -2.6 -2.6 -2.6 -2.6 -1.8 -1 -0.2 0.6 1.4 2.2 3 6.1 13.2 27.7 41.6 42.7 40.9 40.4 39.2 39.2 39 40.5 40.8 40.7 40.5 40.3 37.5 33.5 28.3 22.5 16.6 13.8 12.9 13.7 13.3 14.1 13.3 13.9 14.5 15.8 19.9 24.7 34.2 45.8 60.4 79.4 103 128.6 153.9 177.3 196.8 209.9 215 219.4 220.6 218 206.8 179.4 179 179.6 189.5 202.3 220.4 235.6 217.3 203.1 190.2 178.9 167.1 154.7 140.5 125.3 109 91.2 75.6 68.5 66.7 67.7 66.1 63.6 58.1 48.5 40 37.3 34.8 33.1 31.7 30.7 29.7 29.1 28.4 27.4 26.5 25.7 24.1 24.6 24.5 23.2 20.7 19.1 20.2 21.3 19.6 23.7 26.4 30 34.7 40.1 54.4 70.1 80.1 84.9 86.7 89.5 93.6 93.9 87.5 80.7 77 77.9 87.4 103.2 116.9 125.5 128 124.2 117.8 111 104.8 98.2 94 90.9 90.8 88.1 83.6 79.8 73.5 68.1 64.9 57.8 51.4 49.7 54 56.3 57.7 64.4 60.7 59.6 61.5 81.9 92.9 87.4 78.3 80.3 76.3 61.6 53.8 54.7 56.1 45.9 23.4 7.1 5.9 5.7 5.6 5.5 5.4 5.3 5.2 5.5 5.8 6 5.9 6.1 5.7 5.3 4.9 4.6 4.6 4.6 4.6 4.6 4.7 4.9 4.5 4.2 4.1 3.8 3.6 3.6 3.8 4.6 4.3 4.3 4.4 -2.6 -2.6
-2.6 -2.6 -2.6 -2.6 -2.6 -2.6 -2.6 -2.6 -1.5 -0.7 0.1 0.9 1.7 2.5 3.3 8.1 18.4 41 43.8 42.3 40.3 39.2 37.7 38.8 43.1 42.4 41.7 39.4 38.4 36.4 32.2 28 19.1 13.5 12.6 13.1 13.4 13.3 13.2 14.2 13.6 13.9 15.2 17.9 23.4 29.8 38.6 52.8 71.3 94.4 119.8 147.9 172.8 194.3 208.6 215.8 217.5 216.2 214.1 205.1 172.9 160 161.4 166.1 179 192.1 205.2 189.2 175.1 162.8 151.7 140.4 129.9 118.8 106.2 92.9 80.9 69.4 64.5 66 67.4 66.1 64.8 60.3 49.5 36.8 35.7 33.3 31.7 30.6 29.5 28.5 27.8 26.9 25.8 25 24.2 23.6 24.1 22.6 21 20.6 18.5 20.9 20.4 23.1 26 29.3 34.4 40 51.6 66.4 76.8 82 85.6 88.3 92.5 94.2 90.3 82.8 79.6 82.7 95.4 106.3 122.7 132.4 138 138.1 129.1 120.8 114.7 108.2 103.3 94.7 92.9 92.1 86.4 87.3 81.8 76.9 74.3 75.3 63.1 52.1 50.7 53.6 54.8 62.6 62.5 63.2 61.2 61.2 78.6 89.6 82.6 78.7 81.8 68.6 54.1 53.6 51.6 47.9 38.6 19.4 7.2 5.8 5.6 5.5 5.4 5.3 5.2 5.3 5.5 5.8 6 6.2 5.8 5.4 5 4.6 4.6 4.7 4.6 4.6 4.6 4 4.9 4.6 4.2 4 3.9 3.8 3.7 3.8 4.3 4.5 4.2 -2.6 -2.6 -2.6
-2.6 -2.6 -2.6 -2.6 -2.6 -2.6 -2.6 -2.6 -2 -1.2 -0.4 0.4 1.2 2 2.8 4.5 18.6 37.8 39.5 42.2 42.4 41.2 37.2 38.6 40.9 41.1 40.9 39.3 36.7 29.5 26.9 23.7 16.2 14 14 13.3 13.3 13.4 13.2 13.1 13.8 13.8 14.5 16.1 20.6 25.5 35 44.6 62.3 85.4 110.5 138.8 168.7 193.2 211.8 217.7 217 212.4 207.6 196 166.3 150.7 147.7 148.5 154 165.3 169.1 162.1 151 139.3 127.6 117.2 109.4 102.6 91.9 84.2 73.4 64.4 62.5 65.5 66.5 64 61.7 56.2 47.7 40.6 35.9 31.9 30.6 29.4 28.3 27.4 26.5 25.4 24.3 23.5 22.8 23 22.8 21.1 19.4 17.8 20.1 18.8 22.2 24.7 28.5 32.5 38.1 47.2 60.8 72.6 77.2 80.8 85 89 91.6 90.6 85.6 81.1 81.5 91.3 103.6 115.5 133.8 144.4 146.6 142.1 129.5 119.9 115.2 112.9 102.5 96.7 96.3 93.1 89.9 86.4 80.9 79.2 77.6 76.3 65.6 52.9 49.6 52.3 57.4 60.2 60.8 60.3 58 59.5 72.5 75.3 71.7 69.8 63.5 53.3 51.2 54.5 56.6 47.9 28.7 15 6.9 5.8 5.7 5.5 5.4 5.3 5.2 5.3 5.5 5.8 6.1 6.3 5.5 4.9 4.5 4.5 4.6 4.6 4.8 4.7 4.8 5.1 4.9 4.5 4.2 4 3.9 3.9 3.8 3.8 3.9 4 4.4 -2.6 -2.6 -2.6
-2.6 -2.6 -2.6 -2.6 -2.6 -2.6 -2.6 -2.6 -2.6 -1.7 -0.9 -0.1 0.7 1.5 2.3 3.1 5.9 16.4 40.6 42.9 42.5 42.3 38.2 35.1 36.9 38 38.3 38.2 35.1 29.1 23.8 19.3 17.6 19.1 19.9 19.4 16.2 11.6 13 12.9 15.2 13.8 14 14.8 17.8 23 30.3 38.7 53.3 75.2 101.4 128.1 161.4 191.1 210.7 218.2 217.1 216.4 205.1 188.7 162.4 143.6 136.5 131.9 134.1 140.2 142.7 138.2 132.1 116.7 105.5 97.8 95.1 86.6 82 76.9 66.2 61 61.1 63.9 64.4 63.7 57.5 51.1 45 39.3 36.3 30.4 28.7 27.8 27.1 26.2 25.2 24 23.1 22.2 21.6 21.9 21.8 20.5 18.6 19.1 20.3 20.3 22 25.3 30.2 36.8 47.8 59.1 65.9 69.6 74.9 80.2 84.8 88.6 91.3 89.2 83.6 81.6 85.4 100.7 113.1 127.2 138.6 147 151.6 142.1 129.6 120.1 114 109 103.6 98.9 98.7 95.8 94.1 88.3 84.5 80.4 76.5 72.9 63.1 60.3 48.3 52.1 57.2 57 58.4 58.2 55 56.3 63.8 65.5 63.1 56 48.2 45.1 47.6 53.6 52.8 39.8 20.5 10.1 6.9 5.8 5.7 5.6 5.5 5.3 5.2 5.3 5.6 5.9 6.2 5.8 4.8 4.5 4.4 4.5 4.5 4.6 4.6 4.8 5.4 5 4.8 4.5 4.2 3.9 3.9 3.7 3.8 3.8 3.9 4.1 -2.6 -2.6 4.3 4.1
-2.6 -2.6 -2.6 -2.6 -2.6 -2.6 -2.6 -2.6 -2.6 -2.6 -1.3 -0.5 0.3 1.1 1.8 2.6 3.6 10.5 34.4 25.9 41 41.6 37.8 33.2 32.8 36 33.3 32.6 28.3 26.3 26.2 25.6 27.2 27.4 24.7 23.9 21.3 16 12.8 12.5 13 14.1 13.8 13.8 16.5 19.5 25.3 35.5 46.8 65.3 92 119 148.7 181.5 203.5 212.3 215.7 217.5 211 186 159 137.1 129 119.8 116.6 115.8 117.9 114.6 109.2 97.4 89.5 86.2 82.6 77.5 75.4 68.7 61 58.6 60.5 62.8 64.4 64.6 63.6 60.6 48 39.1 35 30.3 26.9 26.8 26 25.1 24 23.3 21.7 21 20.5 20.5 19.5 18.8 18.2 19.8 19.6 20.7 22.3 26.4 34.7 47.8 59.4 66.4 76.1 78.9 80.5 89 91.6 93.4 93 88.9 83.6 86.9 99.7 109.9 122.2 129.6 136.7 143.8 147.4 136.9 126.3 118.7 112.6 107.9 104 101.2 99.7 99.3 94.5 87.7 84.2 80 73.7 66.9 53.2 63.7 50.5 52.5 53.8 55.1 56 57.9 52.7 52.8 59.1 59.3 57.4 48.1 44.3 41.1 44.5 48.7 41.7 28.7 9.3 7.5 5.8 5.8 5.7 5.6 5.5 5.3 5.1 5.3 5.7 6 6.3 5.6 4.8 4.3 4.3 4.4 4.5 4.6 4.6 5.2 4.3 4.5 4.7 4.4 4.2 3.9 3.8 3.8 3.9 3.9 4 -2.6 -2.6 3.5 4.3 4.1
-2.6 -2.6 -2.6 -2.6 -2.6 -2.6 -2.6 -2.6 -2.6 -2.6 -1.7 -1 -0.2 0.6 1.3 2.1 2.9 4.9 11.8 19.3 39.2 40 36.6 32.7 30.4 30.3 28.8 26.8 22.3 21.1 23.4 24.4 27.4 29.2 26.3 25.5 23.8 18.7 14.1 12.8 12.8 13.3 14.2 13.8 14.8 17.3 20.9 29.8 39.7 56.6 82.8 110.5 138.9 170.2 191.1 200.7 210 214.2 210.9 180.9 150.5 127.2 116.4 109.7 106.4 103.2 98.5 93.3 86.6 78 75.6 71.5 69.6 68.9 64.9 60.9 56.1 57.1 62.5 64.3 65.5 65.6 65.3 59.6 48.9 40.8 33.6 29.6 27.1 25.6 24.8 24 23.2 22.5 21.1 20.2 19.4 18.3 17.1 18.1 18.8 19.3 20.2 21.4 25.5 32 45.8 55.7 65.1 77.7 89.4 94.2 98.5 101.1 103.1 103.9 96.7 92.1 89.6 95.7 109.2 112.2 128.6 138.2 139.6 139.3 137.6 132.3 123.4 116.5 111.1 106.9 103.6 101.4 104.3 102.1 96.7 88.2 81.8 75 68.2 61.5 54.7 56.5 56.1 51.7 53.1 53.8 54 52.6 47.3 46 52.8 54.7 53.6 50.9 46.3 39.7 39.4 40.9 28.2 11.3 6.8 5.9 5.8 5.7 5.7 5.6 5.5 5.3 5.2 5.4 5.7 6 6 5.2 4.5 4.4 4.4 4.5 4.5 4.6 4 4.5 4.1 4.1 4.1 4.2 4.1 3.9 3.8 3.9 4 4 4.1 -2.6 -2.6 -2.6 4 3.6
-2.6 -2.6 -2.6 -2.6 -2.6 -2.6 -2.6 -2.6 -2.6 -2.6 -2.6 -1.5 -0.7 0 0.8 1.6 2.3 3.1 5.9 31 40 40 38.5 35.8 32.4 28.9 27.2 22.5 23 20.2 18.4 18.5 21.3 26.1 25 22.5 20.8 19.2 14.7 12.7 12.3 12.7 15.4 13.9 13.2 15.5 17.9 24.5 34 49.3 72.5 99.1 125.2 147 159.2 177.6 193.5 203.4 204.5 172.8 139.7 116.4 106 98.2 92.9 88.2 82.3 75.4 69 65.5 65.8 64.6 62.7 60.7 57.8 54.5 52.4 57.3 62.3 64.3 65 65.1 60.3 53.2 42.2 36 31.3 28.8 26.8 24.8 23.7 23 22.3 21.4 20.1 19 18.2 18.3 17.9 18.7 18.8 19.3 21.2 25 30.5 40.5 51.3 60.6 76.4 88.4 96.8 105.6 108.3 110.4 112.1 113.1 107.6 100.4 102.6 106.1 116.6 119.1 139.6 148.9 146.8 143.1 138.1 130.6 122.1 114.5 109.8 105.6 102.5 101.2 101.3 98.1 95 88.7 82.7 74.9 67.1 59.4 51.6 51 52.3 51.5 52.4 52.9 53.5 50.6 46.4 43.6 50.4 52.1 51.4 52.4 41.3 38.6 38.4 28.6 14.2 7.5 6.2 6 5.9 5.8 5.6 5.6 5.4 5.2 5.3 5.5 5.8 6 5.6 4.9 4.6 4.5 4.5 4.6 4.6 3.7 4.4 4.1 3.8 3.8 3.8 3.8 3.8 3.7 3.8 3.9 4 4.1 4.1 4 2.2 -2.6 -2.6 2.5
-2.6 -2.6 -2.6 -2.6 -2.6 -2.6 -2.6 -2.6 -2.6 -2.6 -2.6 -2 -1.3 -0.5 0.2 1 1.8 2.6 3.9 11.2 24 39.7 38.1 36.1 35.8 30.7 28.1 26.2 24.5 21.7 18.7 16.2 16.4 18.8 18.6 17.9 17.1 15.9 14.2 12.3 12.4 12.2 13 14 13.2 15 16.5 19.2 28.1 40.4 59.8 81.3 104.1 117.1 133.7 156 171.5 184.2 187 158.5 127.1 104.5 93.5 86.2 80.9 75.5 70.3 65.1 61.1 59.9 59.9 59.1 57.6 55.8 53.3 51.1 50.7 54.8 58.1 59 59.7 59.3 54.9 48.2 40.1 35.4 32 29.6 28 25.6 22.7 22 21.5 20.3 19 18 17.1 16.5 18.1 18.8 18.4 20.4 23 28.7 35.6 47.4 59 71.6 83.7 94.8 103.9 109.3 113.6 120.4 129.5 133.2 132.1 129.7 126 116 130.4 133.6 147.9 150.2 150.5 153.7 143.6 133.5 124.6 116.4 109.6 104.4 100.9 98.2 97.2 96.1 94 90 85.1 78.4 71 63.2 55.4 50.5 51.7 50.9 51.9 52.5 53.1 50.7 45.8 41.7 45.8 50.5 50.3 43.2 34.5 29.7 24.3 16.7 10.6 6.2 6.1 6 5.8 5.7 5.6 5.5 5.3 5.1 5.3 5.6 5.9 5.8 5.2 4.7 4.7 4.6 4.6 4.6 3.8 4.4 4.1 3.8 3.5 3.5 3.5 3.6 3.6 3.7 3.8 3.9 3.9 3.9 3.8 3.8 1 -2.6 -2.6 1
-2.6 -2.6 -2.6 -2.6 -2.6 -2.6 -2.6 -2.6 -2.6 -2.6 -2.6 -2.6 -1.8 -1.1 -0.3 0.5 1.4 2.2 2.9 5.2 19.6 37.4 34.7 31.1 28.8 29.3 30 29.1 26.4 23.5 20.1 17.1 16.7 16.9 17 16.4 16 14.8 13.9 13 12.4 12.1 12.4 13 13.2 14.2 15.6 17 23.9 35.2 50.4 65.1 84.2 100.8 118 133.3 144.9 156 156.3 138.6 113.1 91.3 79.9 75.7 72.1 67.8 62.7 58 55.6 55 54.4 53.7 52.5 52.3 51.1 49.3 48.9 51 52.1 54 54.5 54.6 53.6 43.8 40.7 39.3 34.4 31.3 29.1 26.3 23.1 21.2 20.6 19.4 18.8 18.1 16.6 16.7 18 18.3 18.9 21.5 25.4 31.2 43.4 56.1 67.8 80.9 91.7 100.2 107.2 116.2 126 139.9 154.2 160.9 153.3 136.7 125.7 124.6 139.6 143.1 152.4 152.9 153.6 153.9 147.3 137.7 128.4 119.3 110.7 103.8 98.5 95 92 89.3 90.3 88.4 85 81.2 74.7 67.2 59.1 56.3 52.2 50.2 51.6 52.3 52 49.3 44.7 40.4 47.1 52.8 49.2 35.4 25 17 12.9 11.4 8.1 6 5.9 5.8 5.7 5.7 5.6 5.4 5.2 5.2 5.4 5.7 6 5.2 4.8 4.8 4.7 4.7 4.7 4 4.5 4.1 3.8 3.5 3.3 3.4 3.4 3.3 3.3 3.3 3.6 3.5 3.6 3.7 4 3.1 -0.6 -2.6 0.7 0.8
-2.6 -2.6 -2.6 -2.6 -2.6 -2.6 -2.6 -2.6 -2.6 -2.6 -2.6 -2.6 -2.6 -1.5 -0.7 0.1 0.9 1.7 2.5 3.2 6.7 32.7 32.2 27.9 28.2 29.9 28.4 26.3 24.7 21.7 19.3 17.7 17.1 16.3 15.9 15.7 16.2 17.3 16.5 13.2 12.4 12.2 12.1 12.6 13.6 13.6 14.5 15.2 19 31.8 43.1 58.8 71.5 87.9 102.4 112.9 119.3 122.4 123.3 115.4 94.7 80 71.4 66.3 63.7 60.7 56.3 52.5 50.6 50.8 49.4 49.3 49.5 49.5 49.4 48.3 45.7 46.5 47.7 50.4 49.8 51.1 53.2 50.7 46 40.7 37.3 36.1 33.5 28.6 24.6 20.9 19.8 19.3 18.7 18.1 16 16.9 18.2 18.3 19.7 23 29.2 38.2 52.9 66.3 79 91.6 101.9 116.4 134.1 147.9 161.3 170.5 162 167.3 160.1 138.4 125.8 128.8 134.7 140.2 150.6 153.1 159.4 157.4 150.7 141.9 133 123.9 114.2 104.4 98.3 93.2 91.8 81.6 85 83.8 82.6 79.4 76 71.9 59.4 53.7 49.2 50.6 50.7 50.3 48.8 46.6 42.7 40.3 45.8 52.3 46.8 31.7 21.9 13 12.9 14 6.5 6.1 5.9 5.8 5.7 5.6 5.5 5.3 5.1 5.2 5 5.3 5.7 4.8 4.6 4.8 4.8 4.6 4.2 4.8 4.3 3.8 3.5 3.3 3.3 3.3 3.3 3.3 3.3 3.3 3.3 3.4 3.6 3.7 3.9 2.8 -2.6 -0.6 -0.3 0.7
-2.6 -2.6 -2.6 -2.6 -2.6 -2.6 -2.6 -2.6 -2.6 -2.6 -2.6 -2.6 -2.6 -2 -1.2 -0.4 0.4 1.2 2 2.7 4.3 17.2 28.1 26.1 26.8 25.9 25.4 24.1 22.8 19.8 17.8 17.1 16.9 16.6 16.7 17.4 18.1 18.7 17.4 14.1 12.5 12.2 12.2 12.2 11.5 14.2 13.4 14.2 17.3 24.6 36.9 49.8 64.8 78.3 88.1 96.4 100.5 100.1 101.5 96 82.2 71.8 62.7 58.7 56.2 54.1 50.5 47.6 45.4 44.6 44.9 46.9 48.2 48 47.8 48 44.6 43.3 47.1 48.1 46.2 47.3 51.5 52.5 50.9 43.9 38.5 34.6 31 27.5 25.4 22.5 18.7 18.2 17.8 17.3 16.8 17.2 18.1 19 20.4 25.8 35.1 49.2 64.1 78.3 92.3 110.4 142.3 156.4 164.3 169.2 166.1 158.4 154.3 160.3 155.6 137.1 127.7 126.9 128.3 138.3 152.6 159.1 164.4 160.5 154.4 145.1 136.1 126.9 117 106.7 98.9 91.6 89.2 80.3 79.7 78.5 77.3 76.1 73.8 66.3 55.4 46.6 42.5 47.7 45.2 43.2 42.3 41.1 39.2 39 48 48.7 41.7 32.4 24.2 18.8 17.8 13.6 6.3 6.2 5.8 5.7 5.6 5.5 5.3 5.2 5.3 5.5 5.5 5 4.9 4.6 4.5 4.6 4.9 4.7 4.6 4.9 4.6 3.8 3.3 3.3 3.3 3.3 3.3 3.3 3.3 3.3 3.3 3.4 3.6 3.7 3.9 2.6 -2.6 -1.1 -0.3 0.6
-2.6 -2.6 -2.6 -2.6 -2.6 -2.6 -2.6 -2.6 -2.6 -2.6 -2.6 -2.6 -2.6 -2.6 -1.6 -0.8 0 0.7 1.5 2.3 3 5.9 21.9 22.4 24.4 23.6 22.9 22 20.7 17.6 17.8 17.3 20.9 21.7 20.2 20.3 20.2 20.5 17.8 15.3 14.4 12.6 11.7 11.3 12.3 10.9 13.8 14 15.7 22.8 30 40.4 53.3 66.2 73.6 80.1 84.6 84.6 82.1 75.8 68.3 62 55.4 52.4 50.1 48 46 43.2 40.9 39.9 41.5 45.3 47.9 47.1 46.8 46.5 44.8 41.5 42.6 42.6 41.6 44.9 47.9 42.6 44.9 40.5 35.7 33.6 29.7 27 24.1 21 17.6 17.1 16.3 15.4 16.6 17.9 18.5 19 20.6 28.9 43.7 62.7 79.6 93.6 109.4 128.4 148.6 160.7 164.6 165.8 162.2 147.3 142.7 151.2 152.5 139.8 126.5 125.2 128.6 137.3 153.6 163.9 171.6 164.8 156.4 146.3 138.5 128.3 118.1 109.3 101.8 93.9 87.6 81.1 74.3 74.1 73.8 73.5 71.2 59.6 45.9 38.3 37.9 38.7 33.6 33.5 35.2 35.4 35 42.9 47.7 46.1 37 32.6 26.6 23.9 18.8 9.8 5.9 5.9 5.9 5.6 5.5 5.4 5.2 5.4 5.5 5.6 5.2 5.4 4.4 4.5 4.4 4.4 5 4.9 4.2 4.5 4.7 4.1 3.3 3.3 3.3 3.3 3.3 3.3 3.3 3.3 3.5 3.8 3.8 3.8 3.8 4 -2.6 -1.4 -0.3 0.4
-2.6 -2.6 -2.6 -2.6 -2.6 -2.6 -2.6 -2.6 -2.6 -2.6 -2.6 -2.6 -2.6 -2.6 -2.6 -1.3 -0.5 0.3 1 1.8 2.5 3.3 7.8 23.2 22.7 22.2 22.5 22.5 18.6 21.4 20.5 19.4 20.6 24.1 25.5 22.6 21.1 22.2 21.4 18.6 16.5 14.2 12.1 11.4 10.7 10.7 13.4 14.1 13.8 18.1 25.7 35.1 44.2 56.2 62.9 67.7 70.4 68.4 64.5 60.4 57 53.3 50.4 46.5 45 43.5 41.4 39 37.3 38.2 42 43.7 45.4 47.1 47.1 47.7 48.2 43.9 37.7 36.3 39.2 44.2 45.5 35.4 37.1 37.5 37.6 38.4 35.9 30.6 20.6 17.8 16.9 16.5 15.8 15.5 16.9 18 18.5 19.2 23.4 38.2 56.8 71 95.5 112.3 123.2 129.5 146.4 158.6 164.3 157.9 155.4 153.7 136.5 138.4 143.4 130.1 125.9 126.9 137.1 140.5 155 167.9 173.1 163.7 158.6 149.2 139.3 129.1 120.2 112.3 105 96.8 88.8 82 71.1 68 68.8 69.3 64.7 52.6 29.8 28.3 32.8 30.3 28.1 29.3 30.5 30.8 35.1 43.6 45.8 37.8 33.1 29 25.1 22.7 14.6 6.3 6 5.8 5.6 5.6 5.4 5.3 5.4 5.5 5.5 5.6 5.2 5 4.2 4.3 4.3 5 4.8 4.3 4.1 3.8 4.2 3.3 3.3 3.3 3.3 3.3 3.3 -2.6 3.3 3.5 3.8 3.7 3.7 3.7 3.7 3.8 -2.6 -1.4 -0.5 0.3
-2.6 -2.6 -2.6 -2.6 -2.6 -2.6 -2.6 -2.6 -2.6 -2.6 -2.6 -2.6 -2.6 -2.6 -2.6 -1.8 -1 -0.2 0.6 1.3 2.1 2.8 5 20 22.4 23.5 25 25.7 25.6 27.4 27 25.5 23 21.9 23.7 23.3 23.5 25.2 25.7 20.1 19.8 15.8 13.5 12.4 10.7 11.6 12.6 13.7 14.8 16.1 21.3 27.7 35.8 43.5 52.5 55.7 57 57.7 56.6 53.1 50.8 47.9 45 41.4 40.5 37.5 35.8 35.1 34.8 38.8 40.4 41.8 44.6 47.4 48.6 49.7 47.8 42.4 35.1 32.1 41.6 42.8 41.8 33.4 33 34.9 42.2 43.5 38.5 30.4 24.3 18.3 16.9 16.1 15.9 16 17.5 17.9 18.7 20.5 33.5 51.5 68.1 82 101.7 121.5 124.7 125.2 139.6 150.5 155.8 156.5 140 145.4 133.8 131.8 129.9 126.8 125.4 130 143.4 148.5 154.9 165.7 168.7 163.4 157.6 147.6 140.5 131.6 123.3 114.7 105.7 95.8 97.6 87.9 73.1 69 70.9 65.2 57.9 45 29.4 26.3 27.4 27.8 27.6 28.1 28.4 29.7 37.2 42.4 39.2 32.6 27.9 24.8 22.2 18.9 8.7 6.1 6 5.9 5.7 5.5 5.4 5.4 5.5 5.5 5.6 5.5 5.2 4.9 4.3 4.3 5.1 4.8 4.1 3.9 3.7 3.5 3.3 3.3 3.3 3.3 3.3 3.3 3.7 -2.6 -2.6 -2.6 -2.6 3.8 3.7 3.7 3.6 3.5 -2.6 -1.4 -0.6 0.2
-2.6 -2.6 -2.6 -2.6 -2.6 -2.6 -2.6 -2.6 -2.6 -2.6 -2.6 -2.6 -2.6 -2.6 -2.6 -2.2 -1.4 -0.7 0.1 0.9 1.6 2.4 3.1 6 18.2 23.6 27.9 29 29.7 30.7 29.8 28.3 25.2 26.5 29.6 29.5 29.5 29.5 26.1 24.5 24.6 18.3 14.7 13.1 12.1 11.1 10.9 11.7 13.8 14.7 18.7 22.5 31 35.6 43.8 48.3 50.1 50.4 49.1 46.7 44.3 42.2 39.2 36 34.6 31.9 31.2 31.2 34.4 36.9 39.2 42.4 44.9 45.4 48 46.2 45 40.5 32.3 29.5 32.4 34.6 34.7 31.5 30.6 32.3 34.9 39 40.8 27.7 20.9 16 15.7 15.7 15.6 16.8 17 18.5 18.7 29.3 46.8 63.9 79 95.9 107.9 120.2 121.9 123.3 131.5 142.2 154.9 150.4 133.2 131.5 126.4 127.8 126.7 125.2 124.2 132.2 145.4 147.8 155.5 162.2 166.7 159.6 150.3 145.9 139.5 132.7 124.9 115.4 105.5 95.5 101.4 86.7 72.6 66.5 65.8 59.4 50.6 39.6 28.1 26 25.5 24.8 24.8 24.9 26 30.1 38.4 44.4 35.3 30.3 24.9 21.8 19.2 10.1 5.8 5.9 6.1 5.9 5.7 5.6 5.3 5.3 5.4 5.5 5.5 5.1 5.7 5 4.2 4.6 4.9 4.6 3.9 4 3.6 3.4 3.3 3.3 3.3 3.3 -2.6 3.3 3.3 -2.6 -2.6 3.3 -2.6 3.7 3.6 3.5 3.4 1.7 -2.6 -1.5 -0.8 0
-2.6 -2.6 -2.6 -2.6 -2.6 -2.6 -2.6 -2.6 -2.6 -2.6 -2.6 -2.6 -2.6 -2.6 -2.6 -2.6 -1.9 -1.1 -0.3 0.4 1.2 1.9 2.7 4.1 13.5 19.3 26 26.7 27.9 29 30 29.2 26.4 29 31.3 30.9 31.9 36.1 37.6 34.4 27.5 20.8 16.9 15.9 12.5 11.8 11.3 11.4 11.4 12.1 14.4 18.9 25.8 30.1 36.5 41.8 44.1 44.6 43 40.4 38 35.5 32.5 30.8 28.9 27.9 27.7 31.1 33.9 36.9 39.5 41.5 40.1 38.4 43 43.2 38.2 35 29.5 27.4 28.8 30.5 30.9 30.9 26.6 27.6 29.4 30.2 29.8 24.8 17.8 15.2 15.4 15.3 16.5 16.6 17.8 19.5 23.7 41.3 61.6 76.9 89.8 104.6 113.2 116.7 120.2 122.4 128 138.3 146.2 142.9 129.3 125.5 126.8 127 127.3 124.9 124.7 133.1 142.6 147.4 155.1 160.4 162.9 153.4 148.6 144.2 138 131.8 123.4 112.9 102.7 100.8 101.4 87.7 76.7 66.9 60.4 54 44.2 39.1 27.5 26 24 20.5 19.9 19.2 21.9 29.6 38 47.2 34.2 27.2 22.3 18.7 12.3 6.1 5.9 5.8 5.9 5.9 5.8 5.6 5.3 5.2 5.2 5.2 5.2 4.6 5.5 4.9 4.2 4.6 4.4 4.4 3.7 4.3 3.7 3.3 3.3 3.4 4.4 4.1 -2.6 -2.6 -2.6 3.8 3.8 3.7 -2.6 -2.6 3.4 3.3 2 -0.1 -2.6 -1.7 -0.9 -0.1
-2.6 -2.6 -2.6 -2.6 -2.6 -2.6 -2.6 -2.6 -2.6 -2.6 -2.6 -2.6 -2.6 -2.6 -2.6 -2.6 -2.6 -1.5 -0.8 0 0.8 1.5 2.3 3 5.5 23 22.5 25.5 27.6 27.7 27.5 27.5 28.4 29 28.7 28.7 33 39.6 39.4 32.4 26.3 21.3 19.8 19.2 14.4 13.9 12.6 11.4 10.5 11.4 11.8 14.1 19 21 26.8 36.2 38.4 37.2 36.2 31.6 30.7 30.2 27.6 25.2 24.1 23.6 26.6 31 35.4 37.5 35.8 32.7 33 36.1 39.6 37.2 33.5 29.6 25.7 25.2 26.6 28.6 31.4 30.7 26.7 24.2 25.7 28.7 28.3 21.4 15.7 14.9 15.2 16.1 16.3 17.1 18.7 23.3 37.6 56.7 73.8 87.9 100.8 110.5 121.3 120.2 123.7 125.8 128.4 134.8 136.7 131.2 126.1 126.5 128.1 128.6 126.9 124.1 125.2 132.5 140.6 143.8 150.5 155.1 156 149.5 150.7 142.1 135 127.1 118.7 109 99.9 101.9 101.3 88.1 81.2 69.7 58.2 47.7 40.1 35.5 26.6 25 21.9 15.7 13.5 14 20.7 30.1 38.6 39.6 28.8 24.3 18.1 12.2 7 6.2 6.1 6 5.8 5.8 5.8 5.5 5.3 5.1 5.1 5.3 5.5 5.9 5.2 4.6 4.6 4.4 4.2 4.1 3.4 4.6 3.6 3.3 3.8 4.8 4.2 3.7 3.3 3.3 -2.6 -2.6 3.8 -2.6 2.7 -2.6 -2.6 -2.6 -1.4 -2.6 -2.6 -1.8 -1 -0.3
-2.6 -2.6 -2.6 -2.6 -2.6 -2.6 -2.6 -2.6 -2.6 -2.6 -2.6 -2.6 -2.6 -2.6 -2.6 -2.6 -2.6 -1.9 -1.2 -0.4 0.4 1.1 1.9 2.6 3.7 10.7 22.9 25.3 25.5 26.3 27.4 27.4 28.7 27.3 26.6 31.8 35.3 35.8 34 31.1 26.6 22.5 20.1 19.6 19.5 18.5 16.4 13.3 10.3 10.8 10.7 11.1 12.8 15.6 18.8 25.9 27.1 26.1 26.7 25.4 25.4 24.8 22.5 20.6 19.8 25.2 27.1 29.5 32.7 29.4 28.5 30.8 33.3 35.6 39.2 34.3 29 25.9 24.3 23.7 26 28.9 27.7 28.8 27.2 22.7 25.1 28 23.1 17.4 15.2 15.3 15.4 16 16.8 18.5 23.2 34.3 50.4 70.6 84.3 95.9 112.4 116.3 124.4 124 125.8 130.7 132.3 137 134.5 128.9 127.2 127.7 128.9 127.4 125.6 123.7 126.8 137.3 140.7 139.7 145.1 150.3 149.4 150.7 146.5 138.7 130.3 122.2 114 104.8 95.4 102.4 102.2 86.4 80.7 70.7 59.5 46.1 35.4 30.2 25.1 22.9 15.8 10.9 9.2 11.9 21.4 31.8 38.3 31.3 26 21.7 15.2 8 6.6 6.4 6.3 6.1 6 5.9 5.8 5.4 5.1 4.8 4.5 4.3 3.9 5.5 4.8 4.5 4.4 4.2 4 3.9 3.3 3.3 3.3 3.3 3.3 -2.6 4 3.3 3.3 3.3 -2.6 3.7 -2.6 -2.6 -2.6 -2.6 -2.6 -2.6 -2.6 -2.6 -2.6 -2 -1.2 -0.4
-2.6 -2.6 -2.6 -2.6 -2.6 -2.6 -2.6 -2.6 -2.6 -2.6 -2.6 -2.6 -2.6 -2.6 -2.6 -2.6 -2.6 -2.6 -1.6 -0.8 0 0.7 1.4 2.2 2.9 5.2 19.7 25.1 24.3 25.3 25.6 25.6 23.5 26.9 29.4 34.3 36.9 35.3 32.2 31 28.8 26.7 26.6 20.7 23.1 21 19 16.1 14.9 11.7 10.5 10.2 10.4 11.8 13.3 16.2 18.1 18.6 18.6 20.6 20.2 20 17.9 18.1 19 19.4 20.9 22.9 25.8 28.6 29.6 30.2 32.7 33.4 38.9 37 30.1 27.2 24.2 24 30 27.2 24 28.4 29.1 22.9 22.1 23.2 19.4 14.7 14.7 15.2 15.5 16.5 19.6 23.9 29.8 43.6 72 87.2 94.7 107.4 119.2 123.7 126.4 127 128.8 133 135.8 136.1 133.9 129.3 129 129.7 127.8 125.9 124 124.5 131.1 140.6 138.5 138 141.1 145.9 144.9 145.9 140.8 133.4 125.2 117.1 109.1 100.6 93 90.2 94.3 86.5 78.8 70.8 57.7 40.6 31.4 23.7 20.6 15.3 10 7.5 8.2 13.4 24.7 33.6 29.7 25.6 21.6 18.1 10.2 6.2 6 5.9 5.9 5.8 5.8 5.7 5.5 5.2 4.8 4.5 4.4 4.1 5.8 5.1 4.4 4.4 4.2 4.1 3.9 3.7 3.3 3.3 3.3 3.7 4.3 -2.6 -2.6 -2.6 3.3 3.3 -2.6 4.3 -2.6 3.3 -2.6 -2.6 -2.6 -2.6 -2.6 -2.6 -2.6 -2.1 -1.3 -0.6
-2.6 -2.6 -2.6 -2.6 -2.6 -2.6 -2.6 -2.6 -2.6 -2.6 -2.6 -2.6 -2.6 -2.6 -2.6 -2.6 -2.6 -2.6 -2 -1.2 -0.5 0.3 1 1.8 2.5 3.2 5.6 26.5 25 25.8 24.7 21.9 23.6 26.2 33.4 35.7 36.2 34 32.1 32.6 33.4 32.1 32.1 26 23.6 22.1 20.2 18 16 15.4 12.2 10.4 10.3 10.2 11 11.3 12.3 13.4 14 14.1 15.2 13.2 15.7 16.8 16.7 16.6 20.6 24.4 28.2 30.3 31.2 30.6 30 32.3 38.3 37 33.1 29.8 26.5 20.6 22.2 23.5 26.4 32.4 29 24.8 22.8 18.3 15.8 14.4 14.9 14.8 15.8 18.3 21.8 28.5 36.6 61.4 104.3 107.2 109.3 118.5 123.3 128.9 133.2 136.8 136.6 140.3 145.7 139.6 133.8 129.7 130.1 129.9 126.7 124.2 123.9 129.4 140.6 144.4 137.1 133.9 137.9 139.3 139.8 140.8 132.5 124.5 118.1 111.7 104.4 97.6 91.8 89.8 89.8 86.3 78 69.5 50.7 37.2 26.9 19.2 14.6 11.2 7 6.9 7.2 13.8 25.1 28.7 26.6 22 17.6 12.8 6.2 5.9 5.8 5.8 5.7 5.7 5.6 5.6 5.3 4.9 4.6 4.4 4.2 4.1 5.3 4.6 4.4 4.2 4.1 3.9 3.7 3.5 3.2 3.3 3.3 3.3 3.8 3.9 -2.6 4.3 3.3 3.3 3.7 4.5 3.8 3.3 3.3 -2.6 -2.6 -2.6 -2.6 -2.6 -2.6 -2.2 -1.5 -0.6
-2.6 -2.6 -2.6 -2.6 -2.6 -2.6 -2.6 -2.6 -2.6 -2.6 -2.6 -2.6 -2.6 -2.6 -2.6 -2.6 -2.6 -2.6 -2.6 -1.6 -0.8 -0.1 0.6 1.3 2 2.8 4.4 16.9 27.6 26.2 22.6 24.3 24.8 27.3 29.3 32.5 34.8 33.6 32 30.7 31.3 32.7 28 23.3 22.8 21.7 19.3 19 18.3 14.6 12 11.1 11.1 10.3 10.3 10.3 10.5 10.8 11.8 12.2 12.4 13.6 14.5 15.3 15.5 15.6 17.9 22 28.4 30.2 29.2 28.2 28.7 34.4 36.7 37.1 36.9 37.6 28.4 21.3 20.2 21 25.9 29.1 28.4 27.2 20.2 14.4 14.1 14.5 14.5 14.9 16.9 20.3 25.4 36.6 48.4 75.2 114.7 116.8 115.6 122.4 125.9 132.6 142.1 145.8 150.1 158.4 159.6 149.5 134.3 131.7 130.9 129.4 124.3 123.2 124.5 132.5 142.4 145.9 133.6 128.7 133.5 133 134.3 132 121.3 116.3 111 105.8 100.7 95.8 91.4 90 91.5 87.9 77.7 65.5 45.1 33.4 23.9 16.6 11.7 8.5 6.8 6.7 7.3 13.6 22.1 22.8 21.8 18.2 12.4 6 5.9 5.7 5.7 5.7 5.6 5.6 5.5 5.4 5.1 4.7 4.4 4.3 4.3 5.5 4.7 4 4.2 4 3.9 3.8 3.6 3.3 3.2 3.2 3.3 3.3 3.3 -2.6 -2.6 4 3.3 3.3 3.8 4.3 3.4 3.3 3.3 3.3 -2.6 -2.6 -2.6 -2.6 -2.6 -2.4 -1.6 -0.9
-2.6 -2.6 -2.6 -2.6 -2.6 -2.6 -2.6 -2.6 -2.6 -2.6 -2.6 -2.6 -2.6 -2.6 -2.6 -2.6 -2.6 -2.6 -2.6 -2 -1.2 -0.6 0.1 0.8 1.6 2.3 3.1 6 25.4 23 23.8 24.6 23.9 25.4 27.9 29.6 32.1 31.8 30.6 29.2 26.7 25.7 21.5 20.7 22.8 22 20.8 21 22.1 18.4 13.4 12.7 11.6 11.2 10.6 9.7 10.4 9.8 10.4 10.7 11.2 12.3 13.1 13.8 14.4 14.5 15.4 17.3 22.8 23.3 27.7 27.3 26.3 30.5 34.5 34 34.6 32.8 24.5 21.1 19.6 18.2 21.7 24.3 24.9 22.2 13.8 14.3 14 14.4 14.4 17.6 20.1 24.7 36.5 49.3 62 89.1 116 123.5 134.8 133.1 132 134.2 150.1 162 166.5 173.5 166.2 145.5 136 132.7 131.6 131.4 123.2 122.9 125.9 132.8 140.8 143.9 135.8 124.9 126.9 126.3 125.3 120.8 112.8 108 104.2 100.6 98.9 94.3 89.2 91.7 91.7 85.3 74.2 58.8 42.2 30.4 22.1 16.2 10.9 7.7 7 6.2 6.9 11.8 16.2 16.7 15.9 12.7 5.9 5.8 5.9 5.8 5.6 5.5 5.5 5.4 5.4 5.2 4.9 4.6 4.4 4.3 4.2 5 4.2 3.9 4 3.8 3.7 3.6 3.5 3.2 3.2 3.2 3.3 3.3 3.3 -2.6 -2.6 4.4 3.7 -2.6 -2.6 4.3 3.3 3.3 3.3 3.3 3.3 -2.6 -2.6 -2.6 -2.6 -2.5 -1.8 -1.2
-2.6 -2.6 -2.6 -2.6 -2.6 -2.6 -2.6 -2.6 -2.6 -2.6 -2.6 -2.6 -2.6 -2.6 -2.6 -2.6 -2.6 -2.6 -2.6 -2.6 -1.8 -1.1 -0.4 0.4 1.1 1.9 2.7 3.7 9.3 20.7 23.7 23.5 24.4 27.8 28.4 29.5 30 29.8 26.3 21.6 21.4 22 23 23 23.5 23.9 22.9 22.9 23.6 21 16.9 14.9 14.3 13.1 12.8 12.9 12.4 12.7 11.1 10.6 10.7 11 11.7 12.4 13.1 13.8 14.8 15.2 18.5 26.8 26.5 22.7 24.5 26.6 30 30.1 29.2 28.1 27.1 22.4 20.5 17.6 16.3 17.9 19.2 13.5 13.5 13.5 14.2 14.4 16.3 20.3 24.9 35.3 51.3 61.9 74.9 99.4 117.1 135.4 145.9 141.2 140.3 148.8 163.1 173.2 179.4 177.8 163.7 146.2 140.6 138.2 135 133 124.2 122.1 125.2 131.9 140.9 141.9 132.8 120.9 120.9 118.4 115.1 109.8 103.6 99.1 97.7 95.9 94.3 91.8 87.1 85.6 83.1 77.4 66.1 51.8 40.3 30 23 16.9 11.1 7.2 6.6 6.3 6.7 10.4 11.6 11.7 9.2 6 5.7 5.6 6 5.9 5.7 5.6 5.4 5.3 5.2 5 4.7 4.5 4.4 4.2 5.4 4.5 3.7 4.2 3.9 3.8 3.6 3.5 3.3 3.2 3.2 3.2 3.3 3.3 3.3 3.3 -2.6 -2.6 -2.6 -2.6 -2.6 4.3 3.6 3.8 3.6 3.3 3.3 -2.6 -2.6 -2.6 -2.6 -2.6 -1.9 -1.6
-2.6 -2.6 -2.6 -2.6 -2.6 -2.6 -2.6 -2.6 -2.6 -2.6 -2.6 -2.6 -2.6 -2.6 -2.6 -2.6 -2.6 -2.6 -2.6 -2.6 -2.6 -1.6 -0.8 0 0.8 1.5 2.2 2.9 4.7 22.4 21.7 21.9 22.7 26.4 26.5 26.6 27.8 28.1 26.5 24.5 26.1 25.1 23.6 23.7 24.5 24.5 24.5 24.8 25.2 22.4 19.2 16.8 16.7 15.4 14.9 14.4 14.1 14.1 13 11.3 10.1 10.5 10.6 11.3 12 12.5 13.1 15.2 17.6 20 21.2 23.9 27.4 28.8 28.5 29.8 29.8 30.7 30.6 26.9 26.1 22 16.6 14.7 13.3 13.3 13.3 13.1 14 15.1 19.7 28.4 35 49.1 63.4 72.6 85 105.5 122.7 147.3 152.9 145.2 152.8 162.2 167.8 176.1 185.4 173.5 161.7 151.1 149.4 144.4 137.6 132 122 121.3 123.4 130.7 138.6 132.6 124.9 114.6 113.3 109.3 103.1 97.2 94.4 93.6 96.9 90.5 89.4 87 87.6 83.9 81.3 74.9 60.1 49.5 41 32 24.9 18.1 11.6 7.2 6.4 6 6.2 7.4 8.3 7.5 5.9 5.6 5.5 5.4 5.8 6 5.8 5.7 5.5 5.3 5.1 4.8 4.6 4.4 4.3 4.1 5.1 4.2 1.8 4.2 3.8 3.6 3.5 3.4 3.2 3.2 3.2 3.3 3.3 3.3 3.3 3.3 3.6 3.4 4.1 4.4 -2.6 4.3 3.1 4.1 3.8 3.4 3.3 3.3 -2.6 -2.6 -2.6 -2.6 -2.1 -1.8
-2.6 -2.6 -2.6 -2.6 -2.6 -2.6 -2.6 -2.6 -2.6 -2.6 -2.6 -2.6 -2.6 -2.6 -2.6 -2.6 -2.6 -2.6 -2.6 -2.6 -2.6 -1.9 -1.1 -0.4 0.4 1.1 1.8 2.5 3.2 7.7 18.3 21.1 22.4 23.6 24.2 24.8 26.4 25.9 27.8 27.1 26.9 26.2 24.6 24.6 24.7 24.5 24.7 25.4 25.1 22.5 19 18 17.7 15.1 12.2 12.7 14.1 14.2 14 12.9 11.6 8.9 10.2 10.2 10.9 11.4 11.7 13.5 14.7 15.6 17.2 19.9 27.3 28.7 27.9 29.5 30.5 31.1 30.8 30.6 27.7 22.5 18 13.2 13.2 13.1 13.1 14.2 15.9 21.5 30 42.4 49.4 59.5 70.7 80.8 92.1 111.3 131.6 156.6 150.5 147.2 159.2 163 169.1 179.8 181 169.5 168.3 162.2 152.6 143.5 136.8 130.5 120.7 121 125.8 135.6 136.1 127 116.5 109.4 106.3 100.8 94.3 94.4 94.2 92.3 90.7 89.9 90.3 91.7 90.3 81.8 80.8 70.4 55 44.6 36.8 31.3 26.6 20 12.3 7.3 6.1 6.1 6.1 6.1 5.8 5.7 5.6 5.5 5.4 5.2 5.3 6 5.8 5.6 5.4 5.4 5.2 4.8 4.2 3.9 3.7 5.4 4.2 3.9 5.3 4.2 3.8 3.5 3.4 3.3 3.2 3.2 3.3 3.3 3.3 3.3 3.3 3.3 3.3 3.4 3.7 3.5 -2.6 4.2 3.7 4.2 3.9 3.7 3.3 3.3 0.9 -2.6 -2.6 -2.6 -2.2 -1.9
-2.6 -2.6 -2.6 -2.6 -2.6 -2.6 -2.6 -2.6 -2.6 -2.6 -2.6 -2.6 -2.6 -2.6 -2.6 -2.6 -2.6 -2.6 -2.6 -2.6 -2.6 -2.6 -1.5 -0.8 -0.1 0.6 1.4 2.1 2.8 4.3 17.7 26 24.3 22.9 22.5 22.6 22.7 26.6 26.4 26.1 26.7 27.1 26.4 25.6 24.7 24.4 24.2 25.8 26.2 24.6 21.1 19.9 18.3 16.3 15.7 15.5 14.6 14.4 14.2 13.4 12.9 11.6 10.2 10 10.2 10.4 10.4 10 9.6 8.9 9.6 16.7 19.6 22 24.6 26.8 28.8 29.9 29.2 26.8 23.3 19.5 14.9 12.3 12.7 13.1 13.2 14.6 20.2 28.6 40.3 51.6 61.8 69.4 75.8 86.4 98.3 115.3 141.1 157.6 147.7 150.2 163.2 166.3 174 184.8 180.1 174.7 170.3 160.9 153.3 144.6 136.4 125.2 119.6 119.6 127.4 134.4 129.7 118.3 109.2 104.5 100.5 97.1 95.2 97.2 97.9 96.8 94.5 95 94 91.3 88 83.8 76.6 63.8 50 40.4 35.2 31.7 28.7 22.2 10.8 6.5 6.2 6.1 6 5.8 5.9 5.7 5.6 5.6 5.5 5.4 5.2 5.2 5.4 5.5 5.5 5.5 5.3 4.7 4.2 3.6 3.2 5.1 4.4 4 4.4 4.1 3.8 3.4 3.3 3.2 3.2 3.2 3.3 3.3 3.3 3.3 3.3 3.3 3.4 3.3 3.3 3.3 -2.6 -2.6 -2.6 3.3 4.2 3.8 3.4 2.6 0.3 -2.6 -2.6 -2.6 -2.4 -1.9
-2.6 -2.6 -2.6 -2.6 -2.6 -2.6 -2.6 -2.6 -2.6 -2.6 -2.6 -2.6 -2.6 -2.6 -2.6 -2.6 -2.6 -2.6 -2.6 -2.6 -2.6 -2.6 -1.9 -1.2 -0.4 0.3 1 1.7 2.3 3 6.3 26.7 23.3 20.8 18.8 19.9 21.5 23.6 24.3 25 25.9 25.2 23.2 24.2 22.4 22.4 23.5 24.3 26.2 26 22.3 20.5 18.9 17.3 15.9 15.4 15.1 14.7 14.3 13.8 12.9 13 10.7 9.3 10 10 9.1 8.5 7.9 7.9 8 11.9 16.2 16.7 18.9 22.8 26.9 27.9 26.8 24.3 20.4 16.5 12.9 11.6 12.5 12.7 13.4 16.4 27 38.4 48.5 56.8 66.3 74.2 81.9 92.6 104.3 119.8 144.3 150.3 148 153.3 164.7 172.2 180.3 186.3 180.3 174.5 167.3 161.1 153.2 144 136.4 124 118.8 120.2 128.5 128.7 122.4 109.6 105 100.6 96.2 95.1 94.6 96.6 97 99.1 100.2 100.3 95.6 91.5 89 82.4 69.7 57.2 44.2 38.1 34 31.9 28.8 17.7 8.5 6.6 6.3 6.1 6 5.9 5.8 5.7 5.7 5.6 5.6 5.5 5.3 5.2 5.4 5.5 5.7 5.6 5.2 4.7 4.2 3.6 5.4 4.9 4.5 2.2 4.2 3.8 3.6 3.3 3.3 3.3 3.2 3.2 3.2 3.3 -2.6 3.3 3.7 3.7 3.5 3.3 3.3 3.3 3.4 -2.6 -2.6 1.2 2.2 3.8 3.3 1.4 0.2 -1.2 -2.6 -2.6 -2.6 -2
-2.6 -2.6 -2.6 -2.6 -2.6 -2.6 -2.6 -2.6 -2.6 -2.6 -2.6 -2.6 -2.6 -2.6 -2.6 -2.6 -2.6 -2.6 -2.6 -2.6 -2.6 -2.6 -2.6 -1.5 -0.8 -0.1 0.5 1.3 1.9 2.6 3.2 11.1 21.3 20 18.5 17.5 18.2 20.1 21.7 23.5 23.7 23.2 21.9 22.9 21 19.1 20.8 22.3 23.8 23.7 19.3 16.2 16.4 16.2 15.8 15.3 15.1 14.9 14.6 14.1 13.4 12.2 10.5 9.9 8.9 9.6 8.6 8.3 8.2 7.9 8 8 9.8 12.5 14.7 21.2 24.9 25.7 23.8 21.5 17.8 15.2 12.2 11.8 12.8 13.1 18.1 25.8 37.5 48.4 59.6 68.5 77.8 84 90.9 100.7 111 123.4 140.6 148.5 149.8 161.5 172.3 178.2 185.1 183.7 184.2 179.3 171 165.7 154.9 147 136.6 124.3 117.8 120.8 125.5 122.4 114.3 103.8 100 95.9 94.3 96.8 99 96.2 96.4 99.2 99.9 97 93.2 90.8 86.5 76 62.2 50.5 41.1 35.7 32.4 31 22.3 12.8 6.6 6.6 6.4 6.2 6.1 6 5.8 5.7 5.7 5.7 5.6 5.6 5.3 5.2 4.9 5.1 5.4 5.7 5.2 4.7 4.1 3.6 4.9 4 3.9 6.3 4.1 3.3 3.3 3.3 3.3 3.3 3.3 3.3 3.3 3.2 -2.6 -2.6 -2.6 3.8 3.5 3.3 3.3 3.3 3.3 -2.6 -2.6 2.5 4.2 3.4 2.7 1.9 0.7 -0.7 -2 -2.6 -2.6 -2.1
-2.6 -2.6 -2.6 -2.6 -2.6 -2.6 -2.6 -2.6 -2.6 -2.6 -2.6 -2.6 -2.6 -2.6 -2.6 -2.6 -2.6 -2.6 -2.6 -2.6 -2.6 -2.6 -2.6 -1.9 -1.2 -0.5 0.2 0.9 1.5 2.2 2.8 4.7 20.9 19.6 17.4 15.8 15.4 16.7 18.4 19.5 20.6 20.3 18.6 18.1 17.6 17.9 19 19.2 20.8 21.2 17.2 15.6 15.7 15.4 15.7 15.5 15.3 15.1 15 14.5 13.3 12.2 11.5 10.6 9 9.3 9.1 8.9 8.6 8.1 8.1 8.1 9.1 10.9 13.3 15.1 22.5 20.4 17.5 14.8 13.1 12.2 12.7 12.9 13.9 18.9 23.1 35.3 49.1 70.7 76.8 85 88.3 99.3 107.8 111.9 122.7 129.2 138.7 147.1 155.2 164.6 178.6 185.4 182.1 183.8 187.7 184 177.3 165 152.4 143.8 134.1 123 116.9 120.6 121.8 115.1 105.2 98.1 94.5 89.9 91.2 94.9 97 98.2 95 95 94.7 93.1 89.7 87.7 79.8 66.3 54.9 43.8 38.4 33.3 29.5 25.3 16.3 8.1 6.5 6.5 6.5 6.2 6.1 5.9 5.7 5.7 5.7 5.7 5.7 5.6 5.4 5.3 5.2 4.7 5.6 5.4 5.8 6 4.4 5.5 4.2 3.7 3.9 5 4 3.3 3.3 3.3 3.3 3.3 3.3 3.3 3.3 3.6 -2.6 -2.6 -2.6 3.5 3.4 3.3 3.3 3.3 -2.6 -2.6 1.2 3.4 3.5 2.8 2.1 1.4 0.5 -0.4 -1.5 -2.6 -2.6 -2.1
-2.6 -2.6 -2.6 -2.6 -2.6 -2.6 -2.6 -2.6 -2.6 -2.6 -2.6 -2.6 -2.6 -2.6 -2.6 -2.6 -2.6 -2.6 -2.6 -2.6 -2.6 -2.6 -2.6 -2.6 -1.5 -0.9 -0.2 0.4 1.1 1.8 2.4 3.1 7.4 18.4 16.4 15.2 16.5 17.7 18.4 18.6 16.9 16.1 15.3 15.7 15.4 15.6 16.8 16.2 19.6 20.1 18.5 16.1 15.7 15 15.3 15.6 15.6 15.4 15.2 14.4 13.2 12.2 11.2 10.8 9.6 7.7 9.5 9 11.5 8.4 8.5 8.2 8.3 9.7 13.2 15.1 19.3 16.7 14.1 12.2 11.8 11.5 11.7 12.6 18.5 23.9 33.7 46.2 62.1 74.9 81.4 87.1 100.8 117.4 123.3 132.4 135.2 136.9 140.1 146.2 156.2 172.4 179.1 180.8 180.5 186 187.6 181.5 172.1 160.2 151.4 139.7 128.9 118.4 114.3 117.2 114.9 105.7 97.3 92.9 88.7 86.6 88.6 92.3 97.8 93.8 90.7 90.5 89.4 86 82.2 76 69.5 60.6 47.6 40.9 36.4 32.1 27.9 21.2 11 6.4 6.4 6.4 6.4 6.3 6.1 5.9 5.6 5.6 5.7 5.7 5.7 5.7 5.5 5.4 5.3 5.7 5.6 4.8 6.5 3.9 3.9 4.9 3.4 3.7 4 4.8 3.9 3.3 3.3 3.3 3.3 3.3 3.3 3.3 3.3 3.6 -2.6 3.5 3.8 3.5 3.4 3.3 1.2 -2.6 -2.6 0 2.9 3.3 2.8 2.1 1.5 0.8 0 -0.8 -1.7 -2.6 -2.6 -2.2
-2.6 -2.6 -2.6 -2.6 -2.6 -2.6 -2.6 -2.6 -2.6 -2.6 -2.6 -2.6 -2.6 -2.6 -2.6 -2.6 -2.6 -2.6 -2.6 -2.6 -2.6 -2.6 -2.6 -2.6 -1.9 -1.3 -0.6 0.1 0.7 1.4 2 2.7 3.6 15.8 16.7 14.7 14.6 15.2 16.1 15.7 16.2 14.7 14.4 14.4 12.6 11.3 12.7 16.9 19.1 19.1 18.1 16.2 15.6 15 14.8 15.3 15.4 15.9 15.5 14 13.3 12.4 9.7 8.6 10.3 9 8.3 9.7 14.4 14.7 8.8 8.1 8.3 8.5 12.9 15.8 15.7 14 12.8 12 11.4 11.4 12.1 17.3 28 37.4 44.4 54.4 66.9 77.6 85.5 99.5 117 128.5 133.5 143.2 143.9 143.6 140.9 145.6 156.9 167.5 173.8 173.3 177.2 180.1 179 171.2 166.6 156.3 148.5 133.2 124 115.8 112.7 112.2 107 99 91.7 87.6 85.9 85.8 87 93.7 91.9 87.3 87.1 86.1 84.7 78 74.2 69.2 62.1 53.4 45.8 41.9 34.8 29.3 24 13.6 7.2 6.4 6.4 6.4 6.3 6.3 6 5.8 5.6 5.6 5.6 5.7 5.7 5.7 5.5 5.6 5.7 5.9 5.8 4.9 4.3 4 5.3 3.9 3.4 3.7 3 4.4 3.6 3.3 3.3 3.3 3.3 3.3 3.3 3.3 3.3 3.2 -2.6 -2.6 3.5 3.5 3.3 2.6 1.2 -0.3 -2.6 -2.6 3.9 2.6 1.8 1.5 0.8 0.1 -0.6 -1.3 -2.6 -2.6 -2.6 -2.3
-2.6 -2.6 -2.6 -2.6 -2.6 -2.6 -2.6 -2.6 -2.6 -2.6 -2.6 -2.6 -2.6 -2.6 -2.6 -2.6 -2.6 -2.6 -2.6 -2.6 -2.6 -2.6 -2.6 -2.6 -2.6 -1.7 -1 -0.3 0.3 1 1.6 2.3 3 5.8 16.1 15.3 14.2 14 14.2 14.1 14.5 13.6 13 11.1 10.3 9.6 11.3 17.2 17.9 18.2 17.2 16.1 15.5 15 15 15.1 15.2 15 14.6 13.4 11.7 12.3 9.5 7.6 7.5 10 8.5 8.6 12.5 25.1 18.5 8.4 8.3 8.2 12.1 13.7 12.8 11.9 10 11.2 10.3 11.7 15.4 33.8 47.3 50.3 51.6 59.8 70.7 84.4 100.3 113.8 128.2 134.5 142.5 149.3 150.2 148.3 142.6 146.6 155.3 161.1 164.4 167 166.3 164.7 159.3 154.2 151.3 145.4 138.4 129.2 119.1 111.3 108.7 106.4 102.1 94.2 90.2 86.7 86.3 85.9 88.3 88.3 84.5 82 82 79.3 74.1 72.6 69.2 61.9 56 45.8 42.5 41.3 32.6 25.4 16.8 9.3 6.6 6.5 6.4 6.3 6.3 6.2 5.9 5.7 5.6 5.6 5.6 5.7 5.7 5.5 5.7 5.7 5.7 5.9 6.1 5 4.5 4.2 5 4.4 3.8 3.8 6.4 4.4 4 3.8 3.3 3.3 3.3 3.3 3.3 3.3 3.3 3.2 -2.6 -2.6 -2.6 1.8 1.9 2 1.2 0.1 -1 -2.6 1.3 1.7 0.8 0.5 0.2 -0.5 -1.2 -1.9 -2.6 -2.6 -2.6 -2.4
-2.6 -2.6 -2.6 -2.6 -2.6 -2.6 -2.6 -2.6 -2.6 -2.6 -2.6 -2.6 -2.6 -2.6 -2.6 -2.6 -2.6 -2.6 -2.6 -2.6 -2.6 -2.6 -2.6 -2.6 -2.6 -2 -1.3 -0.7 -0.1 0.6 1.3 1.9 2.6 3.2 11.1 16 16.5 16.4 16.1 15.5 13.8 12.8 11.7 10.5 9.7 10 12.2 14.9 15.6 15.8 16.1 15.6 15 14.6 15 14.6 13.4 12.1 12.2 12.7 10.4 10 9.3 7.8 7.4 7.8 10.4 8.4 8 15.6 22.3 8.8 8.6 8.4 10.5 11.4 11.9 10 10.8 10.5 10.7 12.8 26.2 50.3 61 53.2 54.7 64 80.3 101.7 114.8 124 132.2 138.3 148.6 151.2 152.6 148.8 146 147.5 152.2 156.6 159.8 162.5 159.5 155.1 151 147.3 142.9 138.9 134.7 127.8 115.2 109.6 105.5 101.4 96.8 91.6 88.6 84.5 84.3 85.2 85.5 82.9 79.3 77 75.6 72.1 70.4 68.9 65.1 54.3 51 43.9 38.6 34.2 27.3 19.8 11.7 6.8 6.5 6.5 6.4 6.4 6.3 6.1 5.9 5.6 5.8 5.9 5.8 5.7 5.7 5.2 5.9 5.7 5.7 5.9 6.1 5.8 4.6 5.2 5 4.7 4.4 3.9 4.8 4.4 4.1 4.1 3.3 3.3 3.3 3.3 3.3 3.3 3.3 3.3 3.3 3.7 -2.6 -0.4 -0.3 -0.1 0 0 -1 -2.6 -2.6 0.3 -0.2 -0.6 -0.8 -1.2 -1.8 -2.6 -2.6 -2.6 -2.6 -2.4
-2.6 -2.6 -2.6 -2.6 -2.6 -2.6 -2.6 -2.6 -2.6 -2.6 -2.6 -2.6 -2.6 -2.6 -2.6 -2.6 -2.6 -2.6 -2.6 -2.6 -2.6 -2.6 -2.6 -2.6 -2.6 -2.6 -1.8 -1.1 -0.4 0.2 0.9 1.5 2.2 2.8 5.4 16.3 17 17.6 16.8 15.1 13.7 12.3 11.1 10.1 9.6 9.7 9.5 12.3 13.4 13.6 14.2 14.2 13.8 13.6 13.5 12.8 11.6 10.6 10.6 10.6 10.4 8.6 7.4 6.9 6.9 7.8 8.1 10.6 7.5 7.6 8.9 8.6 8.6 8.6 10 9.7 12.8 10.9 10.7 11 11.3 15.4 32.4 57.8 48.5 50.9 58.1 73.3 95.5 113.4 121.7 128 135.4 142.7 150.3 154.4 152.9 152.3 150 147.9 149.2 152.6 155.9 157.3 155.2 150.6 147.7 144 138.1 135 131.2 122.3 112.1 106.7 103 97.6 92.2 88.6 84.8 83.3 82.8 83.3 81.2 77.8 75.1 72.8 70.4 68.7 68.6 68.5 64.1 55.2 49.1 44.7 38.3 32.5 23.8 15.2 9.6 6.7 6.4 6.3 6.2 6.3 6.4 6.1 5.8 5.6 5.9 6.2 6.2 6.1 6.1 6.1 6.1 5.8 5.7 5.9 6.1 5.6 4.6 5.1 4.9 4.6 4.3 4 4.3 3.4 4.2 3.7 3.5 3.5 3.4 3.4 -2.6 -2.6 3.6 3.4 1.7 1 -2.6 -2.6 -2.5 -2.3 -2.2 -2 -1.9 -2.6 -2.6 -2.5 -1.1 -1.7 -1.9 -2.1 -2.6 -2.6 -2.6 -2.6 -2.6 -2.5
-2.6 -2.6 -2.6 -2.6 -2.6 -2.6 -2.6 -2.6 -2.6 -2.6 -2.6 -2.6 -2.6 -2.6 -2.6 -2.6 -2.6 -2.6 -2.6 -2.6 -2.6 -2.6 -2.6 -2.6 -2.6 -2.6 -2.1 -1.5 -0.8 -0.2 0.4 1.1 1.7 2.4 3.1 7.4 16.7 16.7 15.4 13.6 10.9 9.2 9.3 9 9.3 9.1 9.1 10.8 11.8 12.3 13.8 14.2 13.2 12.2 11.3 10.5 10.3 10.6 10.7 10.6 10 9.3 8.6 7.4 7.2 7.9 8.1 8.1 10.2 7.8 8.3 8.9 8.9 9.2 9.6 9.9 12.8 10.7 10.7 11.8 12.2 18.3 33.7 42.8 45 52.9 65.8 86.7 107.5 119.4 126.8 132.9 139.6 146.4 152.2 155.3 154.2 155.5 154.8 149.5 147.5 149.8 151.7 153.1 151.1 147.6 144.8 140.7 133.5 130.1 123.4 116.2 109.7 105.2 100.3 96.1 90.1 86.8 84.6 82.5 81.3 79.8 76.9 75.7 73.8 69.7 67.5 68.9 68.9 68.7 65.8 57.6 50.7 43.5 36.9 30.2 20.6 11.7 8.6 7 6.5 6.2 6.3 6.5 6.5 6.1 5.8 5.6 6 6.4 6.5 6.5 6.5 6.6 6.6 6.1 5.7 5.9 6.1 5.2 5.2 4.8 4.3 4.2 4.1 2.8 4.3 3.6 3.5 3.4 3.8 3.8 3.7 3.7 -2.6 -2.6 -2.6 2.6 -2.6 -2.6 -2.6 -2.6 -2.6 -2.6 -2.6 -2.6 -2.6 -2.6 -2.6 -2.6 -2.6 -2.6 -2.6 -2.6 -2.6 -2.6 -2.6 -2.6 -2.6 -2.6
-2.6 -2.6 -2.6 -2.6 -2.6 -2.6 -2.6 -2.6 -2.6 -2.6 -2.6 -2.6 -2.6 -2.6 -2.6 -2.6 -2.6 -2.6 -2.6 -2.6 -2.6 -2.6 -2.6 -2.6 -2.6 -2.6 -2.6 -1.9 -1.2 -0.6 0 0.5 1.2 1.9 2.7 4.3 13.3 13.7 12.5 10.4 8.6 7.7 7.8 7.8 8.9 9.5 9.9 10.2 11.1 11.1 11.3 12.9 11.9 11.1 10.6 10.7 11 10.9 10.9 10.6 9.9 9.8 10.2 10.3 8 8.4 8.2 8.2 8.3 9.7 8.9 9.1 9.3 9.6 9.9 10 10.9 10.8 10.9 11.1 12.4 18.8 31.8 37.9 46.1 57.4 75.9 95.2 110.1 121.8 132.1 137.9 144.2 150.3 156.1 158.2 156.7 157 156.7 149.9 147.6 150.2 151 149 147 144.2 141 135.7 129.8 124.5 118.2 112 107.7 103.6 98.5 94.1 89.4 86.2 83.5 81.3 79.7 77.2 74.5 73.6 71.8 67.7 66.3 69.2 69.6 67.8 64.9 59 49.8 42.2 35.1 27.2 17.3 9.8 7.4 7.1 6.8 6.4 6.3 6.6 6.6 6.3 5.9 5.6 6 6.4 7 6.6 6.5 6.5 6.3 5.9 6.1 6.2 6.4 5.1 5.2 4.5 3.8 3.7 3.8 5.5 4 4.1 3.5 4.3 4.1 4 4 3.9 3.5 -2.6 -2.6 -2.6 -2.6 -2.6 -2.6 -2.6 -2.6 -2.6 -2.6 -2.6 -2.6 -2.6 -2.6 -2.6 -2.6 -2.6 -2.6 -2.6 -2.6 -2.6 -2.6 -2.6 -2.6 -2.6
-2.6 -2.6 -2.6 -2.6 -2.6 -2.6 -2.6 -2.6 -2.6 -2.6 -2.6 -2.6 -2.6 -2.6 -2.6 -2.6 -2.6 -2.6 -2.6 -2.6 -2.6 -2.6 -2.6 -2.6 -2.6 -2.6 -2.6 -2.6 -1.7 -1.1 -0.6 0 0.7 1.5 2.2 3 6.9 10.9 10.7 9.2 7.6 7.1 7.2 8.7 10.2 11.6 11.8 11 10.1 10 10.6 11.4 10.9 10.5 12.5 12.7 12.3 11.4 11 10.6 10.4 10.2 9.9 8.7 7.2 7.7 8.3 8.4 7.9 8.3 9.5 9.3 9 8.8 9 9.1 9.7 10.8 10.8 10.9 13.2 21 30.3 37.1 47.5 63.5 81.2 97.3 112.1 125.1 134.3 141.6 147.7 157.1 159.9 160.7 161.7 161.6 156.1 151.2 149 154.1 155.6 151.5 145.9 141.6 137.1 130.2 124.6 119.6 114.1 109.7 105.6 101.8 98.7 93 89.7 87.5 85.2 82.2 77.3 74.1 72.2 71.3 69.4 66.3 67.1 69.2 70.3 69.2 64.4 57.9 49 41.6 34.2 26 15.3 9 6.9 6.7 6.9 6.7 6.8 6.4 8.1 7.1 6.5 5.7 6.3 7 7.7 7.4 6.9 6.4 6.4 6.5 6.7 6.9 6.9 4.6 4.4 3.9 3.5 3.7 3.9 5.1 3.8 4 3.7 3.6 4.2 4.5 4.1 3.7 3.4 0.8 -2.6 -2.6 -2.6 -2.6 -2.6 -2.6 -2.6 -2.6 -2.6 -2.6 -2.6 -2.6 -2.6 -2.6 -2.6 -2.6 -2.6 -2.6 -2.6 -2.6 -2.6 -2.6 -2.6 -2.6
-2.6 -2.6 -2.6 -2.6 -2.6 -2.6 -2.6 -2.6 -2.6 -2.6 -2.6 -2.6 -2.6 -2.6 -2.6 -2.6 -2.6 -2.6 -2.6 -2.6 -2.6 -2.6 -2.6 -2.6 -2.6 -2.6 -2.6 -2.6 -2.6 -1.7 -1.2 -0.5 0.3 1 1.8 2.5 3.3 9 8.8 8.3 6.8 6.6 7.2 9.6 11.5 13.3 12.7 11.7 11.9 10.6 10.5 10.9 10.5 11.8 14.3 14.2 13.7 12.5 11.3 11 10.8 10.6 9.9 8.5 7.3 7.8 8.3 8.4 9.2 11.2 10.9 10.7 10.4 10.1 9.7 9.6 9.9 10.6 10.7 10.9 15.4 22.2 29.1 37.6 50.6 66.2 83.2 99.4 114.1 126.4 133.5 138.6 145 150.7 155.6 158.5 159.7 157.2 151.6 151.2 156.1 162.4 162.8 157.2 150 143.8 137.5 129.2 121.4 115.1 110.5 107.4 103.8 100.3 96.6 91.4 89.3 86.7 83.6 80.7 77.6 73.4 68.8 67.8 66.8 65 66.8 68.6 69 67 64.7 56.9 49 42.4 34.1 25.9 16.6 9.3 6.5 6.2 6.4 7.6 6.7 6.2 9.2 8.3 6.7 6 6.7 7.4 7.9 8 7.5 7.1 7 7.2 7.4 7.6 5.7 5.4 4.1 3.7 3.6 3.7 3.9 4.6 4.3 4.1 4.1 -2.6 3.5 4.5 4 3.5 2.5 0.7 -1.1 -2.6 -2.6 -2.6 -2.6 -2.6 -2.6 -2.6 -2.6 -2.6 -2.6 -2.6 -2.6 -2.6 -2.6 -2.6 -2.6 -2.6 -2.6 -2.6 -2.6 -2.6 -2.6 -2.6
-2.6 -2.6 -2.6 -2.6 -2.6 -2.6 -2.6 -2.6 -2.6 -2.6 -2.6 -2.6 -2.6 -2.6 -2.6 -2.6 -2.6 -2.6 -2.6 -2.6 -2.6 -2.6 -2.6 -2.6 -2.6 -2.6 -2.6 -2.6 -2.6 -2.6 -1.7 -0.9 -0.1 0.6 1.4 2.1 2.8 5.7 7.8 7.5 6.3 6.5 7.3 9.1 11.2 13.1 13.2 13 13.2 11.3 10.8 11 12.4 13.5 15.4 15.6 14.8 14.6 13.4 12 11.4 10.8 10.3 8.9 7.5 7.6 8.3 8.4 9.8 10.9 11 10.8 10.5 10.3 9.9 10.1 10 10.2 10.5 11.9 17.5 23.4 29 37.5 49.3 66 82.4 98.9 111.8 118.6 123.9 128.8 131.3 138.3 145.9 152.6 154.6 152.5 145.5 147.3 155.2 160.7 159.3 154.3 153.3 149.4 142 131.9 119.7 111.3 107.4 104.4 101.6 98.2 93.4 89.3 88.4 84.7 84.9 81.5 78.7 71.5 68.5 62.2 63.7 63.8 65 67.6 66.3 64.7 61.7 55.2 48.1 42.4 34.5 26 16.2 8.7 6.2 5.7 5.8 8.8 10.4 10.3 8.9 7.7 5.7 6.2 6.9 7.5 7.8 7.9 7.9 7.8 7.6 8.2 8.5 5.8 4.8 4.2 3.9 3.5 3.6 3.8 3.9 4.2 4 -2.6 -2.6 -2.6 4.2 4.2 3.7 3.1 2 0.9 -0.4 -1.8 -2.6 -2.6 -2.6 -2.6 -2.6 -2.6 -2.6 -2.6 -2.6 -2.6 -2.6 -2.6 -2.6 -2.6 -2.6 -2.6 -2.6 -2.6 -2.6 -2.6 -2.6 -2.6
-2.6 -2.6 -2.6 -2.6 -2.6 -2.6 -2.6 -2.6 -2.6 -2.6 -2.6 -2.6 -2.6 -2.6 -2.6 -2.6 -2.6 -2.6 -2.6 -2.6 -2.6 -2.6 -2.6 -2.6 -2.6 -2.6 -2.6 -2.6 -2.6 -2.6 -2 -1.2 -0.4 0.3 1 1.7 2.5 3.2 7 6.5 6.3 6.4 8 10.7 12.2 13.5 14.1 14.4 13.6 11.9 11.4 11.9 13.5 15.2 16.4 15.9 15.5 15.5 14.5 12.8 11.5 10.7 10.7 9.3 7.6 7.5 8.5 8.6 9.6 12 12.1 12 11.7 10.5 10.3 10 9.9 10 10.3 15.3 20.2 24.7 29.7 36.6 46.4 63.4 77.5 91.7 102.4 108.9 114.1 118.1 120.4 127.4 141.3 150 147.4 142.6 140.6 144.8 149.2 153.5 157.5 157.3 153.2 146.3 145.5 127.4 113.9 105.5 103.5 100.8 98.3 93.6 91 88.5 87.9 89.4 87.5 83.5 79 77.4 70.2 58.1 54.5 58.7 63.8 65 64.5 62.5 59.6 53.1 48.5 44.2 38.3 28.4 15.6 7.5 6.1 5.7 6.1 8.7 9.9 9.3 7.7 5.8 6.2 6.6 7.1 7.4 7.7 7.7 8.1 8.3 8.1 8.7 6.6 5.2 4.4 4 3.7 3.5 3.6 3.8 4.1 3.4 3.8 -2.6 3.8 3.7 -2.6 3.6 3.5 2.6 1.7 0.6 -0.5 -1.6 -2.6 -2.6 -2.6 -2.6 -2.6 -2.6 -2.6 -2.6 -2.6 -2.6 -2.6 -2.6 -2.6 -2.6 -2.6 -2.6 -2.6 -2.6 -2.6 -2.6 -2.6 -2.6
-2.6 -2.6 -2.6 -2.6 -2.6 -2.6 -2.6 -2.6 -2.6 -2.6 -2.6 -2.6 -2.6 -2.6 -2.6 -2.6 -2.6 -2.6 -2.6 -2.6 -2.6 -2.6 -2.6 -2.6 -2.6 -2.6 -2.6 -2.6 -2.6 -2.6 -2.6 -1.5 -0.8 -0.1 0.7 1.4 2.1 2.8 4.4 7.7 6.2 6.7 8.7 10.3 12.1 13.5 14.4 15.4 13.3 12 12.2 12.5 14.1 15.5 16 15.5 15.5 15.7 15.3 13.7 12.1 10.4 9.7 7.8 7.5 7.5 7.1 8.1 9.3 11.9 13.3 12.7 12 10.7 10.6 11 10.5 10.5 10.2 17.3 21.5 25.7 29.9 35.2 44.1 57.6 70.3 81.5 91.2 96.1 98.4 104.3 110.2 115.7 128.2 132.2 134.3 134.5 139.3 142.4 143.4 146.7 152.4 152.5 148.6 141.1 134.2 118.5 108.6 100.9 98.4 95.8 90.5 90.1 93 90.5 89.5 90 91.6 84.1 82.2 77.5 64 54.1 45.5 56.1 60.8 61.1 60.5 59.7 55.5 51.7 49.8 47.9 41.1 27.7 13.4 7 5.9 5.8 6.1 9 9.3 8 6.3 6.1 6.5 6.8 7.1 7.4 7.6 7.7 8.6 8.8 8.6 8.1 5.9 4.8 5.6 3.8 3.5 3.5 3.6 3.8 6.2 3.4 3.8 -2.6 3.3 -2.6 -2.6 3.3 2.9 2.2 1.2 0.3 -0.6 -1.6 -2.6 -2.6 -2.6 -2.6 -2.6 -2.6 -2.6 -2.6 -2.6 -2.6 -2.6 -2.6 -2.6 -2.6 -2.6 -2.6 -2.6 -2.6 -2.6 -2.6 -2.6 -2.6
-2.6 -2.6 -2.6 -2.6 -2.6 -2.6 -2.6 -2.6 -2.6 -2.6 -2.6 -2.6 -2.6 -2.6 -2.6 -2.6 -2.6 -2.6 -2.6 -2.6 -2.6 -2.6 -2.6 -2.6 -2.6 -2.6 -2.6 -2.6 -2.6 -2.6 -2.6 -1.9 -1.1 -0.4 0.3 1 1.7 2.4 3.1 6.6 7.2 7.3 9 10.2 11.6 13.4 15.5 14.4 13 12.8 12.9 12.8 13.7 15.5 15.3 15.1 15.5 15.9 15.3 14.2 11.5 9.9 8.2 7.4 7.4 7.3 7.4 8.1 8.6 11.2 13.5 12.6 11.9 11.1 10.4 11.7 11.4 9.9 12.5 19.2 22.5 25.1 29.3 34.4 42.3 53.1 61 71.4 76.9 83 89 95.6 100.2 105.9 112.9 123 127.3 129.7 137.8 141.3 139.4 140.3 142.6 144.4 140.2 133.8 120.8 111.6 102.8 92.8 92.3 88.8 85.6 89.2 95.7 101.2 94 91 88.7 83.6 79.8 69.6 58 47.8 44.2 51.4 52.2 55.5 56.1 55 50.7 51.5 51.2 49.3 40 29.1 13.7 7 5.7 6.1 6.5 7.1 8 6 5.9 6.2 6.6 6.9 7.1 7.4 7.6 8.2 9 9.1 8.8 6.3 4.6 4.4 4.1 3.6 3.5 3.5 3.6 3.8 4.3 3.3 3.5 3.9 -2.6 -2.6 -2.6 3.3 2.1 1.3 0.8 -0.2 -1.1 -2 -2.6 -2.6 -2.6 -2.6 -2.6 -2.6 -2.6 -2.6 -2.6 -2.6 -2.6 -2.6 -2.6 -2.6 -2.6 -2.6 -2.6 -2.6 -2.6 -2.6 -2.6 -2.6
-2.6 -2.6 -2.6 -2.6 -2.6 -2.6 -2.6 -2.6 -2.6 -2.6 -2.6 -2.6 -2.6 -2.6 -2.6 -2.6 -2.6 -2.6 -2.6 -2.6 -2.6 -2.6 -2.6 -2.6 -2.6 -2.6 -2.6 -2.6 -2.6 -2.6 -2.6 -2.6 -1.5 -0.7 0 0.6 1.4 2 2.7 3.9 8.1 8.6 9.6 11.2 11.8 13.6 13.9 13.2 13.1 12.9 12.8 12.8 14.4 15.3 14.7 14.8 15.7 15.9 15.6 14.6 11.2 9.5 9.5 7.6 7 7 7.1 7.7 7.8 10.7 12.9 12.9 12 11.2 10.7 10.3 10.5 10 14.7 20.4 23.1 25.8 28.4 33 40.5 49.5 58.1 65.9 72.2 81.3 87.1 91.6 96.6 103.2 109.2 119 123.1 125.3 134.2 136.6 137.2 136.1 137.2 137.1 134 124.1 115.6 106.8 93.3 87.9 87.7 84.4 84.2 89.6 100.4 107.6 105.6 99.6 91.5 83 71.9 62.3 53.7 43.6 40.4 43 43.7 48.2 51 47.1 47.1 48.7 47.2 42.4 42 29.9 15.2 7.2 5.7 6.2 6.7 6.4 5.8 5.5 5.8 6.2 6.6 6.9 7.2 7.6 8 9.2 9.6 9.4 7.9 5.3 4.4 4.4 3.7 3.6 3.6 3.6 3.6 3.7 3.7 3.4 3.3 3.4 3.8 -2.6 3.3 2.6 1.3 0.2 -0.2 -0.6 -1.6 -2.5 -2.6 -2.6 -2.6 -2.6 -2.6 -2.6 -2.6 -2.6 -2.6 -2.6 -2.6 -2.6 -2.6 -2.6 -2.6 -2.6 -2.6 -2.6 -2.6 -2.6 -2.6 -2.1
-2.6 -2.6 -2.6 -2.6 -2.6 -2.6 -2.6 -2.6 -2.6 -2.6 -2.6 -2.6 -2.6 -2.6 -2.6 -2.6 -2.6 -2.6 -2.6 -2.6 -2.6 -2.6 -2.6 -2.6 -2.6 -2.6 -2.6 -2.6 -2.6 -2.6 -2.6 -2.6 -1.8 -1.1 -0.4 0.3 1 1.7 2.3 3 5.8 8.8 9.1 11.9 12.5 12.2 12.6 13.4 13.5 13.3 13.1 13 14.3 14.9 14.4 14.2 15.1 15.9 15.4 13.7 10.7 11.2 11.3 8.9 6.6 6.7 6.9 7.2 5.8 10.2 12.3 12.8 11.9 11.5 10.6 9.8 10.1 10.2 15.1 20.3 23.3 25.7 28.4 34.7 41.3 48.2 56 62.1 69.2 78.5 84.7 90.4 96 102.8 107.9 114.4 118.7 123.1 129.7 135 137 131.8 130 129.1 125.4 119.2 109.8 99.7 88.7 85.3 85.2 82.3 83.6 93.3 106.9 115.7 115.5 101.3 89.5 80 67.1 57.8 49.5 43.4 38.5 32.6 38.4 41.3 41.6 41.4 42.9 42.6 41.1 37.6 34.9 20.3 13.4 7.9 5.8 6.3 6.7 6.4 5.7 5.4 5.7 6.1 6.5 7 7.4 7.9 8.3 8.7 9.1 9.4 7.4 4.6 4.4 5.6 3.6 3.6 3.6 3.6 3.7 2.5 3.3 3.3 3.3 3.3 3.4 1.9 2.9 1.6 0.4 -0.7 -1.3 -1.6 -2.6 -2.6 -2.6 -2.6 -2.6 -2.6 -2.6 -2.6 -2.6 -2.6 -2.6 -2.6 -2.6 -2.6 -2.6 -2.6 -2.6 -2.6 -2.6 -2.6 -2.6 -2.5 -1.9 -1.9
-2.6 -2.6 -2.6 -2.6 -2.6 -2.6 -2.6 -2.6 -2.6 -2.6 -2.6 -2.6 -2.6 -2.6 -2.6 -2.6 -2.6 -2.6 -2.6 -2.6 -2.6 -2.6 -2.6 -2.6 -2.6 -2.6 -2.6 -2.6 -2.6 -2.6 -2.6 -2.6 -2.1 -1.4 -0.7 -0.1 0.6 1.2 1.9 2.6 3.5 8.9 9.8 11.3 10.4 11.3 12.7 13.4 13.8 13.7 13.6 13.5 13.6 12.9 12.9 12.5 12.2 13 13.2 13.7 14.4 14.8 13.5 9.8 6.8 6.6 6.7 6.9 8.7 9.3 11.3 12.9 12.6 12.3 11.5 10.5 9.3 10.1 12.3 19.1 23 25.5 29.3 34.2 39.1 45.9 52.2 58.6 66.5 74.6 83.3 89.1 95.1 102.1 106.4 113.8 119 122 127.8 131.5 134.8 128.8 125.3 121.7 118.9 110.5 103.4 96.2 86.9 83.3 81.7 82 85.2 97.4 112.2 118.9 109.2 101.3 83.6 72.5 62.1 53.1 45.9 42.5 40.3 30.7 35.6 38.3 38.5 37.7 36.4 35.2 34.3 31.5 25.4 16.5 12 7.6 6.3 6.2 5.8 5.8 5.3 5.5 5.4 5.6 5.9 6.7 7.4 7.9 7.9 7.7 7.9 8 8.4 7.9 5.7 4 3.5 3.5 3.5 3.6 3.6 5.9 3.4 3.3 3.3 3.3 3.3 2.7 1.3 0.3 -0.9 -2.6 -2.6 -2.6 -2.6 -2.6 -2.6 -2.6 -2.6 -2.6 -2.6 -2.6 -2.6 -2.6 -2.6 -2.6 -2.6 -2.6 -2.6 -2.6 -2.6 -2.6 -2.6 -2.6 -2.6 -2 -1.6 -1.8
-2.6 -2.6 -2.6 -2.6 -2.6 -2.6 -2.6 -2.6 -2.6 -2.6 -2.6 -2.6 -2.6 -2.6 -2.6 -2.6 -2.6 -2.6 -2.6 -2.6 -2.6 -2.6 -2.6 -2.6 -2.6 -2.6 -2.6 -2.6 -2.6 -2.6 -2.6 -2.6 -2.6 -1.8 -1.2 -0.6 0 0.8 1.5 2.2 2.9 5.6 9.9 10.2 11.8 13.5 13.1 13.8 13.5 13.6 13.9 14.5 14.5 13.1 12.1 12.4 13 14.6 15.7 16.4 16 14.8 13.3 10.4 6.9 6.5 6.7 7.1 7.6 8.9 10.4 11.9 13.3 13 12.4 11.2 9.9 8.4 10.1 17.3 21.5 24.5 28.4 31.8 35.4 41.8 47 54.2 62 71.5 79.9 87.5 93.7 101.3 108.6 115.3 121.3 130 133.2 133.5 132.7 125 121.2 117.4 114.9 107 101.4 96 86.1 81.2 80.4 82.8 86.9 103.6 115.4 108.5 103 99.3 81.8 67.5 57.9 49.5 43 39.9 35.4 27.3 34 37.3 33.8 30.8 27.6 27.5 26.2 20.6 15.9 12.7 10.5 7.2 7 5.8 6 6.1 7 8.7 7.5 4.8 5.2 6.3 7.2 7.7 7.8 7.6 7.3 7.4 7.3 5.6 4.4 3.7 3.4 3.4 3.4 3.5 3.5 4.5 3.3 3.3 3.3 3.3 3.4 2.4 0.4 -1.2 -2.6 -2.6 -2.6 -2.6 -2.6 -2.6 -2.6 -2.6 -2.6 -2.6 -2.6 -2.6 -2.6 -2.6 -2.6 -2.6 -2.6 -2.6 -2.6 -2.6 -2.6 -2.6 -2.6 -2.6 -2.2 -1.6 -1.4 -1.6
-2.6 -2.6 -2.6 -2.6 -2.6 -2.6 -2.6 -2.6 -2.6 -2.6 -2.6 -2.6 -2.6 -2.6 -2.6 -2.6 -2.6 -2.6 -2.6 -2.6 -2.6 -2.6 -2.6 -2.6 -2.6 -2.6 -2.6 -2.6 -2.6 -2.6 -2.6 -2.6 -2.6 -2.6 -1.7 -1.1 -0.3 0.4 1.1 1.8 2.5 3.3 11.2 11.9 11.3 12.1 12.6 13.4 13.4 13.8 14.3 15.3 15.2 13.4 13.1 13.3 14.5 16.2 17 16.7 15.7 14.4 12.9 9.8 6.8 6.6 7 7.4 7.8 8.5 10 11.5 12.6 13.1 13.2 12 10.7 9.4 9.7 14.6 19.1 22.6 25.8 28.1 31.5 36.4 40.1 48.9 57 66 73.2 87.3 97.3 104.9 112.5 119.4 126.6 134.2 133.1 131.7 127.3 122.2 119.4 120.3 118.7 108.9 103.9 98 85 80.4 79.4 81.8 87.9 111.1 108.6 101.8 98.9 90.9 76.6 63.1 52.6 45.8 39.6 36.2 31.3 26.4 25.2 27.4 26.9 24.5 22.7 24.9 25.6 19.4 17.5 9.8 8.7 6.3 6.5 7.1 6.6 7.3 9.5 10.9 10.5 6.1 5.3 5 6.4 7.9 8 7.6 7.1 7 6.9 5.7 5.1 3.4 3.4 3.4 3.4 3.4 3.4 4 3.3 3.3 3.3 3.3 1.9 1.4 -0.6 -2.6 -2.6 -2.6 -2.6 -2.6 -2.6 -2.6 -2.6 -2.6 -2.6 -2.6 -2.6 -2.6 -2.6 -2.6 -2.6 -2.6 -2.6 -2.6 -2.6 -2.6 -2.6 -2.6 -2.6 -2.6 -1.6 -1.2 -1.2 -1.4
-2.6 -2.6 -2.6 -2.6 -2.6 -2.6 -2.6 -2.6 -2.6 -2.6 -2.6 -2.6 -2.6 -2.6 -2.6 -2.6 -2.6 -2.6 -2.6 -2.6 -2.6 -2.6 -2.6 -2.6 -2.6 -2.6 -2.6 -2.6 -2.6 -2.6 -2.6 -2.6 -2.6 -2.6 -2.2 -1.5 -0.7 0 0.7 1.4 2.1 2.9 5.4 12.6 11.9 11.5 11.6 12.8 13.8 14 14.4 15.4 15.6 14.4 14.5 14.5 14.6 16.1 16.9 16.4 14.9 13.7 12.4 9.3 6.9 6.6 7 7.2 7.4 8.2 9.6 11 12 12.7 13 13.1 11.7 10.3 9.5 10.9 16.5 20 23.2 25.2 27.6 31.1 32.8 40 47.8 61.3 72 84.4 95 107.9 116.5 123.5 125.4 127.9 128.9 126.2 123 119.5 117.7 121.1 118.1 112.3 106.5 98 82.4 79.8 77.2 79.5 88.1 105.2 102.3 99.1 97.2 86.1 70.8 55.4 47.7 41.1 36.3 33.8 32.2 28 24.5 22 20.6 18.8 20.3 25.1 30.8 22.8 11.7 8 7.8 6.9 6.3 7.1 8.5 10.5 10.8 10.5 10.7 6.5 5.6 5.3 6 7.8 8.2 7.7 7.1 6.7 6.5 4.9 3.9 3.6 3.5 3.5 3.4 3.5 3 3.9 3.3 3.3 3.3 3.3 -2.6 -2 -2.6 -2.6 -2.6 -2.6 -2.6 -2.6 -2.6 -2.6 -2.6 -2.6 -2.6 -2.6 -2.6 -2.6 -2.6 -2.6 -2.6 -2.6 -2.6 -2.6 -2.6 -2.6 -2.6 -2.6 -2.6 -1.9 -1.3 -0.9 -1.1 -1.2
-2.6 -2.6 -2.6 -2.6 -2.6 -2.6 -2.6 -2.6 -2.6 -2.6 -2.6 -2.6 -2.6 -2.6 -2.6 -2.6 -2.6 -2.6 -2.6 -2.6 -2.6 -2.6 -2.6 -2.6 -2.6 -2.6 -2.6 -2.6 -2.6 -2.6 -2.6 -2.6 -2.6 -2.6 -2.6 -1.8 -1.1 -0.4 0.3 1 1.7 2.5 3.2 8.9 12.1 11.3 11.7 12.7 13 13.1 13.3 14.1 15.2 16 16 15.5 15.6 15.9 16.1 15.1 14.1 12.8 11.4 9.1 7.1 6.5 6.3 6.2 6.5 8 9 10.4 11.3 11.9 12.1 12.9 12.6 11.2 10.2 9 12.8 16.7 20.7 23.5 25 26.8 29.3 33 39.9 56.5 71.2 85.8 96 107.7 115.5 120.9 124.7 125.6 123.5 121.8 119.5 115.6 115.7 117.6 118 112.7 106.9 91.1 80.1 76.8 74.6 76.1 83.3 97.2 97.4 96.1 94.9 82.6 65.4 49.4 43.3 37.5 33 31.2 30.6 29.5 26.3 22.2 17.6 15.6 15.8 20.1 24 17.6 8.1 6.2 7 6.5 6.9 7.8 9.3 11.2 10.9 10.5 7.7 5.8 5.5 4.1 5.9 7.5 8.4 7.8 7.2 6.6 5.9 4.1 3.7 3.7 3.6 3.6 3.5 3.5 4.8 3.7 3.3 3.3 3.3 2.9 -2.6 -2.6 -2.6 -2.6 -2.6 -2.6 -2.6 -2.6 -2.6 -2.6 -2.6 -2.6 -2.6 -2.6 -2.6 -2.6 -2.6 -2.6 -2.6 -2.6 -2.6 -2.6 -2.6 -2.6 -2.6 -2.6 -2.3 -1.3 -0.8 -0.7 -0.9 -1.1
-2.6 -2.6 -2.6 -2.6 -2.6 -2.6 -2.6 -2.6 -2.6 -2.6 -2.6 -2.6 -2.6 -2.6 -2.6 -2.6 -2.6 -2.6 -2.6 -2.6 -2.6 -2.6 -2.6 -2.6 -2.6 -2.6 -2.6 -2.6 -2.6 -2.6 -2.6 -2.6 -2.6 -2.6 -2.6 -2.2 -1.5 -0.8 -0.1 0.6 1.3 2.1 2.8 5.1 9.9 11.7 12.2 11.9 11.5 10.8 11.5 12.9 14.1 15.3 14.8 14.7 14.6 14.7 14.2 13.4 12.6 12.3 10.4 8.5 6.6 6.7 6.5 6.3 6.2 5.7 6.5 8.3 10 10.8 11.3 12.2 12.8 12.2 11.2 9.8 8.3 13 17.4 21.8 23.4 25 26.3 28.6 29.8 45.3 64.2 80.1 95.1 102.8 111.6 120.2 122.3 120.4 117.4 116.4 113 109.1 111.8 114.1 112.2 107.8 100.2 87 79.7 74.4 71.3 71.6 75.3 87 94 92 91.5 77.3 59.4 46.6 39.6 33.5 29.5 29 28.6 26.5 22.7 19.3 16.9 13.6 12.9 15.4 16.3 8.8 7.7 7.3 7.3 7.4 8.4 9.1 10.3 11.4 11.2 10 6.3 5.5 5.2 5.4 6 7.5 8.2 7 6.3 5.8 5.1 4.6 3.9 3.8 3.8 3.7 3.6 3.6 5.6 3.5 3.3 3.3 3.3 1.8 -2.6 -2.6 -2.6 -2.6 -2.6 -2.6 -2.6 -2.6 -2.6 -2.6 -2.6 -2.6 -2.6 -2.6 -2.6 -2.6 -2.6 -2.6 -2.6 -2.6 -2.6 -2.6 -2.6 -2.6 -2.6 -2.6 -1.7 -0.7 -0.4 -0.5 -0.7 -0.9
-2.6 -2.6 -2.6 -2.6 -2.6 -2.6 -2.6 -2.6 -2.6 -2.6 -2.6 -2.6 -2.6 -2.6 -2.6 -2.6 -2.6 -2.6 -2.6 -2.6 -2.6 -2.6 -2.6 -2.6 -2.6 -2.6 -2.6 -2.6 -2.6 -2.6 -2.6 -2.6 -2.6 -2.6 -2.6 -2.6 -1.9 -1.2 -0.5 0.2 1 1.7 2.4 3.1 7.5 12.9 12.7 12.5 12.2 11.4 10.3 11.6 13.1 13.2 13.1 13.3 13.7 13.7 13.9 13.6 11.7 11.3 9.5 7.5 6.6 6.8 6.5 6.2 6.2 7.1 6.4 6.7 8.1 9.8 10.6 11.5 12 12 11.9 10.8 8.6 8.8 13.6 18.7 21.5 22.9 23.3 22.9 21.6 30.5 45 59.1 75.5 82.5 97.9 111.4 111.4 109.2 103.8 98.7 98.7 96.4 94.5 92.8 91.7 93.8 88 81.9 75.1 68.5 64.8 65.7 71.1 86 89.5 82.6 77.5 68.3 52.6 41.4 32.8 27.8 26.5 26.6 25.2 22.4 18.5 14.4 13.4 11.5 10.8 12.7 9.5 8.3 10.3 12.4 12.2 8.5 8.8 10 10.7 11.3 11 9.8 6.2 5.3 5.2 5.6 6.3 7.1 7.9 6.7 5.6 5.2 4.8 3.8 3.8 3.7 3.6 3.6 3.5 3.4 4.1 3.5 3.3 3.2 1.6 0.3 -2.6 -2.6 -2.6 -2.6 -2.6 -2.6 -2.6 -2.6 -2.6 -2.6 -2.6 -2.6 -2.6 -2.6 -2.6 -2.6 -2.6 -2.6 -2.6 -2.6 -2.6 -2.6 -2.6 -2.6 -2.6 -2 -1.1 -0.5 -0.2 -0.4 -0.5 -0.7
-2.6 -2.6 -2.6 -2.6 -2.6 -2.6 -2.6 -2.6 -2.6 -2.6 -2.6 -2.6 -2.6 -2.6 -2.6 -2.6 -2.6 -2.6 -2.6 -2.6 -2.6 -2.6 -2.6 -2.6 -2.6 -2.6 -2.6 -2.6 -2.6 -2.6 -2.6 -2.6 -2.6 -2.6 -2.6 -2.6 -2.6 -1.6 -0.9 -0.2 0.6 1.3 2 2.7 4.4 12.7 13.1 12.9 12.6 12.4 11 11.7 13 13.2 12.8 12.8 13.4 14.6 14.5 12.7 10.2 9.7 8.3 6.6 6.8 6.5 6.4 6.2 6.1 6.9 6 6.3 6.9 7.9 9.1 9.8 10.6 11.5 11.6 11.3 8.9 7.4 10.3 14.9 18.5 19.6 19.4 15.3 16 19.3 34.7 41.8 49.4 57.6 67.7 78.7 83.8 88 83.9 86.2 83.6 78.7 79.6 81 82.8 86.3 80.1 73.1 64.4 58.9 57.1 61.9 69.5 77.5 76.6 71.3 68 61.7 42.1 32.8 25.9 24.2 24.1 26.3 24.5 17.5 13.9 11.4 9.7 9.9 9.6 9.7 8.7 11.9 15.9 18.8 16 10.2 10.1 10.9 11.4 11.3 10.5 9 6 5.1 5.2 5.4 5.8 6 6.8 6.8 5.7 5.2 4.6 3.9 3.7 3.7 3.5 3.4 3.2 3.2 3.9 3.3 3.3 1.5 -0.5 -2.6 -2.6 -2.6 -2.6 -2.6 -2.6 -2.6 -2.6 -2.6 -2.6 -2.6 -2.6 -2.6 -2.6 -2.6 -2.6 -2.6 -2.6 -2.6 -2.6 -2.6 -2.6 -2.6 -2.6 -2.6 -2.4 -1.4 -0.4 -0.1 0 -0.2 -0.4 -0.5
-2.6 -2.6 -2.6 -2.6 -2.6 -2.6 -2.6 -2.6 -2.6 -2.6 -2.6 -2.6 -2.6 -2.6 -2.6 -2.6 -2.6 -2.6 -2.6 -2.6 -2.6 -2.6 -2.6 -2.6 -2.6 -2.6 -2.6 -2.6 -2.6 -2.6 -2.6 -2.6 -2.6 -2.6 -2.6 -2.6 -2.6 -2 -1.3 -0.5 0.2 0.9 1.6 2.3 3 6.7 13.4 13.1 12.7 13.1 12.3 11.9 12.6 13 12.6 12.9 13.5 13.8 12.7 10.7 8.9 8 7 6.6 6.9 6.8 6.6 6.2 6 6.4 6.7 7 6.2 6.3 6.4 7.2 8 9.3 10.3 9.5 8 6.9 6.9 10 13.2 14.8 13.2 11.2 14.1 18.5 27.9 34.4 39.7 45.3 53 57.1 60.9 66.1 70.1 72.7 72.3 72.7 74.5 74.7 76.3 76.5 71.6 65.9 59.5 54.5 53.2 58.6 64.1 68.6 67.1 61 56.6 45.9 36.7 25.6 21.4 19.2 23 24.2 17.1 11.9 10 8.2 8.4 8.7 8.9 9 9.5 15.6 21.8 23.2 16.8 12.5 14.8 16 16.1 14.9 12 8.3 6 5.4 5.1 5.3 6 5.9 6.1 7.3 8 5.5 4.8 4 3.7 3.6 3.5 3.3 3.2 5.5 3.7 3.3 1 -0.5 -2.6 -2.6 2.4 -2.6 -2.6 -2.6 -2.6 -2.6 -2.6 -2.6 -2.6 -2.6 -2.6 -2.6 -2.6 -2.6 -2.6 -2.6 -2.6 -2.6 -2.6 -2.6 -2.6 -2.6 -2.6 -2.6 -1.8 -0.8 0.1 0.4 0.2 0 -0.2 -0.4
-2.6 -2.6 -2.6 -2.6 -2.6 -2.6 -2.6 -2.6 -2.6 -2.6 -2.6 -2.6 -2.6 -2.6 -2.6 -2.6 -2.6 -2.6 -2.6 -2.6 -2.6 -2.6 -2.6 -2.6 -2.6 -2.6 -2.6 -2.6 -2.6 -2.6 -2.6 -2.6 -2.6 -2.6 -2.6 -2.6 -2.6 -2.6 -1.6 -0.9 -0.2 0.5 1.2 1.9 2.6 3.8 13.2 13.3 12.9 12.8 11.8 10.7 10.9 12.7 12.2 13 13.6 13.4 11 8.8 7.7 7 6.3 6.4 6.6 6.7 6.4 6.2 5.9 5.8 6.2 6.6 6.9 7.6 5.9 6.2 6.3 6.9 7.7 7.8 7.7 6.5 6.7 6.8 8.1 9.3 8.2 8.4 12.2 17.1 23.8 29.9 36 42.4 47.4 52.6 57.4 62.8 65 65.6 66.2 67.6 69.6 70.1 68.9 67.6 63.7 58.6 52.9 49.2 49.9 54.5 58.8 64.1 61.1 51.6 47 41.3 29.3 21.2 17 16.1 15.7 14.2 10.9 8.9 8.2 7.6 7.7 8.6 9.4 10.6 11.8 20.5 27.4 24.5 16.5 17 19.1 20.8 20.4 18.5 13.8 9.8 6.8 5.8 5.5 5.2 4 5.9 6.1 6.4 7.1 7.9 4.8 4 3.7 3.5 3.4 2.8 5 3.9 3.7 -2.6 -2.6 -2.6 -2.6 9.2 8.1 7.4 -2.6 -2.6 -2.6 -2.6 -2.6 -2.6 -2.6 -2.6 -2.6 -2.6 -2.6 -2.6 -2.6 -2.6 -2.6 -2.6 -2.6 -2.6 -2.6 -2.6 -2.6 -2.1 -1.1 -0.2 0.3 0.5 0.3 0.2 0 -0.2
-2.6 -2.6 -2.6 -2.6 -2.6 -2.6 -2.6 -2.6 -2.6 -2.6 -2.6 -2.6 -2.6 -2.6 -2.6 -2.6 -2.6 -2.6 -2.6 -2.6 -2.6 -2.6 -2.6 -2.6 -2.6 -2.6 -2.6 -2.6 -2.6 -2.6 -2.6 -2.6 -2.6 -2.6 -2.6 -2.6 -2.6 -2.6 -2 -1.3 -0.6 0.2 0.8 1.5 2.3 3 6.4 12.6 12.3 12.1 11 10.2 10.5 11.1 12 13.1 13.2 12.9 10.3 8.6 7.3 6.7 6.2 6.2 6.4 6.4 6.2 5.9 5.8 5.8 5.9 6 6.2 6.5 6.4 5.8 5.9 6.5 7.2 7 6.9 6.6 6.6 6.6 6.7 6.8 9.2 7.8 11.8 16.3 20.2 24 30.2 36.9 43 51 55.3 57.4 57.6 59.2 60.3 61.7 63.3 64.1 62.6 59.6 56.2 52.8 48.6 45.7 47 51.1 54.9 52.6 47.3 44.6 41.2 33.6 25.5 20.1 16.2 13.4 12.2 11.2 9.6 8.7 7.8 7.5 8 8.9 10.4 11.7 15 25.3 30.7 24.5 18.1 19.6 21.2 22.9 22.3 19.5 15.5 11 7.9 6.2 5.9 6.1 6.1 5.8 6 6.2 6.6 5 4.4 3.8 3.6 2.2 5 3.7 3.3 3.3 -2.6 -2.6 3.6 5.7 10.4 9.4 8.7 7.9 3.1 0.4 -2.6 -2.6 -2.6 -2.6 -2.6 -2.6 -2.6 -2.6 -2.6 -2.6 -2.6 -2.6 -2.6 -2.6 -2.6 -2.6 -2.6 -2.6 -2.5 -1.5 -0.5 0.5 0.7 0.7 0.5 0.3 0.2 0
