ncols 200
nrows 86
xllcorner 310000
yllcorner 493250
cellsize 50
131.6 132.3 122.6 128.6 129.7 147.4 162.3 165.7 164.6 164.5 164.7 157.3 143.9 135.1 138.1 134.3 129.8 123 112.8 102.8 95.7 93.2 81.2 68.9 61 50.3 37 22.9 14.5 10.6 8.4 7.5 6.6 6.5 6.4 6.2 6.1 5.9 5.6 5.2 5.2 5.3 -2.6 3.1 3.1 4.3 4.6 4.6 7 8.6 16.7 16.8 11.6 9 8.8 8.4 8.2 8.6 9.6 10.9 11.3 10.6 10 9.6 11 13.2 14.8 22.2 31.7 51 57.4 57.9 66.5 77.8 85.9 94.5 104.5 116.1 127.3 136.6 147.8 150.3 159.8 168.5 174.1 177.5 179 185.1 188.2 189.5 190.5 189 190.9 192.9 193 192.2 188.1 186.1 177 186.7 191.9 197.2 205.9 213.4 222.2 241.1 262.6 283.2 281.5 273.5 274.9 276.4 273.4 270.1 268.6 267.6 268.9 269.5 269.9 271 270.6 270.1 268.6 265 262.8 263.6 264.7 264.3 263.5 263.4 262.3 261 259.2 257 252.7 248.2 247.3 246.4 245.3 244.2 243.7 241.1 241.2 239.8 238.5 237.8 239.3 239.5 238.6 236.4 234.5 232.4 230.3 227 227.7 227.6 227.4 227.7 227.3 228.3 229.3 230 230.9 230.4 234.5 240.3 247.7 253.3 258.9 266.2 270.6 275.7 280.8 287.7 292.1 296.9 304.8 311.7 315.7 321.2 325 327.4 329.6 331 332.9 337 343.7 349.6 356.7 365 374.5 381.7 378.7 377.4 377.1 377.9 379.8 383.2 386.1 386.5
128.2 125.3 122.6 127.5 133.3 149.7 155.7 159.5 161.3 161.2 159.9 153.7 143.3 129.2 128.8 125.4 119.2 111.3 101.5 92.4 90.8 87.4 73.3 58 45.7 33.5 18.4 11.4 8.8 8.1 7.5 6.9 6.2 6.1 6.1 6 5.8 5.6 5.3 5 5.3 -2.6 -2.6 3.6 4.8 4.5 4.6 4.6 8.7 14.1 21.5 16.9 11 10.1 10.6 10.3 10.6 11.5 12.4 13.6 13.9 13.3 12.8 11.9 13.8 16.7 23.8 32.9 41.7 57.5 72.2 74 80.5 89.8 98.8 109.6 117.8 134.4 146.8 155.6 160.7 162.6 165.4 173.4 181.2 186.7 187.8 191.7 194.5 195.8 196.7 198 198.6 198.9 199.3 197.5 193.2 189.8 183.5 190.6 195.2 200.8 210.4 220.2 231 247 273.2 300.7 297.9 283.7 281.2 280.9 278.7 275.3 273.2 269.2 268.4 268.7 268 267.6 265.9 264 261 257.5 256.4 256.3 258.4 259.6 260.2 258.5 256.2 254.2 252.2 250.1 249 247.8 247.2 246.5 245.8 245.6 245.7 246.3 250.4 249.7 247 246.2 244.6 243.1 242.3 240.6 239.2 237.9 236.9 234.8 234 233.9 233.9 232.1 230.2 229.8 232.1 235.1 237.1 237.8 236.8 237 245.3 249.6 256 261.9 266.4 271.6 277.2 285.3 292.7 297.2 300 309.4 313.5 321 325.7 330.5 333.5 336.1 339.5 342.1 345.7 351.6 359.6 368.4 384 382 382.9 383.8 381.4 381.6 385.2 385.2 386 386.4
122.5 123 124.7 129.2 134.7 142.5 147.1 152.1 155.5 155.5 153.6 149 138.3 125.1 126.1 120.7 107 100.3 92.5 87.1 81 72.1 59 43.7 27.4 14.7 9.6 5.2 7.3 7.1 6.6 6.1 5.8 5.8 5.7 5.7 5.6 5.4 5.1 4.2 4.6 4.9 -2.6 4 4.4 4.5 4.8 5.6 10.2 11.6 13 10.8 11.5 12.7 13.4 13.5 15.1 15.5 16.3 17.9 18.2 19.1 17.6 18 19.8 21.9 29.6 41 45.4 68.1 88.2 96.2 98.2 101.6 111.1 120.9 135.4 150.1 156.6 162.3 167.9 175.1 173.7 183.6 188.4 191.8 194 195.1 196.7 198 200.5 201.8 203.4 204.2 203.4 202.6 199.1 193.6 186.8 194.2 199.3 204.9 215.8 226.4 239.9 257.2 281.2 300.6 295.4 288.1 284.1 281 277.3 274.2 271.9 269.3 266.7 265.8 263.8 261.7 259.1 256.6 255.2 253.1 252.6 252 251.2 252.1 252.9 252.5 251.1 248.8 249.1 249.2 249.4 248.4 248.1 247.1 246.9 249.1 251.2 252.3 253.5 254.1 252.8 252 250.3 248.9 247.4 245.5 244 242.4 240.2 238.2 237 236.9 236.7 235.9 232.5 231.8 235.6 239 241.6 242.4 243.5 244.4 244.1 248.1 255.4 260.8 268 275.9 281 286.3 294.6 301 306.4 310.6 315.6 322.1 328.3 335.3 339.9 343 347.1 350.1 351.5 352.5 357.9 365.6 373.6 377.4 384.4 385.8 382.7 384.5 386.6 385.7 386.4 386.8
116.4 119.9 126.4 127.5 131.9 137.9 142.7 146.2 149.4 149.2 147.8 142.6 129.2 118.6 117.1 109.6 99.9 96 87.8 79.9 72.4 62.1 46.2 28.6 14.1 9.1 7.2 5.2 6.7 6.9 6.4 5.9 5.8 5.7 5.5 5.4 5.3 4.6 3.7 3.8 4.1 -2.6 -2.6 4.2 4.8 4.8 4.7 7.8 10.6 10.9 10.8 11.7 13 14.6 15.5 16.4 18.7 20.1 22.1 25.2 24.8 24.2 23.7 25.6 27.6 31.6 40.3 50.7 53.9 74.1 97.6 111.5 112.7 114.6 119.6 130.4 143.4 153.3 159.5 168.6 176.2 182.1 183.4 186.7 192.4 196.7 199 198 197.8 200.1 203.7 206 208.1 208.8 206.4 204.7 203.1 199.6 187.9 199.6 203.7 209.3 220.1 231.5 247.8 271.1 292.3 295.8 293.9 290.7 283.7 278.5 274.4 272.4 270.5 267.5 264.3 260.9 258.6 256.4 252.6 250.8 249.7 248.6 247.3 245.8 244.6 244.8 244.9 246.1 245.5 246 247.3 248.3 248.9 249.3 248.7 248.1 249.5 250.2 253.5 255.6 256.5 257.4 258.6 257.4 256.1 254.8 253.1 251.2 248.9 246.5 244.3 241.9 240.7 240.4 239.8 240 235.4 233.6 238.5 241.9 244.1 246.1 247.1 248.4 250 250.2 255.3 261.8 268.3 274.4 280 286.1 293.5 299.9 306.8 313 319.7 328.1 335.1 342.3 345.4 350.4 356.9 361.8 362.4 364.7 364.3 367.4 368.9 375 383.3 383.6 382.5 384.2 384.9 385.8 386.9 387.4
111.2 115.2 122 125.8 128.6 134.5 140 142 144 142.9 140.2 130.1 119.2 111.7 105.5 101 91.5 90.1 83 73.6 64 52 34 15.3 9.5 7.1 6.5 5.2 6.3 6.3 6.2 5.7 5.6 5.4 5.3 5.3 5.3 3.7 2.8 3.4 4.2 -2.6 4.2 7.3 8.3 6.9 5.4 7.9 9.3 11 11.4 13 15.3 19.5 21.7 22.7 24.2 27 27.9 29.8 30.4 29.9 31.1 33.4 35.8 43.5 54.1 61.6 66 77.5 104.2 117.9 116.6 123.7 130.1 140.2 148.4 153.2 165.2 175.1 182 185 188.6 191.5 195.3 199.8 201.4 202 199.6 201.3 205.8 209 209.4 208.5 207.6 207.2 208.5 208.6 201.3 200.2 208.6 214.1 226.7 238.8 256.9 282.2 283.8 289.2 293.9 290.6 279.9 272.5 267.6 265.8 265 262.6 258.3 255.8 252.3 248.6 246.5 246.1 245.2 244.1 242.9 241.3 238.5 238.7 241.7 244.2 244.8 245.5 246.7 247.9 249.1 249.9 250.1 252.7 257.1 262.5 268.1 270.4 269.3 267.6 266 264.2 262.2 260.2 258.2 256 253.6 251.3 249.2 246.5 244.4 243.4 242.9 241.8 239.6 234 238.9 242.3 245.2 247.9 249.9 251.2 253.6 255.7 259.2 263.1 266.9 272.6 278.9 286.4 294.3 300.6 309.3 317.4 323 331.6 340.5 344.7 349.6 355 361.9 370.6 369.8 372.7 374.7 375.4 376.2 375 379.8 380.6 382.4 383.9 386 388.1 388.1 390.1
108 110.6 116.5 123 126.8 132.1 136.7 139 137.9 136.2 127.1 116.7 109.1 104.3 91.5 86.5 83 78.5 71.6 65.1 53.4 36 17.4 10.2 7.9 6.5 6.5 6.5 6.1 5.8 5.9 5.6 5.4 5.4 5.7 5.4 4.6 3.8 -2.6 3.2 -2.6 -2.6 -2.6 8 7.9 7.5 7.2 8.9 10.8 13.9 17.2 21.6 22.9 27.3 28.6 30.1 29.8 31.8 34.2 35.2 34.6 33.5 37.5 39.9 42.4 51.7 64.5 75.3 82.5 92.3 103.2 112.6 122.3 133.4 140.8 147.8 151.3 159.7 169.6 179 184.1 188.3 191.2 196.5 198.3 200.6 202.9 202.9 202.1 201.9 206.6 208.9 209.2 209.3 209.7 212.4 213.6 216.6 214.8 202.9 206.3 221.4 235.7 243.2 255.6 268.3 273.7 276.6 279.4 275.2 267.3 263.4 260 256.1 254.9 252.9 250.8 247.6 245.4 243.8 241.3 240 239.8 239.6 240 237 234.3 237.7 244.4 251.6 249.3 251.3 251 249.6 250.4 253.2 255.8 258.3 263.8 267.2 272.9 276.1 274.8 272.2 270.3 268.4 266.3 264.1 262.4 260.1 257.6 254.9 252.2 249.9 247.6 245.2 243.7 242.5 241.4 237.9 236.1 241.4 244.9 248.2 250.5 253.5 256 258.8 261.9 265.7 269.5 273.7 280.3 288.3 296.3 303.4 312.1 320.5 327.7 336.7 342.5 349 359.4 360.3 366.7 372.9 378.8 381.5 382.3 383.9 384.4 381.7 381.5 382.7 384.7 385.6 387.7 389 392.4 400.7
106.7 108.3 111 120.3 126.5 131.6 129.2 131.2 130.1 122.6 115 110.4 104.6 96.4 84.8 78.2 73.9 68.2 61.8 53.5 39.4 21.3 11.6 9.1 7.8 7.3 6.4 6.5 5.9 5.4 5.5 5.5 5.6 5.7 5.8 5.4 4.6 3.9 -2.6 -2.6 -2.6 -2.6 -2.6 8.2 8.9 8.6 10.4 14 17.7 21.8 26.2 29.1 29.9 31.3 32.2 34.4 36.6 37.7 39.3 39.4 39 39.8 41.8 44.1 52.8 64.2 78.5 93 99.6 112.2 119.2 125.9 131.8 139.8 148 151.7 158.1 164.8 171.6 178.4 185 191.6 196.2 198.5 199.7 202.1 204.5 206.6 204.8 203.8 207.1 209.3 210.9 211.4 214.1 216.9 218.4 220.5 221.6 219.3 203.2 227.8 237.5 243.6 250.6 257.2 260.7 265.1 261.9 259.8 258.6 255.3 252.1 247.9 243.9 242.7 241.6 240.9 240.4 238.8 235.2 235.2 234.6 235.1 234.1 234.1 234.1 238.7 246.6 253.1 263.9 267.7 265.1 264.3 264 264.6 264.6 264.5 266.4 268.9 272.5 275.8 276.8 274.2 272.4 270.9 269.2 267.4 265.5 263.4 261.3 258.1 255.1 252.6 250.4 248.9 247.8 246.8 245 242.2 236.6 239.8 244.9 248.8 252 255.1 258.1 261.3 264.5 268 271.8 276.9 284.8 292.4 299.7 307.9 316.9 324.8 331.5 338.6 344.9 352.3 359.6 364.5 370.7 378.5 385.2 387.8 389.2 392.5 393.3 392.4 389.7 389.1 388 388.3 388.8 390.5 397.4 405.5
105.3 107 109.7 119.4 126.5 126.9 126.1 123 116.6 113.6 110.8 109.5 101.1 88.2 76.5 68.9 66.5 60.6 53.7 42.4 28.3 14.6 10.2 9.4 9 8.6 7.1 6.7 5.9 5.5 5.4 5.5 5.8 5.8 5.7 5.4 4.7 4 3.6 -2.6 -2.6 4.4 4.5 8.3 8.9 12.1 20.7 24.2 21.2 25.1 30 33.4 33.7 34.8 36.9 39.5 41.3 42.6 44.3 45.1 44 45.3 47.6 54.9 66.6 80.8 98.5 118.3 122.6 133.4 134 137.3 144.8 150.4 157.2 160.8 164.2 170 175.2 180.4 188.2 194.5 197.2 199.6 202 205.3 208.5 209.1 207.6 207.8 208.5 210.8 213.3 214.3 216.3 218.7 220.3 223.2 224.9 226.1 209.8 227.9 236.8 239.9 244 245.7 248.2 249.9 250.9 249.5 250.5 248.2 243 238.2 236.2 234.9 234.1 235.5 235.6 234.8 234.1 234.1 234.1 234.1 234.1 234.1 236.3 243 250.8 263.4 274.4 282.5 279.1 277.6 274.7 273.9 272.8 271.4 271.5 272.3 274 275.9 276.2 275.4 273.8 272.5 271.1 269.4 267.7 265.8 263.2 260.3 257 255.3 254 252.6 251.1 249.8 247.1 243.6 237.6 239.7 244.1 248.8 252 255.2 259.3 262.9 266.2 269.9 274.5 282 290.4 298.1 306.5 315.3 323.7 331.3 337.4 343.7 350.9 357.7 364 369.5 375.8 382.3 387.2 392.2 396 398.7 399.9 400 397.2 395.4 394 392.4 392.2 393.4 396.2 402.1
104.1 106.6 109.8 120.2 122.9 120.6 120.6 117.6 113.6 109.8 105 98.9 89.2 82.3 68.4 60.1 57.4 54.7 45.8 33 20.4 13.7 13 13 10.8 9.3 7.3 7 5.8 5.6 5.7 6.3 6.4 5.8 5.4 4.7 4.4 4.4 4.4 4.4 -2.6 4.7 4.7 8.5 11.3 18.5 26.2 27.5 27.2 29.3 34.1 35.8 36.8 39 42.2 43.8 45.6 47.7 49.7 51 51.1 51.5 56.8 68 93.5 107.6 120.2 137.1 144.8 148.5 147.2 148.3 154.6 158.9 162.5 163.6 166.2 173.2 179.5 185.4 190.8 194.5 198.3 202.7 205.4 208.1 209.7 210.4 208.4 210.4 209.8 211.7 213.5 215 217.8 220.5 222.4 224.6 227.2 229.5 224.4 216.9 233.7 236 237.9 238 238.7 238.5 240.8 241.1 241.1 238.7 236.5 234.1 234.1 234.1 234.1 234.1 234.1 234.1 234.1 234.1 234.1 234.1 234.1 234.1 238.8 251 263.5 273.2 298.2 302.4 292 287 283.6 281.8 279.7 278.6 277.3 276.9 276.7 276.9 276.8 276.6 275.5 274.2 273 271.3 269.7 267.2 264.6 261.2 257.8 257.3 256.1 255 253 250.8 248.1 244.9 238.4 238.5 242 247.1 251.6 256.1 260.6 264.5 268 271.8 279.1 287.6 295.7 304.2 315.4 324.7 334.8 340.6 346.4 352.2 357.6 364.4 370.6 376.2 385 393.6 396.1 398.7 403.3 404.1 403.7 405.5 402.8 400.1 399.1 398.3 397.9 396.5 397.7 402.5
101.9 106.2 109.2 114.4 115.1 115.3 116.8 115.7 111.9 102.6 95.9 90.7 84.1 76.1 62 52.4 48.7 44.5 37.1 22.1 15.8 12.5 13.2 11.8 10.9 9.7 8 7.3 6 6.5 7.4 7.4 6.2 5.8 5.4 4.9 4.5 4.6 4.5 -2.6 -2.6 6.5 7.3 9.7 13.7 19.7 25.2 29.5 31.6 33.7 35.5 38 41.5 44.6 46.8 49.6 51.7 54.6 57.5 57.8 59.9 64 70.8 83.7 120.2 141.5 152.3 157.6 159.7 159.8 154.6 157.3 160.6 162.9 164.3 165.5 169.2 175.2 182.3 186.5 192.1 195.6 201.9 205.5 207.8 208.4 208.7 210.5 212.3 213.9 212.6 212.8 214.4 216.2 218.3 221.3 223.3 225.8 228.6 232.4 232.4 228 229.5 234.8 236.6 236.3 236.3 236.1 234.5 234.2 234.6 234.1 234.1 234.1 234.1 234.1 234.1 234.1 234.1 234.1 234.1 234.1 234.1 234.1 234.1 238.4 249.4 259.1 269.7 278.2 294.1 293.3 291.6 289.9 287 285.1 284.3 282.9 281.1 279.8 279.7 279.3 278.7 277.9 277.3 275.9 274.2 272 270 267.7 265.5 263.3 260.8 259.4 258.1 256.5 253.9 251.2 248.4 245.4 240.4 238.8 240.2 244.4 250.6 255.8 261 265 268.7 273 281.6 290.3 299.5 310 319.4 328.9 339.2 347.6 353.4 357.7 362.3 369 374.2 379.8 385.4 394.2 400.3 403.5 407.3 408 407.1 406.8 404.7 403 403.1 404.4 404.4 402.8 401.8 403.7
99.9 104.8 106.5 107.8 108.3 108.5 109.4 109.2 105.8 95.7 88.8 85.4 74.1 63.9 54.5 45.9 40 28.6 21.5 15.6 12.4 11.2 10.5 11.2 10.3 9 8.1 6.9 6.6 7.5 6.8 6.4 5.6 5.2 4.6 4.6 4.6 4 -2.6 -2.6 7.7 7.3 9.2 11.1 14.7 20.1 26.5 31.9 34.5 36.5 39.4 43.1 46.9 50.1 53.1 56.9 61.9 65 65.9 66.4 70.9 76.2 83.6 95.7 129.9 163 177.7 173.3 168.6 162.8 160.1 160.1 161.9 164.2 165.9 169.2 172.4 176.2 183.7 188.2 194.4 202.1 206.1 207.9 211.9 210.5 211.8 214.5 215.6 216.8 216.7 215 216.6 218.3 220.7 222.9 224.6 227.1 230.2 234.1 237.7 236.5 225.7 230.5 234.4 234.2 234.4 234 234.1 234.1 234.1 234.1 234.1 234.1 234.1 234.1 234.1 234.1 234.1 234.1 234.1 234.1 234.1 234.1 235.8 241.8 249.4 255.1 260.2 271 277 280.6 287.2 288.2 285.9 284.9 284 282.7 281.2 280.9 280.4 279.9 279.4 278.2 277.2 275.9 273.8 271.6 269.2 267.1 264.7 263.1 261.8 260.9 259.3 257 254.3 251.3 248.8 246.3 241.8 238.5 239.2 242.1 248.6 254.7 260.4 264.9 268.8 274.5 283.8 293.2 302.9 314.2 324.9 334.3 342.9 350.2 357.4 365.6 369.3 372.6 377.4 381.7 387.2 394.9 402.8 409.1 411.9 410.7 409.7 408.8 407.6 406 406 407.3 406.6 405.8 404.9 403.8
98.2 104.7 104.6 103.1 103.3 102.5 102.4 100.2 96.4 88.9 79.8 69.8 62 51.3 43.7 35.7 29 23.7 18.3 14.3 11.3 8.8 7.8 7.4 7.3 6.8 6.4 6.3 6.4 7.5 6.7 5.5 4.5 4.2 4.2 4.3 4.4 -2.6 -2.6 7.3 8.7 8.2 9.6 13 17.2 23.6 30.1 35.1 38 41.6 45.1 49.3 53.5 57.4 61.4 69.1 70.8 72.1 72.5 74.9 82.5 85.5 91 103.2 132.3 169.9 182.1 178.9 170.1 162.8 161.6 161.5 164.2 167.1 169.3 172 176.7 181 186.4 190.7 197.5 206 211.6 215.6 214.7 215.3 213.7 215.4 216.1 217.3 216.4 217.6 219.8 220.2 223 225.4 226.7 229.5 233.3 236.7 239.5 240 238.7 235.2 234.1 232.5 234.1 234.1 234.1 234.1 234.1 234.1 234.1 234.1 234.1 234.1 234.1 234.1 234.1 234.1 234.1 234.1 234.1 234.1 235.2 240.4 244.5 250.2 254 265.9 271.1 272.2 276.4 281.4 281.6 279.5 279.3 278.9 279.2 280.6 281.1 279.6 278.3 276.7 275.2 273.6 271.8 269.7 267.4 265.1 262.8 260.7 259.3 258.5 257.2 254.6 252.4 250.8 248.7 246.3 242.5 238.3 238.8 241.3 245.2 252.3 258.5 265 270.1 277.3 285.6 297.3 307.8 316.5 326.3 336.3 346.2 354.6 360.7 367.8 374.7 376.3 379.4 384.2 392.1 400.3 409.7 414.4 415.9 414.9 414.8 412.2 411.7 411.6 410.1 408.7 407.3 405.4 403.9 402.7
93.8 102.3 100.9 100.8 101.5 98.7 95.9 92.8 90.5 84.7 75.2 60.8 51 43.3 36.7 29.9 23.7 22.2 18.7 13.6 9.8 7.9 6.8 5.9 5.8 5.9 5.1 4.8 5.4 5.9 4.9 4.2 4.2 4.3 4.3 -2.6 -2.6 -2.6 8.1 10.1 10.3 10.2 13.6 18.1 23.7 30 35.7 40.4 44.4 48.8 54.3 58.7 63 65.8 69.2 74.8 77.2 77.5 78.2 84.9 94 94 99.3 108.2 133.3 166.6 193.9 181.6 168.5 163.4 162.1 163.2 167.2 172.2 175.5 178.8 183.5 187.6 189.6 193.5 200.2 211.3 218.5 223.7 224.9 224.5 222.8 217.7 218.4 218.6 216.7 220.3 222.1 221.6 224.4 226.7 230 234.9 236.2 237.9 241.6 243.8 243.1 240.5 238.2 233.3 234.1 234.1 234.1 234.1 234.1 234.1 234.1 234.1 234.1 234.1 234.1 234.1 234.1 234.1 234.1 233.3 234.1 234.1 234.2 238.1 241.8 246.9 250.6 256.6 262.4 265.7 268.6 272.3 274.3 273.7 272.7 273.5 274.1 275.6 277.8 276.3 275.1 273 271.3 269.1 267.1 265.5 264.3 262.4 260.5 258.4 256.9 255.6 254 251.9 251 249.8 247.8 245.1 239.9 237.8 238.3 240.7 244.5 250.9 256.8 263.3 270.5 278 286.1 296.9 307.3 318.2 327.5 338.5 347.7 353.4 362.5 371.7 376.8 379.3 385.2 387.6 393.5 403.2 414.3 420.3 422.6 420.3 419.9 417 415.8 411.9 409.7 407.7 405.7 403.9 402.2 401
87.3 92.4 94.8 97.8 97.7 94.1 90.3 87.1 86.2 79.7 67.1 57.6 49.4 40.6 32.6 26.7 20.9 19.6 17.2 13.5 9.6 7.5 5.8 5.7 5.7 5.2 4 3.5 3.4 4 4.2 4.1 -2.6 -2.6 -2.6 -2.6 -2.6 6.5 10.8 11.8 12.4 15.3 20.2 26.1 31.6 37 42.2 47.3 52.9 58.3 64.5 68.8 72.4 74.2 76.7 79.8 82.3 82 87 93.9 99.7 101.1 104.8 111.1 129.6 167 185.4 177.5 164.9 165.2 163.1 164.9 170.9 176.5 181.1 185.5 189.8 192.3 193.4 196.1 204.4 215.6 221.7 226.4 229 228.3 222.4 221.1 217.9 216.3 215.9 220.6 221.8 221.2 223.9 227.6 230.6 233.4 237.2 238.9 242.4 244.6 244.2 241.2 237.1 234.1 234.1 234.1 234.1 234.1 234.1 234.1 234.1 234.1 234.1 234.1 234.1 234.1 234.1 234.1 234.1 232.6 233.7 234.1 234.1 235.9 239.4 245.4 248.3 252.4 257 261.1 263.8 265.8 269 266.8 264.9 265.8 267.5 268.5 268 268.8 268.6 267.2 265.7 264.1 262.3 260.5 259.1 258.1 257.3 255.8 254.7 253.3 250.8 250 248.7 246.8 243.1 239.2 236.8 237.3 237.6 239.7 243.5 249.4 255.3 262.5 269.9 277.4 286.7 297.4 306.6 316.4 329.6 340.4 346.9 353.7 362.1 370.8 376.8 381.7 385.3 387.1 392 403.1 416 426.3 424.7 423.1 420.2 417.1 413.7 410.6 408.6 406.5 404.1 402.3 400.1 398
81.7 87.4 91.5 93.3 93.1 89 85.1 83.5 80.3 72.4 62 56.2 51.2 40.4 29.1 23.6 19.1 16.8 15.1 12.2 9 7 5.7 5.6 5 4 3.5 3.3 3.6 4 4.1 -2.6 -2.6 3.8 4.2 4.5 6.8 9.6 11.9 13 15.9 21.2 29.9 38.6 43.4 45 49.9 56.4 63.1 68.5 74 78.6 81.4 82.6 84.1 85.5 86.5 89.4 95.4 101.9 102.8 105.9 108 115.8 127.5 139.9 163.2 173.5 161.1 159.8 163.3 167.4 175.3 181.7 186.7 190.9 193 194.1 194.9 197.3 203 214.2 225.5 230.8 230.8 226.7 221 220.8 216.3 213.8 214.2 216.5 217.9 218.6 222.8 226.7 230.2 234.9 239.8 241.6 241.4 242 241.5 238.5 235.2 234.1 234.1 234.1 234.1 234.1 234.1 234.1 234.1 234.1 234.1 234.1 234.1 234.1 234.1 234.1 234.1 234.7 235.6 237.6 237.9 236.8 238.9 243 248.5 254.7 257.6 259.3 260.5 262 262.5 260.5 258.3 257.8 257.7 256.8 258 258.1 258.7 259.4 259 257.7 255.8 254.5 253.6 252.6 252.2 251.4 251.1 248.9 247.6 246.6 245.1 242.2 237.3 235.8 236.3 236.7 237.1 238.7 242.6 247.8 254.4 262.1 270.9 279.4 288.9 299.9 309 317.1 326.4 336.6 344.9 353 360 367.4 373.1 375.6 378.3 380.9 387.6 399.1 412.1 418.1 417.5 416.6 414.6 411.6 409.6 408.3 406.9 405.2 402.6 400.4 397.1 393.5
77.5 84.8 87.7 87.1 86.6 83.8 79.3 78.2 73.7 65.6 59.9 55.2 50.9 38.6 26.8 21.2 17 14.8 12.6 10.1 8.2 6.7 5.9 5.7 4.4 4 3.6 3.3 3.6 4 -2.6 -2.6 -2.6 -2.6 5.2 10.6 12.2 12.9 13.9 15.5 19.2 29 39.3 48.5 53.6 57.1 61 66 73 79.6 83.5 86.8 88.4 89.5 90.6 90.8 90.9 98.1 106.6 113.1 109.9 108.9 112.7 116.8 123.7 135.1 144.4 157 152.6 156.1 166.1 174.1 181 187 191.4 193.9 194.7 194.9 195 196.9 203.9 216.7 226.8 228.1 228.5 223.8 218 216.8 213.1 212.4 212 214.1 214 215.2 220.4 225.2 230.7 239.3 243.1 241.3 240.1 240.7 240.7 238.9 236.9 234.3 232.7 234.1 234.1 234.1 234.1 234.1 234.1 234.1 234.1 234.1 234.1 234.1 235 235.3 234.8 237.3 238.4 239.2 240.7 239.9 241 243.9 250.5 256.4 258.3 258.1 258 258 257.5 254.6 253.8 251.1 248.3 248.2 249.3 249.1 250.1 251.5 252.1 251.3 249.1 248.1 247.4 246.2 245.3 246.4 246 246.6 245.1 244.1 242.1 238.7 236.1 235.7 235.8 236.2 236.5 237.9 241.6 246.1 252.8 263.7 272.7 281.6 292.9 304.9 316.8 323.1 330.6 338.4 345.1 351.1 356.9 361.5 365.4 368.1 371 374.4 380 390.2 400.6 402.7 405.2 404.4 404 403.3 402.4 403.4 404.3 403.2 400.6 397.3 393.9 388.9
69.5 70.9 81.4 79.1 76.8 76.3 73.9 71.8 66.9 63.3 59.5 55.3 48.8 35.7 24.5 18.6 15.4 12.1 9.7 7.9 6.5 6 5.4 5.6 4.3 4 3.6 3.3 3.6 4 1.9 -2.6 -2.6 -2.6 7.8 11.4 13.2 16.6 19.3 21.5 28.3 38.2 47.7 56.1 63.8 71.9 75.3 79 83.8 89.8 93.1 94.7 96 96.8 96.1 96.5 99.8 111.4 126.2 127.2 117.1 113.7 116.2 116.7 120 127.8 130.7 140.2 145.8 159.3 171.2 180.6 186.4 191.6 194.7 195.5 195.4 195.3 195.7 200.7 208.2 213.8 221.5 222.7 220.4 216 212.8 208.6 207 207.3 207.4 208.7 209 213.3 218.8 224.7 230.8 234.1 235.3 238.7 240 241 241 240.1 238.8 238.8 236.9 233.6 234.1 234.1 234.1 234.1 234.1 234.7 234.6 232.6 235 235.5 238 239.5 241.1 241.3 241.4 242.3 244.3 244 243.8 244.2 246.7 249.7 250.8 253 254.3 254.3 252.2 249.7 247.2 244.7 244.3 243.5 243.2 244.2 245.6 246.1 246.6 246.5 245.5 244.3 243.4 243.3 243.3 243.9 245.9 245.8 244.3 243.2 241.1 237.9 236.3 235.6 235.4 235.7 235.9 236.9 240.1 242.3 250.8 263.9 273.9 284.9 299.9 315 323.3 331.9 337.1 340.9 345 349.9 354.1 357.5 361.2 363.6 365.8 369.1 372.4 378.7 384.7 388 392.1 395.1 396.6 396.7 397.4 399.1 401 400.4 397.4 394.1 389.3 383.7
64.9 64.7 63.8 67.9 69.7 68.4 68.2 65.9 63.4 60.9 57.4 50.5 43.2 30.7 21.1 16.4 13.1 9.4 7 5.7 5.2 5.1 5.1 4.9 3.8 3.3 3.7 3.2 3.6 3.6 2.3 2.8 -2.6 -2.6 7.5 11.4 17.4 25.1 29.2 28.9 37.4 46.1 56.9 73.3 79 86.9 89.1 93.3 98.5 103.2 104.1 103.6 103.5 103.5 100.9 102.8 110.2 134.6 147 136.5 122 117 116 116.4 118 119.9 123.2 133.5 149.2 166.2 176.6 184.7 188.7 191.6 194.5 195.4 195.3 196.2 197.7 204.2 209.7 213.8 214.4 214.5 212.6 210.3 205.8 204.3 203.8 204.1 204.8 207 210.5 214.8 221 227.3 231.5 233.6 238 241.7 241.6 242.3 242.7 242 240.7 239.7 237.7 235.8 235.8 236.4 236 237.4 240.2 244.3 244.2 243.6 242.6 248.8 256.4 250.1 252.4 251.9 247.7 246.5 248.9 250.1 249 246.4 247.1 248.7 249.9 251.6 253.6 251.5 248.3 245.3 242 240.7 239.7 239.1 239.1 239.7 241.3 242.4 243.3 242.8 241.9 240.8 240.4 240.8 241.2 243.1 246 246.2 244.9 242 240.2 238.1 236.9 235.9 235.6 235.3 235.5 236.5 239.1 243.3 250.2 263.8 276.7 291.1 311.5 319.8 332.2 338.3 341.5 341.8 344.4 347 350.4 353.7 356.3 359.1 361.4 364.3 367.1 371.5 376.9 380.5 385.2 390.7 391.7 392.9 394.7 395.3 397.2 395.5 392.6 389.3 383.9 377.2
75 78.3 69.1 58.6 58.1 61.7 63 62.9 61.5 59.1 50.8 40.6 33.2 24.8 17.9 13.5 10.8 6.1 5.1 4.6 4.3 4 4.5 4.5 -2.6 -2.6 -2.6 -2.6 -2.6 -2.6 -2.6 -2.6 -2.6 4.9 7.5 12.8 20.8 25.2 27.6 36.5 44.8 53.2 72.9 90.3 96.6 98.6 101.7 104.6 110.5 113.3 112.3 110.9 109.5 107.9 104.7 108.2 117.8 151 160.9 144.2 126.2 119.7 117.3 119 122.5 122 128.3 139.1 153.9 172.3 180.9 188 189.5 190.2 192.6 194.1 195.5 196.5 200.3 205.8 211.1 210.1 209.1 208.4 206.5 204.4 203.7 202.5 202.4 202.8 204.8 207.8 212.5 218.2 225.7 233.1 237.9 240.8 244.4 248.2 247.8 248.4 247 246.3 244.6 242.4 239.9 239 242.9 245.7 248 249.5 253.2 258.8 254.6 254.8 254.3 257.7 260.5 255.8 258.9 256.9 254.4 251.5 252 251.8 252.6 249.8 249.5 251 251.8 252.7 251.3 247.3 244.4 242.3 240.6 239.4 238.8 238.1 237.9 237.5 238.2 238.5 238.2 237.8 237.7 237.7 237.8 237.9 238.7 240.6 244.5 244.2 243.8 242 240.2 238.7 237.8 237.1 235.5 235 235.2 236.9 239.7 246.4 254.4 266 280.2 293.4 309 321.3 333.8 336.4 336.8 338.4 341.1 343.8 346.5 349.6 352.2 354.5 357.4 360 362.2 364.9 369.1 372.9 377 383.6 387.1 389.9 391.8 392.1 391.6 390 388.2 383.9 377.2 370.3
80.1 81.8 70.8 58.3 55 56.8 60.3 61.1 60.7 57.5 45 32.1 25.6 20.5 14.3 11.8 7.9 4.3 4 3.7 3.4 3 3.9 -2.6 -2.6 3.5 4.3 4.5 3.9 4.9 5.2 6.7 7.8 7.8 9.6 14.5 21.6 27.8 35.7 44.2 48.9 65 84 100.2 107.4 107.7 107.9 110.3 113.7 117.4 115.6 112.9 110.6 107.6 105.4 111.3 123.5 148.8 164 145.3 131 122.4 119.6 120.5 121.6 126.5 135.3 145.7 162.6 179 182.9 186.3 188 188.8 190.7 194.5 196.1 198.4 203.8 208.4 210.1 206.2 204.7 203.7 202.6 201.9 200.6 199.3 199.5 202.3 204.7 206.7 213.8 223.7 235.8 247.7 249.1 253.1 257.7 260 256.2 256.6 255.5 253.1 250.6 248.8 246.6 252.5 257.8 262.8 264.8 267.2 278.5 276.8 266.8 265.9 263.7 265 263.5 260.2 261.9 259.7 257.9 257.1 256.8 254.7 254.9 253 252.3 253.3 254.5 251.7 249 246.2 245 244.1 242.6 240.9 240 239.5 239.2 239.4 239.2 238.6 237 237.8 237.3 237 237.7 236.7 236.7 238.3 241 242.1 241.8 242.5 241.8 239.9 238.6 237.8 236.2 234.7 235.4 237.5 242.4 249.3 256.6 267.4 278 289.4 304.9 320.8 329.9 328.7 330.3 332.7 335.7 338.8 342.4 345.6 347.7 349.9 353 355.6 358 360.4 363 366.2 370.7 374.1 380.9 387.8 390.3 389.3 387.6 385.9 382.7 376.9 369.9 363.4
78.3 76.4 62.6 56.7 53.6 54.8 59.3 59.4 58 52.6 38.1 25.8 19.8 15.3 12.3 9.2 4.4 4.1 4 3.6 3.2 2.8 3.5 -2.6 -2.6 3.5 4.1 4.4 4.6 6.8 7 7.5 9.5 11.6 15.6 20.5 26.8 33.5 40 43.5 57.1 71.2 85.3 109.3 116 111.2 116 117.5 119 121.2 118.9 114.3 109.7 105.7 105.9 113.6 125.4 142 150.8 141.5 130.9 124.5 122.1 122.8 126 134.9 146.2 159.7 174.7 181.1 180.4 183.2 188.2 190 192.7 198.1 202.3 206.3 208.1 206.1 205.1 203.5 201.8 200.7 199.6 198.1 197.7 197.6 200.6 203.6 206.9 211.3 219.3 228.7 239 249.3 258.7 261.1 270.1 271.7 264.9 263.2 261 260 257.3 257.5 261.3 270.5 284.9 288.9 288.7 293.3 298 291.4 277.9 276.8 275.5 272.6 270.8 265.8 266 266 264.2 261.4 259.8 261 264.7 262.9 259.9 255.4 253.2 251.2 250 248.3 247.2 246.8 245.8 243.2 241.3 240.3 239.8 240.3 239.9 238.8 238.1 237.9 238.5 238.8 238.6 237.3 236.8 236.1 236.8 239.1 240 242 244 244 240.6 238 235.4 234.5 235.4 237.5 241.9 249.9 257.7 266.2 274.9 285.2 298.2 312.2 319.7 321.9 324.3 326.9 330 333.3 336.6 340.1 342.7 345.4 348.5 350.7 353 354.8 358 363.4 367.1 370 376 384.1 387.1 387.8 386 382.6 377.2 367.4 362 356.8
75.4 75 70.4 63.2 53.7 52.8 56.4 56.2 53 42.7 30.3 21.3 16 12.4 10.4 7.7 -2.6 -2.6 -2.6 3.5 3 2.8 3.7 4.5 -2.6 -2.6 3.9 4.4 5.5 8.7 9.5 9.8 13 19.8 19.8 21.4 28.3 36.4 40.8 57.6 66.4 76.2 86.2 108.5 107.7 110.9 113.7 121.4 125.3 125.3 120.9 114.1 108.2 105.2 106.9 114.2 123.9 135.3 137.2 135.4 131.2 126.1 124.5 126.8 134.7 145.4 152.8 167.9 170.3 172.1 176.6 182.1 185.6 187.8 193.2 200.3 205.4 209.7 207.7 203.2 200.7 199.5 198.2 197 196.1 195.7 196.3 199.2 203.5 206.9 210.3 216 225.2 234.5 245.5 255.6 264.3 270.9 272.9 274.3 272.1 270.2 267.7 265.3 264.7 267.4 271.9 277.2 287.6 295.5 303.3 309.8 310.1 306.8 291.5 290.6 285.8 281 277 269.6 272.9 270.9 268.8 266.3 266.1 267.2 271.2 269.1 266.1 263 257.7 253.4 253.5 252.2 250 247.7 245.9 242.7 241.1 240.2 240.6 240.8 240.6 239.9 238.8 240.9 241.4 240.8 240.3 238.3 237.6 237.2 235.4 236.5 238 239.6 242.6 242.8 239.2 236.8 234.6 234.7 236.6 239.2 243.2 250.3 254.5 261.5 270.4 281.6 290 303.1 309.5 314.2 316.6 319.3 323.4 327.1 331 334.9 337.8 341.1 344.7 347.6 348.9 350.9 354.9 360.1 364.2 368 372.5 378 383.3 386 384 376.9 367 361 354.2 347.2
80.2 79.1 75.3 67.9 54.7 51.4 52.5 53.4 44.8 34 23.7 18.2 13.4 11.3 9.5 -2.6 -2.6 3.5 -2.6 2.9 2.8 3.7 4 3.8 -2.6 -2.6 5.4 6.5 8.9 10.5 11.6 12.2 11.9 16 18.5 23.9 32.2 42.5 54.8 71.3 76.4 83.2 87.5 101.3 101.4 110.9 113.4 125.3 132.6 127.9 120.3 112.2 107.4 105.6 106.8 113.4 119.6 126.5 128 130.4 129 127 125.9 130.7 144.7 146.9 154.5 160.2 164.1 169.4 174 177.5 181.6 185.5 191.7 200.4 208.1 210 205.2 199.7 197.7 196.8 194.7 193.6 193.8 194.5 196.8 201 205.6 210.5 215.3 219.7 231.1 243.4 256.6 269.9 277.5 285.1 281.7 282.2 281.2 278.8 277.2 274.1 272.1 274.8 281.2 289.7 301 310.6 315.6 323.7 328 320.3 304.6 299.6 295.8 289.6 282.7 277 276.9 273.7 271.1 269.8 269.6 269.5 270 269.7 268.8 268.1 265.5 259.3 255.1 252.4 250.4 247.6 244.4 241.8 241 241.4 241.7 241.9 241 239.5 244.6 247.4 246.8 243.5 241.7 240.1 238.8 238 236.8 236.1 235 237.6 240.2 239.6 237.1 235 234.6 235.3 236.4 239.1 243.2 248.4 252.8 257.8 265 273.1 287.1 295.2 301.7 305 309.3 313.4 317.6 321.4 325.3 329.5 333.1 336.2 340.7 344 346.6 349.1 353.2 357.7 362.2 366.7 372.3 377.4 380.2 380.5 376.5 367.9 360.1 352.5 346 338.9
87.6 81.3 77.3 69.5 55.7 50.7 48.5 40.6 34.3 26.2 19.9 15 11.2 8.5 6 -2.6 -2.6 3.5 -2.6 3.4 2.8 3.3 3.6 -2.6 -2.6 5.7 6.9 8.5 10 11.1 13.4 14.7 15.6 17.1 20.2 32.1 44.3 55.7 68 87.3 85 88.3 89.7 91.4 97.1 109.3 117 129.8 134.9 122.6 116.4 110.9 107.4 106.4 106.9 112.1 115.5 119.3 121.3 123.7 125.3 126.9 126.8 135.4 144.5 149.1 154.9 157.9 162.3 168.2 171.9 176.7 181.7 185.2 191.1 197.7 201.7 202.5 197.6 194.9 194.8 194.1 191.9 191.4 191.7 195.3 198 202.5 208.2 214.4 219.4 227.2 239.9 258 269.8 283.6 291.9 294.6 293.8 291.3 292.3 287.8 285 283.2 284.8 296.6 299.7 315.7 324.9 331.5 332.3 331.8 335.1 328.1 313.2 304.9 296.9 289.9 286.9 282.8 282.3 277.7 273.3 272.6 273.9 274.7 274 272.3 271.7 272.8 271.4 267.2 260.8 254.8 250.8 246.9 243.8 242.3 242.4 242.8 243.7 243.2 242 247.8 252.3 254.6 251.7 247.7 245 241.9 240.6 239.4 238.3 237.1 235.3 235.1 236.3 237 238.2 234.9 234.1 234.7 235.6 238.8 242.1 246 250.8 255.4 261.1 269.2 277 284.8 292.1 297.1 302.9 307.5 311.8 315.9 320.2 325.7 328.3 332.9 338.6 343.1 346 348.3 351.8 356.3 361.4 367.6 374 378.3 378.6 375.4 368.2 358.7 352 343.9 338 331
95.8 82.2 78.2 70.2 55.7 49.1 48.1 47.5 38.6 26.3 19.1 12.8 10.3 8.1 5.8 -2.6 -2.6 4.1 -2.6 2.5 2.8 2.9 3.1 -2.6 -2.6 5.8 7.2 9 10.1 11.7 13.9 16.1 19 22 27.2 41.6 52 61.5 76.6 81.6 85.9 93.3 93.7 92.8 92.9 104.5 119.4 132.3 127 115.9 113.1 108.6 107 106.8 107.5 111.3 113.4 114.5 116.1 118.7 121.7 123.8 129.6 136.7 143.5 149.2 153.4 156.8 160.9 166.3 169.7 179.5 182.5 184 190.8 193.9 193.7 192.1 190.8 190.8 191 190.2 189.8 189.4 190.1 194.1 199.2 204.3 212.3 220.6 224.5 238.5 257.9 270.1 280.4 296.2 310.7 307.8 304.7 304 299.7 295.1 292.1 293.7 296 311 313.6 326 337.9 347.2 347.1 345.2 336.5 326.8 316.4 307.4 300.1 297.5 294 288.7 287.1 283 277.9 278.7 285.8 284.8 284 282 276.3 274.1 273.7 270.8 265.9 259.5 254 248.5 245.2 244.4 244.5 244.6 246.9 246.9 248.5 254.9 257.6 256.7 254.9 251.7 249.3 245.8 243.4 242.4 241 238.4 236.6 235.1 234.1 235.5 236.9 233.9 233.6 234.1 234.6 237.1 240.5 244.5 248.5 252.4 257.5 264.6 271.3 276.8 283.6 290 296.4 301.6 306.8 311.4 316.9 321.1 325.9 331.9 337.3 342 346 349.2 352.7 357.4 363.4 372 376.5 378.1 374.2 367.1 357 346.4 339.1 333.2 328.6 322.1
97.7 83.9 79.9 70.6 56.6 48.4 47.1 45.2 36.4 26.3 18.5 12.2 9 8 6.1 -2.6 -2.6 3.6 -2.6 2.9 3.8 3.6 -2.6 -2.6 4.7 5.8 7.4 9.6 11 12.9 15.3 17.5 21.7 24.8 37.9 52.8 59.1 68 75.9 81.3 95.5 96.4 97.4 96.1 94.5 99.3 112.9 117.9 113.2 112.9 110.2 109 107.3 106.9 107.7 109.7 111.1 111.9 114 116.6 119.2 126.1 132.9 139.1 143.5 147.7 152.7 156.5 160 164.3 172.4 179 183.9 184.8 188.1 189 187.9 186.6 187.2 187.8 188.4 188.1 187.5 186.9 187.9 192.8 199.3 208.4 216.9 226 232.8 247.9 261.6 279.6 295.3 304.3 310.4 317 317.4 317 309.2 305.3 303.9 303 306 317.4 327.2 335.4 345.8 356.6 356 353 345 331.6 319.5 311.8 307.1 303.9 302.8 301.1 292.5 286.5 282.1 282.5 285.7 289.4 292.8 290.2 285.2 278 275.7 273.3 270.5 267.9 264.2 255.7 249.6 247.5 247.7 248.3 249.4 250.2 252.7 254.8 256.2 257.6 257.5 255 253.1 251.1 248.3 246.6 243.9 241.5 239.8 238.6 235.9 233.3 233.1 237.1 235.2 234.1 234.3 237.6 241.4 244.4 248.4 251.1 255.3 260 266.5 271.8 277.2 282.5 289.9 296 302.5 308.2 312.9 319.2 324.8 330.2 335.5 340.5 345.3 349.5 354 357.5 361.7 370.4 371.8 371.6 362.2 350 339.4 331.6 327.9 322.8 317.9 313.8
99.2 86 82.8 70.8 56 49.5 44.5 40.3 31.1 22.9 15.9 11.3 9.4 7 5.1 -2.6 -2.6 3.8 -2.6 -2.6 3.4 -2.6 -2.6 5.1 5.7 5.9 7.7 9.8 12.6 14.4 16.7 20.2 23.6 28.5 44.8 58.6 74.7 80.7 84.4 90.2 99.4 103.1 102.2 100.3 98.1 100.6 107.1 108.8 110.7 111.5 108.9 108.4 108 108.1 109 109.7 110.7 112.5 114.1 115.6 120.6 127.8 135 139.6 142.9 150.3 155.2 158.6 161.9 168 175.9 180.2 181.4 182.6 183.9 184.3 183.3 184.6 185 185.3 185.8 185.6 184.4 181.8 188.7 194.7 200.1 212.2 223.7 233.7 240.9 255.1 266.8 287.6 307.2 314.5 316 319.4 328.5 331.4 323 315.9 317.1 318.9 321 333.9 341 353.8 365.1 374.3 368.5 359.2 346.8 333 326.1 321.6 314.5 306.9 304.7 303.1 297.1 291.2 287.1 287.2 288.2 292.9 300 297.1 292.2 285.9 280.8 278 274.8 274.4 270.6 264 259.9 255.8 252.6 252.6 253 252.9 254.8 255.6 257.9 259.7 259.8 258.8 258.1 256.4 254.1 250.8 246.8 243.8 242.4 240.6 237.9 233 231.4 235.2 239.1 240.4 238.8 238.9 241.4 244.2 246.8 249.2 252.4 256.9 262.5 267.6 271.4 277.4 285.1 291.2 299.1 304.1 310.2 317.6 323 327.9 332.9 337.6 345.9 349.3 352.6 354.7 357.7 355.5 357.5 353.4 341.5 330.2 322.5 317.5 313.9 311.2 309.8 306.9
101.8 87.8 83.6 67.5 53.6 47.9 45.4 38.6 29.3 21.6 13.4 9.7 8.2 6 4.9 -2.6 -2.6 3.9 4.4 -2.6 -2.6 -2.6 -2.6 5.7 5.8 6 7.3 10.3 13.2 15 17.5 20.9 25.6 34.5 51.1 75.2 84 90.7 96.2 100.1 114 108.5 106.3 103.7 103.6 107.4 110.7 110.3 111.3 111.5 110.4 110 109.4 111.3 112.7 112.9 114 114.2 115.1 117.1 121.7 129.8 135 139.4 145.2 153.6 159.2 162.7 164.8 171.3 178.4 180.8 181.2 182 182.7 182.9 182.7 183.1 183.2 183.1 182.8 181.3 180.5 182.4 191.3 198.3 205.6 220.1 237 244.6 247.1 265.7 278.6 291.3 308.2 320 326.2 324.6 327.6 332.1 333.3 328.4 329.9 333.4 334.7 344 353.7 372.4 381.1 381.3 369.6 359 347.1 333.9 334.9 332.1 325.9 317.2 309.3 308.4 307.1 297.9 293 292.2 293.2 293.8 298.7 303.4 298 293.1 293.2 285.6 282.7 278.3 275.6 272.6 268.7 264.4 260.5 258.4 258 255.1 258.5 261.6 264.1 265.5 265.9 265.1 263.1 261.4 258.1 254.4 250 246.4 242.8 240.4 236.8 232.9 230.9 229.1 234 239.8 241.2 240.2 241.6 243.4 245.4 247.3 249.8 253.8 259 262.9 264.9 274.2 282 290.5 297.6 302.6 308.8 315.4 321.3 325.9 330.3 336 341.7 345.3 347.3 346.4 344.4 339.5 338.1 335.9 324.8 317.5 312.1 307.3 304.4 303.3 303.5 301.2
103.8 89.5 80.7 61.7 50.7 45.8 42.3 35.1 28.4 19.9 11.6 7.5 6 5.4 4.6 -2.6 -2.6 3.5 3.7 4.9 4.9 5.1 5.7 5.8 5.9 6.1 8.4 11.2 13.3 15.7 19.3 24.6 29.5 38.7 56.4 75.6 91.6 101.8 105.2 107.5 112.9 110.1 108.6 108 108.3 113.5 117.3 117.3 116.4 115.8 113.8 113.7 116 116.7 117.1 116.8 116.6 116.8 118.7 121.3 124.7 130 135.7 142.2 149.7 157.5 163.8 165 168.4 173.8 179.8 181 181.3 181.6 182.3 182.4 182.2 181.8 180.4 179.5 178.7 177.4 177.5 182.9 192.1 205.1 211.9 233.5 247.6 252.8 249.8 262.7 279.2 297.9 305 324.9 326.9 330.3 332.1 336.9 344.5 342.9 336.5 337.4 340.6 346.3 354.2 366.2 378.8 381.5 374.3 364.6 349.3 341 344.6 341.9 341.5 329.7 317.4 314.1 312.6 305.4 299.8 297.9 297.1 301.6 301.8 304 306.1 303.9 301.1 295.7 291.3 285.2 284 289.2 279.5 273.5 269.2 267.6 266.8 263.6 265.1 267.7 269.4 272.6 275.5 273.5 270.7 267.3 263.2 258.6 253.9 248.4 243.5 239.9 236.6 233.6 231.2 229.3 231 237.7 239.9 240.1 240.5 241.5 243.5 245.6 247.6 250.3 253.4 257.6 262.8 271.4 279.9 289.7 295.9 301.9 308.2 313.9 319.8 324.2 328.8 333.5 337.5 339.8 338.1 333.7 331 328.1 324.7 318 310.7 305.4 301.5 298.3 297.1 295.7 296.4 295.3
100.4 87.6 69.4 52.4 47.9 44.2 36.4 28.7 24.9 14.9 7.4 6.4 5.4 5 4.3 -2.6 -2.6 3.7 3.8 4.7 4.9 5.2 5.6 5.9 6 6.8 9.6 11.4 13.4 19.2 24.3 27.8 31.4 44.5 59.2 78.2 104.6 112.1 107.8 110 111.9 112.7 113.6 113.3 113.4 116.4 123.1 125 124.6 122.9 119 119.8 119.9 120.2 120 119.7 119.6 119.8 122.5 125.5 130.3 132.9 139.1 145.4 153.8 163 167.3 169.4 173.6 177.9 180.2 181.1 181.4 181.7 182 181.9 180.7 179.4 177 175 174.8 175 177.1 183.9 199.1 214.3 218.3 238.3 250.7 252.4 247.2 258.2 283.8 295.7 308.9 320.3 328.6 333.6 341.3 349.8 355.5 357.1 355.1 342.8 345.6 350.3 356 362.1 373.3 381.2 375.4 364.6 352.6 346.5 348.5 349.9 347 341.7 329.1 319.1 316.1 312.2 306.9 307.1 308.7 314.4 317 313.3 311.5 311.7 311.4 307.3 302.3 296.5 294.9 296.1 286.7 284.9 280.9 276.2 274.1 270.9 273.3 274.5 274.9 277.1 279.5 278.3 276.4 272.5 268.4 263.6 258.5 252.7 246.9 242 237.3 234.3 231.5 229.4 229.4 235.2 238.5 238.5 238.3 238.8 240.9 243.2 245.1 246.4 250.4 255.5 261.4 268.5 277.9 285.3 293.2 301.6 307.7 312.6 316.3 321.1 326.1 329.5 333.3 333.3 328.1 324.8 319.7 314.6 310.6 307 300.6 296.5 293.1 290.7 288.7 288.9 289.1 288
93.3 78 58 44.9 38.9 33.8 26.8 19.9 12 6.2 5.9 5.5 5.3 5.2 4.2 -2.6 -2.6 3.4 3.8 4.3 5 5.3 5.6 6 6.8 8.8 10.9 13.1 16.8 24.5 25.8 28.9 35.4 47.1 68.1 102.9 119.1 117.7 111 114.2 116 117.6 120.7 122.3 122.5 127.1 130.8 132.2 131.2 128.6 125 124.5 123.8 123.2 122.7 122.1 122.8 124 125.9 129.1 130.7 135.6 141.9 148.2 157.7 166.4 171.1 173.7 176.4 179.1 180.1 181.1 181.5 181.8 181.3 179.8 178 175.6 172.5 171.5 171.9 175.5 177.4 185.8 202.7 218.1 225.1 229.6 238.4 244.6 241.4 252.9 270.7 282 302 316.4 328.5 348 355.7 354.8 360.4 361.9 361.3 348.4 349.1 353.7 358 364.5 373.5 379.9 378.3 366 354.7 355.5 358.8 363.9 362.6 350.8 341.5 331.1 323.4 317.5 314.2 317.6 321.8 323.9 322.7 325.2 324.4 319.7 320.2 317.6 310.7 306.3 303.1 299.6 296.7 295.4 292.7 287.6 283.7 279.4 279.6 280.2 280.4 282.3 282.9 282.1 281.2 278.4 274.1 268.8 263.1 257 250.7 244.4 239.2 234.3 231 229.2 228.2 234.3 236.4 234.6 234.4 236.4 238.3 240.4 242.6 243 246.9 252.2 260.4 265.9 272.8 281.1 289.2 298.9 306.6 311 314.3 317.8 321.6 322.5 323.5 322.5 319.7 313.1 307.9 304.6 300.1 295.7 292 287.6 284.6 282 281.3 281.8 281.7 282.4
77.4 63.4 48.2 35.7 28.6 19.3 -2.6 -2.6 -2.6 4.1 4.2 4.5 5.2 5.5 -2.6 -2.6 3.2 3.4 3.7 4.2 4.9 5.6 5.9 7.8 9 10.7 12.2 15.4 25.6 26.2 26.3 30 39.7 60.5 96.8 118.5 120.7 116.9 116.8 118.4 121.1 123.5 129.3 130.5 132.8 136 137.9 136.3 136.6 130.9 129 128.2 126.7 125.5 124.5 124.3 125.4 126.8 128.8 130.4 133.1 138.2 144.8 152.6 162.5 169.7 172.6 175.2 177.6 179.1 179.9 180.6 181.1 180.9 178.7 177.3 174.6 171.9 168.3 170.2 173.1 176.3 180.4 187.9 199.1 210.1 218.3 220.4 225.3 230.1 236.3 242.4 259.3 279.2 295.2 311.8 328.5 342.9 353.7 360.6 363.1 362.4 357.8 355.6 358.1 364.2 364.4 366.9 376.1 382.7 380.6 365.2 356.8 365.2 370.2 377.1 375.7 360.8 352.4 342.8 332.6 326.6 324.7 329.9 333.9 334.8 335.2 339 339.7 337.6 329.6 326.9 323.4 318.9 313.5 309.2 304 301.9 298.4 294.1 289.3 285.8 285.7 286.1 287.7 289 288.8 287.7 286.7 284.7 280.3 275.2 268.5 262.1 255.4 248.1 241.4 235.1 231.3 228.3 230.1 233.4 235.5 233.4 232.2 234 235.9 237.8 238.8 238.9 243.9 250.1 256.1 262.4 269.7 278.2 286.6 295.9 305.1 309 310.7 314.6 315 315.2 314 310.6 305.6 301.4 297.2 291.7 288.7 285.7 282.8 280.3 277.2 275.7 275.7 276 276.7 277.2
67.3 50.7 37.1 24.1 -2.6 -2.6 -1 -2.6 -2.6 3.2 3.5 4.3 5.4 5.9 -2.6 -2.6 3.2 3.4 3.7 4.3 5 5.7 6.9 9.3 11 12.4 13.8 26.4 27.8 24.9 26.8 32.4 51.9 86.1 113.3 123.5 122.1 121.2 121.5 123.6 126.1 130.3 135.2 136.9 139.2 140.7 140.4 138.8 137.3 133.1 132 130.4 128.8 127.3 125.6 125.8 127.1 128.5 130.6 133 136.4 141.3 148.5 157.7 167.3 171.5 174 175.8 177.3 178.1 179 179.7 180 179.1 176.7 173.9 171.4 168.8 167.3 171.1 174.6 177.7 181.5 187.8 196.4 204 206.9 211.6 220 229.4 238 245.4 256.8 273.3 291.9 308.1 321.5 335.7 351.9 364 370.3 372.7 370 368.6 367.3 371.8 378.6 377.4 378.5 378.2 373.3 365 368.1 378.5 385 387.1 383 369.8 362.2 350.4 340.9 334.9 336.7 340.8 341.1 342.9 345.4 350.3 348.5 343.9 338.4 337.9 332 327.5 321.5 317.4 311 307.2 303.8 300.7 293.6 294.1 293.6 292.8 293.8 294.8 294.7 295 294.7 291.7 287.4 281 274.5 269 261 253.1 245.5 238.7 233.2 228.8 228.6 230.4 233.1 232.3 230.8 231.3 233 234.7 234.9 236.9 240.3 244.8 251.3 258.8 266.3 274.1 283.5 293.1 300.3 305.8 307.9 309.6 308.8 306.8 305 301.6 297.1 291.1 286.4 282.8 280 277 274.6 272.9 271.8 271.1 270.6 270.6 271.5 277.3
57.8 39.1 19.7 -2.6 -2.6 -2.6 3.5 3.5 -2.6 -2.6 -2.6 3.5 4.1 5 -2.6 0.7 3.8 3.8 3.8 4.6 5.3 6.2 8.1 10.2 12 14.4 17 26.8 23.7 23.6 26.5 41.5 69.8 102.1 122.7 130.3 126.6 126 126.9 129.5 133.2 136.7 140 142 144.7 145.7 144.6 139.5 135.8 134.6 133.1 131.4 129.7 127.6 126 126.5 128.5 130.1 132.5 134.8 138 142.5 150.3 159.3 168.1 170.4 172.9 174.8 176 176.8 177.5 178.2 177.6 176.6 174.3 171.3 168.9 165.8 166.5 171.1 175.6 179 182.8 187.2 192.1 197.4 201.9 210.8 221.9 232.5 243.1 254.9 260.4 271.5 286.5 305.4 329.2 349.5 367.2 378.7 387.4 389.1 389.6 391.4 384.9 382.4 388.7 385.2 383.3 377.1 370.1 367.6 374.1 381.7 391 392 387.9 379 369.9 359.7 349 345.4 347.1 351.5 352.3 349.3 351.8 353.8 355.8 352.8 346.6 342.3 337.6 327.7 328.6 323.2 317.2 312.9 310.7 306.3 302.3 301.7 302.3 301.5 300.8 301.7 302.8 303.4 303 299.2 294.4 288.7 281.8 274.8 267.4 259.9 251.9 243.8 236.5 231.3 227.8 227.4 229.7 229.9 229.4 229.3 229.8 230.3 231.9 234.1 236.2 241.7 249.1 256.5 264.2 274.3 282.3 291.9 298.6 303 304.7 304.1 302.9 301.3 298.8 294.6 288.6 281.4 277.4 274.8 271.5 268.6 266.6 265.8 265.9 266.5 266.2 267.7 270.2 276.3
50.2 27.8 -2.6 -2.6 3.2 3.8 4.3 5.1 4.4 -2.6 -2.6 0.4 2.7 -2.6 -2.6 -2.6 3.9 3.9 3.9 5.1 5.7 6.8 8.9 11.2 13.3 15.8 19.2 21 21.4 22.6 27.6 50.4 81.5 105.9 122.7 129.5 129.5 129.6 131 134.2 140.3 143.1 146.9 149.2 148.8 150.9 143.5 138.3 136.7 135.4 133.9 132.1 129.9 127.4 126.7 127.2 130.2 132 133.3 136.3 139.4 143.3 150.9 159.1 165 168.7 172.2 173.4 174.3 174.9 175 174.5 173.2 171.8 169.6 167.6 165.7 161.6 166.9 172.6 175.8 179.5 182.9 186.4 189.8 193.5 203.1 215.7 224.2 238.1 249.8 262.4 272.1 280.1 292.8 318 341.2 363.7 397.4 405.6 404.9 401.5 403.5 405.6 399.4 391.4 388.6 388.1 381.5 373.1 372.4 376.1 383.1 387.2 390.4 395.4 395.9 386.4 376.5 368.2 359.3 355.9 356.6 356.5 357.3 360.3 363.5 361 363 359.8 350.8 347.1 341.1 335.6 332.5 328.4 323.6 319.5 316 311.3 309.4 310.3 310.2 310 310 311.6 314.1 314.2 311.7 307.8 302.8 296 288.7 281.3 274.2 267.3 260.2 252.3 245 238.5 232.5 228.1 226.4 227.4 228.2 228.2 227.9 228.1 229.4 230.9 234.3 240.9 247.9 256 265 272.6 280.4 288.2 297 300.1 299.5 298.1 296.8 294.8 291 286.5 278.6 272.5 270.3 268.1 265 261.9 260.7 260.9 260.9 261.6 262.9 265.2 269.1 275.3
43.6 21.4 -2.6 2 4.2 6.5 11.9 13.2 11.3 12.3 -2.6 -2.6 -2.3 -2.6 -2.6 -2.6 4 4.1 4.2 5.4 7.7 8.2 8.1 11.2 13.9 16.7 18.5 19.6 20.4 22.3 32.4 56.4 81.4 105.9 115.4 124.9 127.6 131.1 134.5 139 144.3 148.9 150.2 150.2 152 148.7 142.9 140 137.3 135.4 133.5 131.1 129 126.6 126.4 127.9 131.2 131.1 133.8 137.7 141.6 146.7 150.7 158 164 170 170.7 171.2 171.8 171.9 170.9 169.8 168.3 165.7 165.6 165.6 161.7 161.9 172.5 171.7 174.7 179.5 182.2 184.7 187.8 191.7 201.6 217.4 233 247.4 261.5 274.3 285.8 293.1 303 326.2 347.8 367.7 394.1 408.4 410.5 414.7 413.6 413.8 410 402.4 393.6 386.9 379 375.2 380 393.3 402.6 405.6 400.4 399.9 399.6 395.5 385.5 377.7 369.5 362.9 360.8 362.7 366.7 371.9 372.8 368.6 368.2 361 354.2 349.2 343.4 340.3 336.4 331.7 327.2 323.6 321.1 313.8 316.6 317.1 319.6 320.8 322 323.9 325.1 323.1 320.9 316.9 312.6 305.9 297.2 288.2 279.9 274.1 267.1 260 255.7 247 239 232.2 227.5 225.4 226.7 226.9 226.7 227 227.5 229.5 233.6 238.9 245.2 253.6 260.9 269 276.6 284.4 291.1 292.1 292 291.2 289.5 286.7 282.5 277.8 270.8 266.2 264.5 261.7 258.6 256.3 255.9 256.4 256.5 257.8 260.9 263 267.4 272.9
36.8 13 -2.6 3.3 7.4 9.5 13.3 15.9 16.6 16.6 14.1 10.6 -2.6 -2.6 5 4.9 4.8 4.9 5.4 6.8 9.9 11 10.9 9.5 13.2 16.2 18 19.3 20 24.6 39.8 54.8 72.8 92.1 101.9 111.7 124 132.1 136.3 143.4 149 152.5 151.6 152.1 153.1 146.9 141.9 138.6 136.1 134.2 132.2 130 127.7 125.7 125.7 127.8 129.2 129.1 134.3 140.4 144.6 148.2 151.3 155.4 161.7 166.5 167.5 168.8 169.8 168.7 165.7 163 162.1 161.9 164.6 163.9 158.6 162.6 166.4 169.1 179.7 181.8 184 182.5 185.3 198.3 219.1 238.7 245.8 260 275 284.8 292.6 297.3 305 315.5 334.3 359.1 384.8 401.2 409.6 420.4 425.5 426.4 418.7 407.1 396.5 389.5 389.9 391.2 400.8 411 419.8 424.1 418.3 411.8 407.9 402.1 395.9 386.8 378.2 371 368.7 370.4 373.2 377.2 375.2 371.7 368.4 362.5 355.9 352.9 348.7 342.1 338.3 335.1 332 329 326.7 320 323.8 327.4 332.7 333.4 335.4 336.5 336 333.8 331.3 327.4 323.5 318.3 309.2 298.8 289.9 284.7 276.5 270.8 264.4 254.1 245.2 237.7 230.7 226.4 224.6 224.7 225.2 225.5 225.9 228 232.1 236 241.1 247.5 256.3 263.7 272.5 278.2 281.4 282.4 283.1 282.2 280.5 277.8 274.2 270 263.1 260.1 258.3 256.3 254 252.2 251.8 250.9 254.1 257.6 260.3 260.9 266.3 272.1
26.7 -2.6 -2.6 4.3 11.8 12.6 12.2 15.5 16.5 16.9 15.9 15.3 15.1 13.4 12.8 11.4 9.4 7.4 6.6 7.9 10.7 12.4 13.1 13.2 13 15.7 17.7 19.5 21.3 26.7 36.3 45.7 59 72.1 86 105.6 120.7 134.7 141.8 147.5 152.8 156 155.6 152.8 151.5 145.2 140.5 136.9 134.8 132.7 130.5 128.3 126.1 124.9 125.2 126.4 126.4 129.4 138.2 142.3 145.9 148.2 150.6 153.5 159.9 163.2 165.3 166.9 167.4 163.7 160.9 157.9 157.3 159.3 163.5 159.2 158.6 162 165.1 171.4 176.2 179.5 180.9 181.8 195.5 221.9 245 254.7 260.4 269.4 282.8 288.5 292.9 298.3 306.9 311.2 325.1 348.4 374.3 393.8 418.5 432.7 433.5 432.8 423.9 412.5 406 401 400.7 412.8 421.3 433.3 438.4 438.2 431 426.6 424.2 413.4 403.8 395.5 388.4 380 379.2 380.1 379.8 379.7 377.6 374.3 370.6 366 357.6 354.7 349.8 347.2 342.3 339.1 336.1 333.6 328.9 328.7 332.1 334.6 339.4 342 343.2 346.5 347.6 347.7 343.4 339.2 336.1 332.3 322.9 312 301.8 295.3 287.6 279.4 271.8 261.8 252 243.4 236.3 230.7 226.2 223.5 223 223.8 224.8 226.7 229.3 233.1 236.6 242.3 249.8 260.1 265.3 269.3 271.4 274.1 275.2 274.7 272.6 269.4 266.4 262.7 257.6 254.5 252.1 251.1 249.5 248.2 247.2 248.2 252.1 254.4 255.8 259 265.3 272.5
14.4 -2.6 -2.6 10 17 17.8 15.3 14.2 16.8 17.8 19 18.5 18 17.9 17.3 15.3 12.1 9.8 8.4 9.3 11.5 13.3 14.7 14.9 16 16.8 18.5 19.5 21.7 26.5 33.5 39.3 44.5 54.7 75.7 101.7 123.7 140.7 147.8 149.5 155.7 159.2 157.7 155.5 151.8 143.9 138.5 135.2 133.1 131.5 129.4 127.1 124.8 124.4 124.6 124.8 125.9 132.5 138.9 142.7 145.3 147.5 149.9 152.2 155.4 158.5 163 164 162.5 159.2 154.6 153.2 153.6 156.1 156.7 156.1 157 160.8 164.5 168.9 171.7 174.2 178.8 192.2 213.4 239.9 256.2 264.5 274.2 277.4 281.8 287.7 294.6 297.7 305.7 313.8 325.8 346.9 372.5 399.1 428.4 439.1 436.6 432 425.4 420.5 416.1 413.5 423.4 435.7 438.7 446.9 449.9 448.1 443.8 441.5 437.4 427.9 418.6 405.1 397.5 390.6 387.8 386.8 387.2 384.9 382.3 379.6 373.4 368.6 363.1 357.6 354.9 349.7 345.9 342.7 339.2 336.9 334 334.2 336 338.6 342.4 346.3 350.5 354.7 356.6 358 356.5 352.7 350.9 345.4 335.2 324 315.7 309.3 303.9 291.4 279.8 269.9 259.9 251.5 243.5 237.2 231.2 227.6 226 222.7 222.7 224.6 227 230.1 233.1 238.8 246.3 252.9 257.9 261.7 264.8 267.4 268.8 268.4 265.6 261.8 259 257.1 252.9 249.1 247.7 246.1 245.1 244.2 242.3 244.1 247.2 248.3 252.3 259.1 266.3 270.7
4 -2.6 -2.6 18.4 21.7 21.2 18.8 17.4 18.2 19.6 20.9 21.1 20.4 19.6 20.2 18.5 13.7 11.9 10.4 11.1 12.5 14.1 16.3 17.4 17.1 18.6 20.3 20.4 22.6 25.7 31.1 37.3 42.4 49 67.2 99.2 129 145.4 148.6 157 162.2 163.3 161.4 159.4 151.5 142.4 136.9 133.6 131.1 129.8 128.6 126.3 124 123.7 123.1 122.1 126.3 133.7 138 141.8 144.7 146.9 148.5 150.3 151.8 155.9 159.4 160.1 156 153.5 150.2 150 151.1 152.5 153.6 154.1 157.6 160.6 163.8 167.2 170 177.1 189.5 206.6 228.3 246.5 261.4 272.3 279.7 282.1 284.5 293.8 296.5 301.6 312.8 322.8 333.6 348.2 377.4 406.2 423.1 433.8 432.7 427.9 426.1 425.2 424.9 424.3 434 450.3 453.1 461.9 464.1 460.7 456.3 452.4 447.8 442.5 433.6 417.1 407 402.7 399.6 391.4 391.6 387.4 385.8 381.6 376.3 372.4 367.8 361.1 357.7 351.8 349.7 345.8 342.3 339.4 336.5 338.9 340.3 343.6 350.7 356.4 359.9 367.3 371 369.5 370.4 369.6 364.7 357.1 347.2 337.4 332.3 328.4 321.3 307.2 293.1 282.9 269.3 259.8 251.1 243.5 236.4 231.4 229.1 226.2 222.5 223.3 225.9 228.4 230.4 234 239.1 244.9 248.4 255.2 259.3 261.5 262.6 262 259.7 253.6 251.3 250.9 247.9 244.6 243.1 242 240.9 238.2 237.5 240.4 241.5 244.1 251.3 261.1 266.4 269.9
-2.6 -2.6 15 20.7 21.4 21.8 20.7 19.5 19.7 20.2 21 21.5 20.6 19.6 19.7 17.6 14.6 13.7 12.1 12.7 14.5 16.8 18.8 19.2 18.9 19.4 20.6 21.9 23.9 27.8 32.7 37.7 42.3 48.9 66.6 98.4 119.2 134.8 153.9 163.9 164.9 166.4 165.9 161.7 150.3 138.8 134.9 131.6 129 128.1 127 125.5 123.2 122.4 120.1 121.1 127.9 132.2 136.3 140.8 143.2 144.9 146.6 148.3 149.8 152 153.4 152.2 151.5 148.4 147 147.2 148.1 149.1 149.8 155.1 159.7 162.4 165.5 170.7 177.2 186.1 200.9 220.6 237.5 256.1 269.9 279.3 282.6 287.8 290.9 295.3 300.1 304.9 313.4 325.5 339.9 356.1 374.9 402.6 420.5 428.4 423.8 421.9 428.1 433.5 433.5 433.4 442.7 450.6 461.5 471.7 471.8 469.6 469.2 463.7 456.9 450.6 441.9 426.8 418.4 412.4 409.2 400.8 393.9 392.8 390.9 384.5 379.1 376.7 372.9 366.4 361 355.3 353.9 349 345.5 343.1 340.2 343 344.7 350.8 358.7 365.4 370.2 378.3 380.1 383.3 386.3 381.2 374.2 366.2 357 351.3 346.4 339.6 331.8 320.7 308.1 292.7 277.9 266.3 257.6 249.6 242.1 235.9 231.8 227.2 224 221.7 223.8 225.5 227.1 229.3 234.3 239.7 244.2 248.5 253.3 255.9 256.9 256 253.8 249.2 243.3 244.5 241.9 239 238.1 236.7 235.4 232.4 231.8 236 237.3 242.4 252.5 261.1 265.1 265.1
-2.6 -2.6 19.7 21.5 21 20.8 21.1 21 19.8 19.4 19.8 20.1 18.8 16.6 14.9 13.8 14.2 13.5 13.4 14.3 16 18.2 19.6 20.5 20.3 20.5 21.7 22.9 24.9 28.7 34.3 37.7 41.8 49.1 66 85.8 103.9 130.4 155.6 166 169.7 167.7 168.5 158.2 145.3 136 132.7 129.2 127 126.2 125.3 123.6 122.6 121.3 117.3 120.9 126.6 130.7 134.8 138.6 141 143 144.8 146.4 147.9 149.3 150.3 149.4 147.7 144.8 145 146.1 147.2 148.8 151.5 155.1 161 164 168.3 174.1 182 195.9 213.2 231.4 248.6 263.5 274.6 281.2 288 293.3 295 298.4 303 305.7 312.9 326.8 342.7 361.9 374.2 382.3 395.3 401.8 405 417.8 427 438.3 439.5 438.7 440 448.4 464.6 475.8 478.2 481.8 477.3 470.2 462.9 454.3 446.4 433.7 424.7 419.5 417.2 411.2 402.8 398.2 393 384.8 384.1 380.9 375.7 369.8 362.9 358.8 356.1 352 348.3 345.5 343.3 346.4 350.5 357.7 364.9 373.2 379.5 387.3 393.6 396.1 394.1 389.6 383.3 374.3 366.4 360.8 354.9 346.6 336.6 322.3 308 294.2 282.9 270.7 262.5 254.8 246.9 240.6 235 229.9 225.2 222.2 221.5 222 223.7 226.2 230.4 235.2 238.9 244.1 248.2 250.6 251.1 250.2 248.1 244.2 238.6 238.6 236.2 233.1 231.6 230.7 228.8 227.4 229.5 232.2 235.2 240.7 247 252.2 256.3 259.6
-2.6 15.1 17.8 17.4 16.9 16.9 18.2 19.6 18.8 17.7 18.2 17.3 15.5 13.6 12.9 10.6 10.8 11.3 11.4 14.4 16.8 18.6 20 20.6 21.2 21.7 22.3 24.1 26.4 30.7 34.1 37.8 41.6 48.4 63.7 80 101.8 127.8 143.8 157.5 162.6 166.6 163.2 151.2 140.1 134 130.5 126.3 124.6 123.8 122.2 120.2 119.1 117.1 115.7 120.5 124.8 129.2 133.3 136.6 138.8 141.2 143 144.5 145.9 147 147.8 146.7 144.6 145.7 146.8 147.3 148.5 149.8 152.8 156.4 161.9 165.8 170.4 175.4 191.3 206.7 225.7 243.2 258.2 266.5 275.7 283.7 293 295.7 299.8 302.9 305.8 308.4 313.3 328.1 344.3 364.5 375.6 376.9 376.3 379.6 395.4 412.6 429.3 440.6 443.4 443.1 444.5 456.5 468.5 477.7 479.8 487.4 480.6 474 466.3 455.2 446.8 436.5 429.1 425.4 420.3 416.1 411.2 401.2 393.5 387.9 387.2 382.9 376.4 369.3 365.4 363 358.7 353.9 350.8 347.2 346.4 350 355.9 363.1 370.3 380.7 390.6 399.2 401.6 402 399.8 396.6 388.9 380.6 375.7 369.2 361.3 350.1 336.6 323.4 308.2 295.5 284.8 275.3 266.6 258.8 252.7 246.3 240.4 234.6 229.2 224.5 221.4 219.4 219.8 222.2 223.5 231.1 236.3 239.6 242.9 244.6 245.4 245.2 241.9 238.8 235.1 231.5 228.9 226.3 224.6 224.2 223.4 222.4 225.7 228.6 232.6 237.7 242.6 247.4 251.8 257.2
4.8 14.9 12.9 11.1 11.6 12.3 14.1 15.6 15.8 13.4 14 10.5 8.5 7.1 8.7 7.5 8.8 9.3 9.9 10.8 14.9 17.7 19.3 20.6 21.4 22.4 23.9 26.2 28.6 31.5 34.5 37.7 41.6 48.2 66.8 90.9 108.4 119.6 131.7 144.7 158.9 163.1 154.3 144.8 135.8 131.2 126.3 123.3 121.7 120.7 118.3 116.3 115.3 114.1 115 119 123.2 127.5 131.2 134.6 136.6 138.9 141 142.5 143.8 145.5 145.6 143.8 142 147.9 148.3 148.8 150 152.9 156 159.3 164.5 171 175.2 186.3 200.4 215 229 244.7 258.4 271.6 281.3 287.9 297.3 302.5 306.1 306.7 308 310.8 314.8 327.4 339.8 363.7 364.9 362.5 365.3 371.1 384.8 403.1 426.4 443.1 445.4 447.9 448.4 455.6 465.5 468.2 473.4 480.4 478.8 472.4 465.7 457.3 446.7 438.7 432.3 429.5 424 418.3 412.8 404.7 397.2 392.9 389.1 385.1 378.1 371.4 368.4 365.2 360.3 355.9 350.5 349.8 351.6 354.4 359.7 367.8 376.3 389.6 399 403 406.5 409.8 407.9 403 395.8 388.4 382.7 373.4 362.7 351 337.6 324.9 310 299.2 289.5 280 272.3 264.4 257.6 251.8 246.7 240.8 234.9 230.3 226.1 223.3 221.2 219 221.4 228.4 233.3 235.1 235.9 238.8 239.8 239 236.8 233.9 230.8 225.6 222.5 220.4 219.7 219.3 218.2 217.8 222.5 225 228.9 234.1 237.7 241.7 247.8 253.9
4.1 6.5 -2.6 -2.6 4.9 6.3 8.3 11.3 11.9 8.1 6.1 5.9 6.1 6.9 7.8 7.8 8.3 9.3 9.8 10.8 13.2 16.8 18.4 19.3 20.7 22.7 25.1 28.3 30.2 32.8 35.3 37.9 41.5 50.7 70.2 87.6 95.4 104.8 119.6 137.7 154.5 152.3 147.4 140 132.3 127.1 121.9 119.7 117.6 115.4 114.2 113 112.2 113.9 113.5 118.1 121.5 125.4 129 132.2 134.4 136.3 138.1 139.5 141 141.4 141 139.6 144.5 147.9 150.6 152 154.3 157.7 161.5 165.4 171.2 175.6 179.5 190.1 204 216.2 229.4 246.9 263.3 277.7 291.1 301.9 306.4 309 310.2 310 310.4 313.1 317.8 324 332.2 345.7 349.2 356.6 361.3 366.1 372.5 389.6 410.5 429.2 444.9 449.8 448.2 456.6 460.5 465.4 469.3 475.1 474.8 472.1 465.5 456.6 447.2 439.8 434.2 429.1 422.2 417.5 413.5 407.6 401.6 395.6 391 386 379.7 374 370.9 366.6 361.7 357.4 353 353.6 355.3 360.2 367.4 374.7 383 395.4 402.8 408.9 411.4 415.1 413.1 409.4 403.8 396.2 386.7 376 365.8 353.2 339.4 325.1 312.3 301.9 294.9 287.8 279.3 269.9 262.8 256.9 252.2 246.9 241.8 236.4 230.7 226.3 223.4 219.6 219.2 224.7 229.4 231.8 232.3 232.9 232.6 232.5 231.3 228.7 225.7 221.7 218.1 216.6 216.4 215.4 213.5 214.9 217.9 221.4 225.6 229.9 233.8 240.5 245.4 250.5
3.9 -2.6 -2.6 -2.6 2.8 5.2 4.6 6.4 5.4 4.6 5.2 5.6 6.1 6.6 7.2 7.9 8.8 9.5 10.1 10.9 11.7 13.1 16.3 18.4 20.8 22.2 26.2 27.9 29.8 32.3 35.2 38 43 51.4 67.5 75.6 82.7 94.4 114.6 131.2 137.5 142.9 142.2 135.1 127.5 122.3 117.1 114.3 112.2 111.2 110.9 111.1 109.3 110.1 113.3 117.7 120.4 123 126.1 129.1 131.5 134.2 134.8 136.2 136.5 135.4 136 140.7 146.1 150.8 153.8 156.4 158.6 163.2 167.9 171.8 175.8 179.9 186.2 194.7 207.5 219.5 235.8 253.6 271.9 290.9 303.5 309.7 313.5 314.5 314.3 313.1 312.6 314 317.1 320.8 324.9 330.3 339.5 349.5 358.6 363.6 368.1 371.5 390.3 413.3 433.5 441.3 442.1 450.4 456 459.1 463.4 474.3 479.2 472.8 464.2 456.3 447.4 440.1 433.9 427.8 421.2 416.9 412.9 409.5 402.4 396.8 391.3 386.2 381.1 375.4 371.9 367.4 363.3 358.6 358.2 358.8 361 366.7 372.5 379.8 389.1 399.6 409.3 414.5 417.3 419 418.1 415.7 409.6 400.9 391.4 381.5 369.3 355.9 341.7 330.2 320.8 309.3 299.5 293.2 285.4 276.7 269.2 262.3 257.8 253.2 246.8 241.8 236.6 231.6 227 221.4 217.6 221.6 226.2 228.6 229.4 229.2 227.4 225.2 224 222.9 221.2 218.7 214.4 213.3 212.2 211.4 211.4 212.7 215.7 218.1 222.3 226.7 231.3 235.5 242.2 249.5
-2.6 -2.6 -2.6 3.7 3.5 3.8 3.6 4.1 4.2 5.4 5.4 5.6 6.1 6.7 7.3 7.9 9.2 9.9 10.5 10.9 11.2 12.8 18.2 19.6 21.3 22.4 24.7 27 30.5 33 34.7 38.5 44.2 51.7 59.8 66.9 75.1 91.9 113.1 122.7 129.7 137.8 133.8 128.5 122.6 117.5 112.6 109.8 108.2 107.2 107.5 108.5 106.9 111.1 114.9 118.6 119.4 121 122.9 125.5 127.7 130.2 130.4 130.3 130 135.4 139.5 143.9 147.6 152.9 156.2 159.6 163.6 167.4 170.9 174.7 179.4 185.1 193 200.4 209.1 223.2 238.9 259.2 285.3 302.9 315.7 321.7 325.8 320.1 316.6 314.4 313.9 313.9 315.2 316.8 319.2 322.2 331.5 345.3 354.9 360.5 363.5 366.5 375.6 402.1 416.9 429 429.1 432.5 444.3 452.9 467.5 478.8 475.4 468.3 463.4 456.2 448.1 440.3 433.2 426.3 420.2 416 411.8 407.3 402.5 396.8 390.6 386 381.6 377.4 373.8 369.1 364.9 362.8 363.6 364.1 367.1 372 378.1 386.5 396.5 406 415.8 421.8 424.2 425.1 425.3 421.8 415.7 407.5 397.7 385.7 374.4 362.5 352.5 341.7 330 316.9 306.8 298.7 291.2 283.3 275.1 267.8 262.4 257.3 252.2 247.2 242.2 237.2 231.2 224.3 218.5 217.9 221 223.6 224.6 223 220.2 217.6 214.9 216.5 216.6 215.5 210.8 209.8 209.3 208.2 208.8 210.7 213.6 215.9 218.8 222.8 228.8 234.6 239.6 247.6
-2.6 -2.6 5.3 5.4 6.2 6.8 5.3 5.2 5 5.4 5.6 6.1 6.7 7.2 7.8 8.4 9.6 10.4 11.2 12.1 12.8 12.3 16.6 19.9 21.2 22.9 24.9 27.4 30.1 31.1 33.7 39.5 46.8 52.4 57.8 64.5 72.8 87.6 100.9 111.4 125 129.7 125.7 122.5 118.8 114.1 108.4 105.9 103.8 102.8 103.5 102.9 109.9 113.3 115.6 117.2 118 119 120.8 122.5 123.6 125.4 126.6 127.2 133.9 140.2 143.1 146 150.1 153.9 158.2 162 165.7 169.5 173.4 176.7 182.3 188.9 195.7 204.2 212.9 226.9 242.7 265.8 295.2 318.6 326.8 327.6 325.2 319.6 314.1 312.5 311.8 311.7 311.1 311.5 313.6 317.7 324.5 340.6 348.1 356.4 360.5 365.1 369.3 385.2 398.9 404.3 411.2 430.2 442.7 446.8 454 460.8 464.9 465.1 462.6 455.4 448.8 440.2 433.1 426.1 420 415.2 410.9 407.3 402 396.6 391 386.1 381.9 378.6 375.4 371.3 368.7 367.6 367.9 369 371.8 376.6 383.5 391.9 402.9 414.1 421.9 428.2 431.3 432.7 432.4 428.1 422.6 413.7 404.1 393.3 383.2 373.4 363.7 351.9 339.2 324.3 312.6 303.7 296.4 288.9 280.3 272.6 266.9 261.8 257.1 252.4 247.2 241.9 234.7 227.2 219.4 214.3 215.7 219.1 219.1 216.3 214.6 213.6 211.2 209.9 211.6 210.6 208.4 207.6 206.3 205.7 206.3 208.2 210.4 213.4 216.1 221 226.9 237.9 241.7 246.9
5.4 6.6 8.3 9.3 10.7 10.8 9.9 10 5.7 6.1 6.7 7.5 8.2 10 10.3 9.9 11.5 11.9 13.2 14.1 13.9 13.7 14.8 18.5 21.3 23.2 25.3 27.2 29.1 30.5 33.4 41.5 48.5 52.6 57.5 63.9 71.7 80.8 91 102.3 115.4 117.7 118.2 118.3 115.9 111.2 104.9 101.7 100.4 100 100.5 101.9 107.7 110.5 113.5 115.7 116.6 117.6 118.9 120.3 122.5 126.2 129.7 133.9 138.4 141.7 146.2 149.8 152.6 155.8 159.9 163.6 167.3 170.9 174.7 179.1 185.8 192.4 198.9 206.5 216.8 228.8 246.6 271.7 302.3 322.4 321.6 320 315.1 310 307.1 307.6 307.3 306.6 305.4 306.5 309.2 313.6 319.4 330.4 343.3 353.9 359.1 365.5 370.4 375.5 382.8 389.7 399.6 418.6 435.2 442.8 447.1 453.5 460.7 463.5 461.9 456.2 449.4 440.3 433.4 426.6 420.4 415.2 411.3 406.4 401.2 396.5 391.1 386.5 382.7 379.6 376.7 373.9 371.8 370.6 371.2 372.6 375.9 380.7 389.5 397.6 409.6 418.1 427 433.9 438.8 439.7 438.6 435.8 429.3 421.2 413.1 405 396 386.8 374.7 361.8 347.5 332.2 320.1 309.8 301.3 293.5 285.4 277.7 271.4 266.3 260.9 255.8 251 245.3 237.8 230.2 222.3 215.7 211.9 213.5 212.4 210.9 209.4 211.4 210.4 206.6 206 205.4 205.1 203.7 202.7 202.3 203.6 205.7 207.5 210.7 215.6 220 227.2 236.7 243.2 249.2
5.7 6.5 8.7 11.9 13.9 14.3 14 13.7 13.2 12.7 11.8 10.8 10.1 12.4 13.5 15.2 16.5 17 17.5 16.3 14.9 14.4 15.4 17.2 21.4 22.9 24.8 26.6 29.1 29.3 35.4 43.6 48.5 53.1 57.5 63.4 70.6 80.2 89.2 98.1 106.3 110.6 113.7 114.7 113.2 108.6 103.3 100 98.4 98.1 99 100.2 103.3 106.3 110.7 113.8 115.2 116.6 118.5 123.4 125.6 131.4 134 137.3 140.4 143.8 147.9 150.8 153.1 156.6 160.8 165.3 169 172.6 177 182.4 188.3 194.6 201.1 209.8 220 232.9 249.6 270.1 284 299.7 304.9 303.4 302.7 300.6 301.4 302.1 301.8 300 299.5 301.3 305.2 309.7 315.6 323.2 338.3 350.8 353.4 360.8 366 374.5 379.6 382 389.1 410.3 433 441.9 444.3 453.6 463.2 463.2 460 454.4 447.4 440.3 433.5 426.9 420.9 416.2 412 407.4 402.2 397.4 392 387.4 383.4 379.9 377.5 376.2 374 373.3 373.7 376 380.1 386.2 396.4 403.2 411.6 423.2 432.4 439.4 445.1 447 445 440.9 435.8 429.1 421.9 415.7 407.8 398.3 386.3 370.7 353.9 339.7 327.5 316.7 307.2 298.8 289.9 282.2 274.9 268.6 263 258.3 253.4 247.4 240.2 232.5 225.1 216.2 212.7 210.7 208.5 208.6 210.1 208.5 203.4 199.9 196.7 199.4 199.9 199.5 199 199.8 201.4 204.1 207.3 211.3 216.7 221.2 229.2 240 247.3 253.8
6.8 8.5 8.9 11.4 14.6 17.1 16.6 16.2 14.9 14.8 15.1 14.7 13.3 15.5 17.7 19.2 19.3 20.3 20.5 20.1 17.4 14.8 16.2 16.7 18.5 20.6 23 24.1 25.8 28.7 39.2 44.7 48.8 52.7 57.1 63.5 70.1 80.6 87.9 94.5 101.8 106.7 110.6 112.3 110.4 106.5 101.4 99 97.4 98.1 98.9 99.9 101 103.2 106.5 111.1 114.7 115.9 120.5 126.1 129.4 132.6 136.2 139.3 142.1 144.9 148 150.8 154.3 158.9 162.6 166 169.6 173.4 178 183.9 190.2 196.8 203.4 213.4 224.7 235.8 251.3 264.3 276.5 286.7 291.7 292.7 295.9 295.9 296.2 295.9 295.3 293.2 294.5 298.1 302.1 306.3 311 316.8 326.5 335.4 341.9 351.2 358.9 369.4 373.1 376 383.4 405.5 430.1 431.9 434.5 446.6 456.2 457 453.5 450.1 446 440.3 432.9 427 422.1 418.6 414.7 410.7 405.3 398.7 393.3 388.3 384.4 381.1 378.6 377.3 375.8 375.6 376.9 379.7 383.9 389.3 398 405.6 414.4 426.8 436.1 444.2 449.7 452.7 449.6 447.4 442.7 436.5 431.3 425.4 417.7 408 395.3 379.4 362 347.3 334.8 323.8 313.6 304 294 285.6 277.7 270.6 264.1 260.2 255.5 250.4 243.2 234.8 226.8 219.7 214.3 210 211.8 214.3 213.5 211.2 206.8 202.9 198.6 195.9 195.3 192.3 197.7 197.9 200.8 203.7 207.3 212.2 217.8 225.7 235.3 243.4 252.4 258.4
8.5 9.9 10.2 11.5 14.4 17.3 18.6 18.6 18.1 17.5 17.3 13.9 16.5 18.4 20.2 20.8 21 21.9 22.6 22.1 21.4 16.6 16.2 16.9 19.7 22.8 23.4 25.7 27.6 31.1 38.8 44.9 49 52.9 58.1 66.2 73.2 79.4 84.8 91.5 97.8 104.2 107.7 110.1 108.1 104.3 99.4 98.2 96.9 98 99.2 100.3 101.4 102.3 105.8 109.9 111.8 114.3 121.7 126.4 130.9 135.1 138.4 141.4 143.4 146 148.8 152 156.6 160.1 163.1 166.6 170.2 174 179 184.7 191.1 197.6 204.5 214.7 227 237 247 258.1 270 278 283.2 288.6 289.9 289.7 289.7 289.3 289.6 290.3 292.4 296 299.4 303.2 306.3 311.6 317.7 325.5 332.5 341 353 361.8 365.2 371.6 380.7 396.5 412.8 421.7 425.6 432.7 441.5 443.5 446.6 447.8 446 439.7 432.4 426.6 423 419.4 416.9 413.3 406.8 399.5 394.1 389.8 385.7 382.7 379.7 378.4 377.7 378 379.8 382.1 385.4 390.5 398 407.4 417.6 429.3 438.7 446.6 452.4 454.6 454.5 453.5 449.8 445.4 440.5 434.7 426.8 415.9 402.8 385.7 369.2 354.3 341.9 329.1 318.7 308.5 298.9 288.6 281 273.6 267.2 262.2 257.7 252 245.6 237.9 229.4 222.5 217.5 213.3 213.2 214.9 212.7 209.7 207.6 204.9 202.5 200 196.2 192.6 193.9 198.6 200.3 202.6 207.7 213.4 220.5 228.7 238.8 246.7 258.8 269.9
10.6 11.5 11.7 12.3 13.5 17.6 19.3 20.2 19.9 18.7 18.8 15.9 19.5 20.9 22.2 22.3 23.2 23.9 24.2 24 23.4 17 16.7 17.8 20.7 24.7 25.7 27 28.8 32.3 39.2 44.3 49.4 53.7 61.7 69.5 74 78.1 82.4 88.6 94.3 99.7 105.2 106.6 105.7 102.7 99.6 97.8 96.1 98 99.4 100.6 101.6 102.8 104.3 106.9 109.6 117.1 123.3 128 132.8 136.8 139.7 142.2 144.5 146.8 149.7 153.2 156.3 159.5 162.7 166.3 169.9 174.2 178.6 185.6 192.2 198.7 205.9 216.9 228 238.1 247.9 257.7 265.4 275.1 281 281.8 281.1 282.9 284.4 286 287.4 288.4 290.7 293.8 297.6 300 302.3 305.7 310.1 318.1 325.6 334.6 345 352 359.2 366.8 378.4 391.6 402.8 412.4 416.8 428.2 437.8 440.2 443.3 450.6 448.2 440.3 433.7 427.9 423.3 419.2 416.3 413.7 408.1 400.7 395.7 391.4 387.1 383.9 380.9 379.3 379.2 379.1 380.1 382.1 385.7 390.6 398.4 409.7 419.9 430.9 440 447.1 452.5 456.3 458.3 458.4 457.6 453.9 449.1 443.3 435.3 423.1 409 390.5 374 360 347.9 335.8 323.4 312.3 302.7 293.4 285.6 278.4 270.7 264.2 259.6 254.2 247.8 240.2 231.5 226.1 221.4 215.4 212.1 211.1 211 209.5 207.3 205.2 203 199.9 195.2 191.2 193.5 197.1 199.1 202.2 207.7 215.9 222.5 232.4 245.1 256.3 261.6 267.3
12.2 13.1 13.3 13.6 16.3 18.7 20.3 21.4 21.2 20 19.5 17.4 20.5 22.5 23.5 23.3 24.2 25.3 25.3 24.9 22.5 17.4 17.2 17.9 20.3 23.7 25.3 27.6 30.1 34.1 40.1 44.7 50 57.7 66.4 70.6 72.8 76.4 81.4 87.1 91.9 96.6 101.3 103.2 103.7 101.6 98.9 97 95.7 97.8 99.1 101 102.5 103.8 105 108.3 114.2 120 125.5 130.2 134.2 137.4 139.9 140.9 142.3 144.6 148.3 151.6 154.9 158.2 162.3 166.2 169.9 174 179.1 186.2 193 199.9 206.8 214.6 223.9 234.3 245.4 254 260.9 267.1 271.7 272.9 273.6 276.1 278.5 281.9 286.7 289.5 291.1 292.9 295.8 298.6 299.7 304 308.6 315.5 322.2 330.8 339.4 348.6 355.7 365.5 381.4 392.7 399.4 406.8 412 422.9 431.1 433.7 438.8 452.7 445 438.6 433.2 428.1 423.7 420.4 416.8 413.9 410.4 403.6 397.3 391.6 388 384.9 382 379.2 378.6 378.5 379 380.7 383.5 388.3 396.1 408.2 419.7 429.3 437.8 445.5 452.5 458.8 463.6 464.9 464.9 462 456.9 451 442.9 430.6 414.4 396.6 379.4 365 351.5 339.1 327.9 316.7 306 296 288.2 281 273.2 267.3 262.7 256.8 249.7 241.7 234.3 229.3 224.7 218.5 212.3 209.9 209.6 209.2 207.6 205.3 202.3 198.8 195.2 189.2 189.5 193.4 196.1 199.8 206.7 213.8 222.3 234.8 249.3 266.1 265.4 269.9
12.8 13.8 14.8 15.1 17.1 19.3 20.9 22 22.2 21.4 21 19.3 19.7 21.8 24.1 24.7 25.1 26.2 26.5 26 21.3 18.1 18.1 18 19.9 22.6 24.7 27.4 30.4 35.8 40.4 45 51.4 59.3 64.9 68.5 70.9 74.5 80.3 85.5 90.1 94.9 99.4 101.3 101.5 100.2 98.2 95.7 96.1 98.4 99.8 102.1 104 105.5 107.8 113 119.2 124 126.6 130.8 133.8 136 134.6 140.2 141.6 144 147.3 149.8 152.9 156.5 159.9 163.9 169.1 174.1 180 186.4 192.6 199.1 205.1 212 221.7 231.9 240.1 248.9 256.4 258.2 257.9 265.4 274.5 280 282.4 285.2 289.6 291.9 293.3 295.6 298.5 301 303.2 307.9 311 317.5 326.8 333.6 344.6 356.1 362.5 369.4 378.5 385.7 397.5 408.8 417.1 416.7 421 427.2 433.7 439.2 439.2 435.7 431.7 427.8 424.9 421.9 418.5 415.4 411.7 405.1 397.9 391.8 387.7 383.5 381.2 377.7 376.3 376.1 376.8 377.6 381.1 386.1 393.9 404 414.5 424.6 434.4 443.8 453.7 461 467.2 470.2 471.1 469.4 464.6 459.6 451.1 437.9 422.4 403.3 386 371.1 356.7 342.5 331.6 320.2 309 299.6 291.2 284 277.3 270.3 265.2 259.2 252.5 244.9 237.3 232 227.3 221.8 216.3 210.9 208.8 208.5 208.1 205.8 201 194.8 193.2 187.4 184.3 190.6 193.4 196.9 202.6 210.6 221.6 236.8 248.2 262.5 265.1 266
10.7 11.4 13.6 15.2 16.8 18.5 20.4 21.6 22.6 23.1 23.2 23.7 24 23.3 24.2 26.1 25.9 26.5 26.9 26.7 21.6 19.1 19.4 20.2 19.7 22 24.1 26.6 29.6 34.4 38.9 45.3 51.6 58.2 61.9 65.8 69.2 73.8 79.5 84.3 89 93.6 98 99.5 98.8 97.7 94.4 95.3 97.1 99.3 100.9 102.8 105.2 108.1 110.9 116 120.8 123.2 122.3 125.7 130.2 134 137.7 140.1 143.2 145.9 148.6 151.2 155 158.4 161 163.5 166.6 172.5 176.8 183.5 187.4 194.9 202.2 209.2 214.6 223.3 230.2 240.9 250 257.1 262.9 268.3 271.9 276.8 282.3 287.6 293 295.1 295.9 297.8 301.4 304.4 308 314.7 317.3 322.5 330.4 337.5 350.4 362.3 368.5 373.3 381.2 387.7 396.9 403.5 409.2 413.8 415.1 419.7 429.8 437.6 435.8 432.6 430.2 427.3 424.4 423.2 420.8 417.1 411.8 404.9 398.1 391.6 386.7 382.3 378.2 375.2 373 372.4 373.1 373.8 376.5 381.7 389.3 397.6 408.9 421 432.1 442.7 453.1 462.4 469.6 473 475.5 475 471.4 467.5 459.2 446.2 431.3 412.2 393.1 377.4 363.5 349.6 334.9 322.9 312.5 304.2 296.3 289.2 282 274.9 268.6 261.9 255.2 248 240.8 234.5 229 223.7 219 214.2 209.9 207.5 207.4 205.7 201.3 193.5 189.3 185.5 181 188.6 190.6 193.4 198.3 207.3 218.2 223.3 236 251.3 254.9 251.2
8.7 10.6 10.9 12.8 16 18 19.9 21.8 22.6 24 24.3 25.1 25.9 26.4 25 25.6 26.5 26.7 27.1 27.2 23 20 20.3 21.2 22.4 22 24.3 26.6 29.5 31.4 35.3 40.8 46.1 50.4 54.2 62.4 68.3 73.1 78.7 84.3 88.9 93.2 98.3 97.2 95.4 94.5 93.6 95.7 97.7 99.1 101.9 103.4 105.4 108.5 110.4 112.7 115.3 119.4 125.4 129.6 132.5 134.7 137.9 142.2 145.9 149.3 153.1 156.7 160.1 162.9 166.3 170.4 174.9 180.4 187 182.9 193.6 201.2 209.6 216.2 223.3 230.6 237.3 244.6 251.2 257.9 265.7 271.6 277.4 283.2 287.6 290.5 295.6 297.1 297.8 300.6 305.2 307.1 312.2 318.7 323.4 329.9 334 340.9 350.2 362.7 369.7 374.1 384.3 390.7 395 401.3 407.9 416.4 422.4 428.2 436.4 437.1 434.4 432 429.9 427.4 424.1 422.5 421.1 417.1 411.7 405.5 398.2 391.6 385.7 380.7 375.1 370.7 368.7 368.5 368.7 369.7 373.2 377.7 383.9 394 406.1 416.1 427.6 439 451.5 460.8 468 472.8 475.3 476.7 474.6 472.8 465.5 452.8 438 420.6 400.9 383.5 368.5 353.8 339.3 326.4 316.2 307.5 299.8 292.9 285.8 279.2 271.6 265 258.4 251.1 243.8 236.9 230.9 226.2 222.3 218 214 209.3 203.2 202.7 199 193.8 186.4 183.5 178.6 183.8 184.6 186.1 191.3 199.4 209.2 215.6 225.4 230.4 237.1 246.1
12.7 13.4 14.8 13.9 16.2 18.6 19.9 20.7 22.8 24.2 25.4 25.9 26.4 27.1 26.8 27.1 27.7 27.4 27.9 27.9 26.6 25.1 21.3 21.8 22 22.8 24.1 27 28.3 30 33.3 38.4 46.1 51.7 56.4 60.9 67.2 72.5 78.6 85.3 89.6 94.3 99.3 93.4 91.2 92.2 93.9 95.8 97.5 99.4 103.5 106.6 110.6 115.6 118.9 122.4 124.4 125.8 128.5 131 133.3 136.3 140.9 145.4 148.9 152.5 156.6 160.3 163.8 167.2 171.2 177.1 184.7 191.8 196.7 196.3 192.3 199.1 209.7 217.5 224.6 230.2 232.3 245.6 254.9 261.6 266.4 271.3 277.5 284 289.2 292.6 295.3 297.5 299.4 303.6 306.7 309.6 314.7 323 331 337 341.4 344.7 352.6 364.9 370.7 376.7 386.6 391 395.5 406 415.9 426.5 432.2 438.3 440.7 440.4 436.4 432.6 430.4 427.6 423.9 422.1 420.4 415.9 410.1 402.4 395.7 389.6 383.2 376.9 370.7 366.8 364.1 364.6 364 366.3 369.7 373.5 380.1 388.6 400.1 409.2 419.8 434.1 447.7 456.4 464.3 469.8 473.9 477.2 476.6 473.7 467.7 456.8 441.8 426 408.2 389.8 372.5 358.7 344.9 332.9 322.2 312.3 303.9 295.9 289 281.3 274.3 267.7 260.9 253.3 245.9 239.4 233.8 229.7 225.8 221.6 216.8 212 204.8 195.9 193.9 189.7 184.8 180.8 174.4 179.2 179.6 180.6 183.5 189.1 194.9 204.2 210.7 220.7 233.1 241.6
14.9 15.9 17.2 16.9 16.6 19.4 21 22.3 23.2 24.7 25.7 26.5 27.7 28.4 29.1 29.7 29.6 28.8 28.9 29 29 27.6 24.4 22.5 23 24.2 24.9 26.8 28.5 31.5 36.8 42.2 51.4 55.1 56.3 62.5 66.8 71.4 77.2 83.5 88.7 92.3 93.6 90 91.7 93.1 94.2 95.5 98.6 104 108 111 113.9 117.9 121.9 124.7 127.1 128.5 130.1 132.1 135.4 140.8 144.9 148.7 152.5 156.8 160.3 163.7 167.4 171.3 177 184.9 191.6 197.1 202.2 205.8 205.9 203.2 203.6 210.2 214.9 223.7 235.7 250.4 256.7 262.3 266.6 270.5 274.6 279 284.4 290.7 294.2 296.4 301.9 309.2 310.2 315.3 320.7 331.7 340 344.6 347.8 351.3 356.5 365.1 370 376.4 387.1 398 409 422.6 427.4 436.6 446.9 445.2 447.1 443.1 437.8 433.3 430.7 428 424 421.3 419.1 414 406.5 398.3 391.3 385.2 378.9 372 365.8 362.7 359.5 360.3 360.1 363.1 366.4 371.1 377.1 384.4 394.1 403 413.8 427.9 441 451 458.8 465.1 472.4 474.9 474.9 472.7 465.8 456.6 443.7 428.7 411.5 394 378.3 363.9 351.4 339.5 329.4 319.3 310 299.9 292.6 285 277.6 270 262.6 255.8 249.5 243.3 237.7 232.8 228.9 223.1 218 212.6 205.8 196.6 189.6 184.8 181.5 178.2 174.1 174.2 175.1 176.3 178.7 182.3 186.2 193.6 200.8 210.5 216.5 220.2
16.9 17.3 18.4 19.2 17.7 19.7 21.7 23.5 24.9 25.5 26.6 27.8 29.1 30.2 31 32 31.9 31.2 30.8 31.4 31.5 30.4 24.7 24.2 26.5 28.6 28.8 32.7 36.4 37.9 43.4 48.8 54.4 60.2 64.9 68 70.7 73.6 74.5 79.5 85.3 88.6 89.3 90.6 92.9 95.8 97.7 98.8 102.9 108.4 111 112.7 115.7 119.5 122.9 125.7 127.3 129.4 131.5 133.8 138.2 145.6 149.3 152.8 156.2 159.6 162.9 167.1 171.5 176.7 183.3 190 196.4 202.5 207.6 211.8 216.1 219.3 220.9 221.6 230.7 240.2 249 252.3 256.7 261.3 265.5 269.8 273.8 278 283.3 289 293.7 299.5 304.9 307.8 313.5 320.5 330.3 340.1 345.1 350 353.4 360.1 363.8 372.2 380.3 387.6 396.4 411.8 422.2 433.8 439.5 449.2 458.7 451.9 448 443.2 437.5 432.2 430.2 427.4 423.1 418.5 414.9 408.2 402 393.5 386.1 379.9 374.1 367.1 361.3 357 354.5 354.7 356.8 359.3 363.2 368 373.2 379.8 387.4 396.9 407.6 420.8 434.6 444.8 453 460.2 466.2 470.9 471.7 467.3 462.5 455.2 442.8 428.8 412.3 397 382.6 369 356.2 345.4 335.5 324.7 313.8 304.7 296 287.8 280.2 272.7 266.6 260.1 253.3 247.4 241.4 236.4 231 224.8 218.9 211.4 204.3 198.6 191.2 185.4 180.3 177.1 173.3 168.9 169.4 171.8 174.4 176.7 181.2 189.4 196.6 205.4 208.6 212.4
18 18.7 19.5 20.3 19.7 19.7 22.1 23.8 25.3 26.6 27.8 29 30.4 31.8 32.8 34.1 34.2 33.9 33.4 34 34.8 33.5 26.8 28.3 32 34.5 35.5 37.1 43.1 45.1 48.2 52.4 57.9 64.1 68 71.1 74.4 77.6 79.9 82.9 85.7 89.1 90.3 91.1 93.6 96.3 98.2 100.8 104.2 108.2 110.8 113.8 117.1 120.1 122.8 124.9 127 130 133.4 137.3 143.6 148.4 152.3 157 159.7 162.3 166.8 171.2 175.8 181.8 189 194.5 202 207.6 212.4 217.6 222.2 226.3 229.7 234 240.9 246.2 251 254.3 256.9 260.7 265.2 271.3 274.9 278.5 284.8 289.7 294.4 299.7 305.2 310.6 316.7 324.1 335.3 341.8 348.3 355.5 361.7 372.6 379.5 387.3 399 414.4 416.5 425.3 444.3 447.4 448.9 458.4 461.9 455.8 447.1 442.8 436.8 431.3 427.9 424.4 420.8 414.8 409.4 402.9 395.3 387.9 380.8 375.1 368.8 362.2 356.9 352.3 349.4 350 351.8 355.6 359.8 364 369.1 374.6 381.9 389.9 401.6 415.6 427.7 438.2 446.6 453.3 458.4 462.5 464.2 460.7 458 451.1 438.6 425.7 413 399.1 385.5 372.4 359.7 350.2 338.9 328.1 315.5 305.9 298.6 290.9 283 275.6 269.8 264.4 256.7 249.3 243.3 237.4 231.5 224.9 217.4 210 204.4 198.7 192.5 184.9 179.6 175.9 173.3 170.1 166.9 167 170.5 171.1 173.9 181.8 186.6 191.6 197.6 200.5
18.5 19 20.2 21.6 22.4 22 23.3 25.3 26.4 27.5 28.8 30.4 31.8 33.2 34.5 35.8 37 36.8 36.4 36.3 36.8 33.5 29.5 33.3 39.1 42.3 45.2 46.4 49.6 52.3 54.8 59.3 64.1 68.1 70.9 73.7 77.1 80.6 83.6 86.2 88.3 90.6 93.3 95.3 95.6 97 99.4 101.7 104.4 107.7 110.3 113.5 117.1 120.1 122.8 126.9 128.4 131.2 136 140.9 146.5 151.6 155.8 160.2 163.8 166.9 171.4 175.4 180 187 193.5 199.3 206.8 211.8 216.1 220.3 225.5 229.5 233.2 239.2 244.7 245.7 249.4 252.8 256.3 260 264.2 271.7 278 281.6 287.9 291.5 294.9 302.3 307.1 312.9 319.7 327.8 335 342.6 352.7 361.5 378.1 389.4 398.3 408.4 411 427.9 433.2 441.7 453 462.2 458.3 461.6 463.8 457.2 448.9 442.4 435.6 429.7 424.8 421.4 417.5 410.1 403.5 397 389.8 383.5 374.8 368.7 363.6 358 352 348 345.2 345.2 347.3 351.1 355.2 359.4 364.4 370.4 378.4 386 396.7 409.5 421.6 431.7 440.1 445.2 448.9 450.6 453.3 453.8 452 443.4 432.7 422.6 410.3 396.3 385.1 372.4 362 351.1 339.4 328.3 314.5 305.9 300.4 294.3 286.4 279 271.4 264.9 257 250.4 243.5 237.7 230.5 222.7 215.2 208.9 203.9 198.9 192.7 185.7 180.7 176.2 172.4 169.2 165.5 161.7 165.8 166.9 166.4 169.2 173.6 177.4 186 198.4
18 19.2 20.7 22.1 23.2 24.2 24 25.1 26.9 28.4 29.9 31.4 32.8 34.1 35.7 36.9 38.2 38.9 39.2 39 37.7 31.5 34.4 42.9 46.1 49.9 56.7 53.5 56.5 60.2 63.3 65.7 69.9 73.3 76 78.4 82 84.2 88.2 90.2 92.4 93.9 95.1 97.4 99.5 100.9 101.3 103.5 106.2 108.8 112.7 115.9 119.5 122.1 124.1 128.5 131.8 134.6 139 144.8 150.2 154.9 159.3 162.8 165.9 169.9 174.9 179.8 185.4 191.7 197.6 205.7 210.9 215.4 219.5 223.5 226.7 230.4 235.7 241.2 243.4 243.8 247.8 251.9 255.5 259.7 264.1 269.6 279 284.8 289.9 291.5 296.1 303 308 314.4 323.2 331.7 337.9 346.2 359.5 374 393 415.6 424.2 433.8 432.2 438.7 444.6 457 458.6 463.8 465.6 461.9 463.2 455.4 447.1 437.9 432.8 427.9 422.2 417.2 411.3 404.3 397.4 391.2 385.1 378.8 369.4 363 358.1 352.5 347.7 345.1 341.3 340.8 343 345.6 349 354.4 359 365.8 373.6 382.3 392.4 404.3 415.1 425.5 431.6 435.8 438.2 439.2 441 442.1 441.1 433.6 427.7 416.5 405.3 393.7 382.1 369.9 359.2 347.1 335.7 327.4 315.1 306.8 302.3 296.5 289 280.5 272.2 263.9 256.6 250.1 242.9 235.2 227 220.6 212.9 207.9 204.1 198.9 193.9 186.2 181.9 176 171.7 166.6 162.4 157.4 162.2 161.2 159.3 157.9 159.5 168.8 177.3 182.9
17.4 19.2 20.7 22.2 23.3 24.9 25.7 26.6 28 29.2 30.2 31.5 33 34.5 36.3 37.8 39 39.5 40.5 40.3 37.1 35 39.7 42.9 52.6 46.4 47.1 63.3 65.9 67.7 70.3 71.6 74 78.4 81.3 83.8 87.3 89.8 90.4 92.1 95.1 96.6 97.5 98.8 101.7 104.7 104.1 105.6 107.2 108.7 111.7 119.4 121.7 123.5 125.7 130.1 133.9 137 142.6 147.9 152.8 157.5 161.5 164.9 167.8 173.2 177.7 184 189.3 195 203.2 209.2 213.6 218 221.6 224.6 227.2 231.6 236.4 240.2 241.4 241.8 246.4 250.7 255.3 259.8 264 269.3 275.3 280.3 284.8 287.4 295.8 303.1 309.9 317.9 328.3 335.3 342.7 353 368.5 387 410.7 437 451.7 456.8 456.4 453.2 454.2 470.2 473 471.7 471.1 467.1 459 451.7 443.5 434.7 430 425.3 419.2 412.6 406.1 399.5 392.5 385.8 379.3 371.9 363.4 356.8 352.9 348.3 343.7 341.1 336.3 336.6 338 339.6 342.9 348.3 353.2 360.8 370.3 380.1 390.4 399.4 409.4 417.1 422.2 426 426.7 427.5 426.8 426.9 427 422.4 416.8 406.4 396.7 385.4 374.4 363.4 352.9 341.6 334.3 324.4 316.9 310.3 304.1 297.4 289.1 280.3 271.2 263.9 256.6 247.8 239.6 231.1 224 218.8 213.2 208.6 204.4 199.8 194.5 187.5 181.8 176.4 171.9 166.1 161 153.9 157.3 157.2 155.1 153.9 154.5 161.7 168.4 176.7
18.4 19.7 20.8 22.1 23.4 25.8 26.9 27.9 29 30.1 31.2 32.2 33.3 34.9 36.7 38.5 39.6 40.6 41.7 41.6 37.3 38.9 44 38.3 38.5 65.4 68.6 70.1 70.7 72.8 75.2 76.3 77.5 83 85.4 88.4 91.3 92.7 93.4 94.3 97.1 99.2 101.4 103.1 105.4 108 107.7 108.3 109.7 110.9 113.5 115.9 122.9 126.1 130.4 134.4 138.5 142.5 145.9 149.6 153.9 157.7 162 165.7 170.9 175.9 181.2 187.5 193 200.3 206.5 211 214.9 219.1 222.1 224 227.2 231.7 235.5 237.6 238.1 240.9 245.7 250.7 255 259.2 263.2 267.4 271.3 274.6 279.4 286.2 294.5 303.4 310.5 318.1 327.2 335.6 348.9 364.7 381.9 401.8 424.2 449.4 472.2 473.9 470.7 466.3 464.5 477 481.9 473.7 470.5 467.1 456.2 449.4 441.7 434.1 428.1 421.7 415.3 408.4 401.6 394.8 387.8 380.8 373.1 365 357.1 352.1 348 343.3 339.5 336.5 331.5 332.5 332.9 334.3 337.4 342.1 347.2 356 365.2 376.2 384.6 393.3 399 406.8 412.8 414.4 413 413.4 411.4 411.5 410 404.6 400.2 392.2 381.8 373.2 364.4 354.7 347.3 339.3 333.4 325.9 318.8 311.9 304.2 297.2 288.7 278.8 271 263.1 254.3 244.6 236.4 229.1 224.2 219.3 214.8 210.3 205.6 199.9 194.5 188.5 181.5 176.5 171.2 165.8 161.2 154.8 151.3 153.1 151.7 150.9 153.3 160.6 166.4 174
19.2 20.7 21.9 22.7 24.7 26.3 26.8 28 29.4 30.9 32.2 33.6 34.8 35.8 37.1 39.2 40.5 41.5 42.3 41.3 39.6 42.5 48.7 56 58 67.8 72.2 74.3 75.6 78.2 81.1 81.5 82.1 85.6 87.7 89.7 93.2 95.3 97 98.1 99.9 102.9 104.6 107.9 110.8 111.7 111.4 114.3 111.9 114.2 117.7 121.9 125 129.8 134.6 138.2 141.9 144.8 147.6 150.9 154.6 159.2 164.1 168.8 175.9 180.1 185.1 190.1 198.2 203.5 207.6 212.1 216.2 219.3 221 222.5 225.6 228.6 231.7 235 236.2 239.8 244.9 249.1 252.8 256.8 260.6 263.9 267.3 272.8 279.4 286.5 293.8 300.2 308.1 315.5 326.6 341.6 356.6 372.7 391.2 411.8 431.4 458.9 484 490.3 482.9 476.1 471.2 472.8 474.1 471.6 465.9 461.3 455.5 448 440.7 433.5 426.8 420.2 412.6 405.9 399.1 392.1 383.7 375.7 366.8 359.2 353.2 347.7 343.2 339.2 335.5 332.5 328.7 328.3 328.8 330 332.1 335.4 340.4 348.2 356.1 366.8 373.5 379.2 386.4 392.1 398.2 395.3 392.4 390.6 388.2 388.7 385.5 380.6 377.8 371.4 365.9 359.5 354.4 347.7 342.3 337.2 329.7 324.2 316.7 310.3 303 294.6 285.3 277 268.7 260.5 251.3 243 236 230.4 224.8 220.6 215.5 210.7 206.5 200.8 193.2 187.8 180.3 175.2 170.3 163.6 158.3 153.2 149.1 146.9 145.7 147.4 155.3 160.6 163.4 165.2
19.4 19.5 21 22.2 23.5 24.4 26.5 28 29.4 30.7 32.2 34.1 35.5 36.9 38.2 39.8 40.9 41.4 42 42.2 41.5 47.2 55.8 60.8 64.7 68.4 72.4 76.3 79 81.8 83.1 84.5 85.6 86.4 89.2 92.2 95.9 99.5 101.5 103.6 104.9 105.9 108 111.4 114.2 114.7 115.1 115.5 116.1 118.5 123 128.7 128.1 129.3 137 140.8 143.2 145.5 148.9 153.6 158.3 163.9 168 172.6 178.9 183.6 188.1 195 201.3 205.1 207.7 211.2 214 216.1 217.4 218.8 221.2 223.8 227.7 231.4 233.6 237.2 241.9 245.5 248.8 252 254.4 258.2 264.9 271.2 278.4 285.2 291.4 297.4 304.5 315.6 330.3 345.9 360.5 378.9 399.4 416.3 439.5 465.3 482 489.4 487 480.8 475.9 472.3 470.9 468.8 464.9 460.6 454.8 447.2 439.9 432.7 425.5 418.9 411 403.8 396.8 388.7 380.8 371 361.2 353.4 347.5 342.5 338.9 335 331.6 328.7 326.6 324.5 325 326.1 327.4 329.5 333 338.7 346.5 353.5 362.8 368.1 367 367.7 370.5 363.9 363.2 366.7 359.9 361.3 360.6 359.1 355.5 352.4 348.7 345.8 342.4 339 335.8 329.2 324 319.5 314.4 305.4 297.7 291 283.5 275.2 266.6 258 249.9 243 237.4 231.8 226.1 220.2 215 209.5 205.2 198.3 191.3 186.2 179.5 174.4 167.3 162.6 159 154.6 151.3 148.4 146.1 135.1 150.7 148.6 151 142.8
18.5 15.5 17 19.3 21 22.5 24.9 26.9 28.6 30.2 31.8 33.3 34.8 37 39.2 39.3 39.8 40.6 41.3 42.6 43.8 48.6 56.9 60.8 65.5 70.4 75.3 80.3 82.9 84 85 86.7 88.1 89 90.9 93.9 99.1 102.7 104.8 106.5 108.4 109.4 111.3 113.9 116.2 116.7 117 118.4 119.1 124 129.4 132.3 135 134.1 133 140.3 142.5 147.5 153 158.4 164.6 168.4 171.8 175.2 180.8 187.1 192.8 198.3 203.3 204.4 206.1 209 211 212.8 213.8 214.5 217.4 220.3 223.9 227.6 229.3 232.5 236.7 240.2 243.4 245.8 248.4 257.8 264.1 269 277.4 284.2 290.7 297.3 308.5 321.4 335 349.7 364.5 381.9 401.2 426.6 446 468.1 478 487.3 488 481.4 477.4 473.3 470.6 468.6 468 461.5 455.5 447.2 439.5 432.4 425.1 417.3 409.5 401.6 393.9 386 377.5 367 357.2 348.2 341 338.6 334.6 330.7 327.7 325.3 323.7 321.5 321.5 322.2 323.2 323.9 326.5 330.1 335.3 339.1 344.3 349.9 347.9 341.4 338.7 336.9 340.4 339.9 335.8 335 338.3 338.8 337.9 338.7 334 332 330.2 326.8 324.7 322.7 319.6 313.6 307.7 301.6 294.9 288.5 281.3 273.8 266 257 249.6 243.8 238.4 233.1 227.8 222.4 217.1 211.3 205.5 198.8 192.5 187.2 180.7 173.8 167.8 163.4 159.6 155.8 151.6 149.1 143.7 136 133.9 130.3 128.6 125.3
12.4 10.7 12.5 14.7 14.2 16.8 22 24.3 26.4 28.4 29.8 31.7 34.3 36.8 38.6 39.9 40.3 40.5 40.8 43 44.7 48.9 54.7 60.4 65.7 71.5 77.5 81.2 83.7 85.5 86.9 88.4 90 91 92.6 95.8 99.7 102.8 104.7 106.7 109.8 111.5 113.1 115.8 117.4 118.5 119.9 121.3 123.9 126.4 132.1 135 137.8 139.8 140 140.1 140.5 148 157.1 162.3 168 170.5 173.2 178.3 185.1 191.9 197.7 201.5 202.3 203.2 205.2 205.5 206.2 208.4 210.8 214.7 216.1 218.7 221 222.7 227.2 229.9 233.4 236.8 240.1 244 250 259.6 265.5 270.7 278.6 285.8 290.9 300.7 314.1 326.9 340.1 354.6 368.1 384.3 404.9 432.1 450.6 466.4 476.9 481.6 488.3 480.3 477.8 474.6 471.3 468 465 461.2 456.9 447.2 438.8 431.8 424.4 416.4 408.3 400.6 392.9 384.6 374 363.1 353.4 343.8 337.2 332.1 329.7 327 324.4 322.2 320.5 318.1 318.1 318.5 319.1 319.6 319.6 322.4 325.2 327.9 328.1 330.1 330.8 325.3 321.3 322.7 322.2 320.3 321 320.4 321.5 321.2 320.4 320.2 318.6 317 317.6 318.8 318.9 317.1 312.9 308.6 303.5 298.5 292.7 286.5 280.3 273.4 265.5 257.2 250.7 245.8 240.6 235.1 229.6 224.1 217.9 211.4 204.4 198.4 192.1 185.6 179.7 174.3 169.6 164.9 160.9 156.8 151.5 146.4 140.1 131.9 123.9 115.3 112.5 115.1
10.1 12.1 12.8 14.7 15.6 16.8 17.8 23.9 26.7 29.3 30.6 32.8 34.5 36 37.8 39.3 39.5 38.5 38 41.4 45.6 52.9 58.1 63.6 68 73 77.1 81.3 83.7 85.1 87.1 89.3 91.3 92.8 94.3 96.6 99.6 102.6 105.6 109 111.2 112.9 114.6 117.1 119.2 121 122.3 124.6 128.1 131.2 132.7 136.6 139.2 141.3 143.7 145.5 149.9 151.4 150 155.4 167 171.7 176 183 189.9 195.8 199.1 197.8 199.1 198.3 205.3 206.4 209.9 211.5 214.3 216.7 219.4 222.2 223.8 226.4 232.4 234.6 237.5 238.8 246.3 252 256.4 264.3 270.5 274.8 281.6 286.8 294.1 306.9 319.7 330.7 344.7 359.4 377 391.9 407.9 432.2 449.9 464.1 473.5 479.7 480.6 479.2 476.8 475.2 472.4 468.6 465.2 460.6 454.8 446.8 437.9 430.8 423.6 415.7 407.8 400.1 391.5 382.2 370.8 359.8 349.8 340.6 334.3 329.7 325.5 323.7 321.3 319.7 318.4 316.4 315.3 315.6 315.7 314.8 314.1 315.1 316.2 318.4 318.9 320.8 316.6 310.2 306.5 308.1 309 307.4 307.3 307.4 306.6 306.7 305.5 303.9 305.6 307 308.6 311.1 310.9 309.8 307.9 305 301.7 297.6 291.5 285.5 279.5 273.9 267 259.9 254.4 249.3 243.1 237.6 232 226.5 220 213.4 205.3 198.7 192.4 186.2 181.3 176 171 166.9 162.4 158.1 152.9 148.1 142.5 138.9 136.7 126.7 110.9 109
12.5 15.1 18.7 19.8 20 21 17.6 21.6 25.9 28.7 30.5 32.5 34.5 36.2 37.1 38.1 35.2 36.5 40.8 43.9 48.1 57.3 62.6 65.7 70.6 75.5 79.8 82.1 84.1 86.3 88 89.9 91.8 95 97.2 99 100.9 103.7 106.5 110.2 112.4 114.1 115.7 117.7 120.1 121.9 123.1 128.3 131.5 134.5 135.4 137.9 141 143.8 147.2 150.4 152.6 155.9 162.5 161.9 158 165.2 173.7 180.2 188.2 188 190.7 196.2 201.4 206.5 208.6 209.8 211.1 213.1 215.4 218.2 221 224.1 227.6 232 236.6 239.5 241.6 243.8 245.5 255.3 260.9 267.3 273 278 284.7 292.2 300.5 312.9 326.2 338.9 355.9 371.8 387.6 399.8 412.6 430.5 449.5 461.8 472.9 476.9 478.4 478.4 475.7 475.2 473.3 470.1 466.8 460.7 453.1 445.1 437.3 430.7 423.8 415.2 407.3 399.2 389.4 378.6 367.2 356.6 347 338.2 331.9 327.1 324.1 320.5 318 317.3 316.3 314.8 313.3 313.1 313.4 313 310.9 310.6 311.4 312.4 311.5 308 302.6 298.1 298 299.1 298.7 297.7 296.9 297 296.5 294.1 292.4 294.3 296.9 298.2 300 304 305.2 302.9 301.7 300.9 299.7 297.3 292.4 287.1 281 275.1 268.6 262.8 258.4 253.5 246.3 241.3 235.7 229.2 221.5 213.9 206.2 199.9 193.3 187.4 182.1 177.6 173.1 169.2 164.3 159.2 152.8 145.3 140.1 137.3 137.5 124.6 103.2 105.2
15.8 17.3 20.2 22.9 23.9 24.2 22.6 18.9 20.9 26.1 28.8 31.5 33.9 35.4 35.2 34.3 37 39.6 44.1 48.7 53.3 60.7 65.6 68 72.8 77.4 80.9 83.1 85 87.1 89 91 93.1 97.1 99 100.9 102.6 105.1 108.4 111.4 113.7 115.3 117.1 118.6 121 122.8 126.4 130.5 133.2 135.1 137.1 140.4 143.4 146.6 150.7 154 157.3 161.3 163 168.1 172.2 174.3 174.5 179.8 185.5 192 196.6 201.6 204.7 207.6 209.1 210.4 212.1 214.3 216.5 219.7 223.2 225.6 229.5 233.1 236.6 241 243.6 246.9 250.7 254.1 262.3 269.5 275.2 281 287.2 296.5 306.7 319.9 333.8 348.1 361.3 377 392.2 402.9 417.3 432.9 447 458.9 468.4 474.8 476.9 476.2 475.2 477 475.7 470.9 466.9 459.9 451.7 444 436.9 430.3 423.7 415 406.9 397.5 386.8 376.6 366.1 357.5 348.4 337.2 329.3 325.3 322.6 319 316 315 315 313.9 313 311.6 311.8 311.8 309.9 309.2 308.3 306.7 303.6 299.7 295.7 293.2 294.2 294.6 293.2 291.1 289.6 289.6 288.6 286.6 285.8 286.2 287.6 290.2 293.3 295.3 295.9 297.7 297.4 297.8 298.7 297.7 294 289.6 283.4 277.1 271.4 266 261.4 256.8 251.9 246.2 240.1 232.3 223.4 215.8 208.5 201.8 195.4 189.2 183.1 179 175.3 172.2 167 160.2 152.8 144.8 136.8 132.2 125.9 120.2 103.4 92.6
19.1 19.9 21.6 24 25.5 26 26 25.1 22.3 21 28.2 30.8 32.2 32.1 32.7 34.3 38.1 42.8 48.7 55.2 59.7 65.4 70.6 72.4 73.8 77.9 81.3 83.5 85.7 87.8 89.8 92.5 95.8 98.7 100.7 102.9 104.4 106.6 110.2 111.9 115.4 116.3 118.1 120 121.7 124.8 128.2 131 133.3 135.6 139.9 143.5 146.9 149.8 153.9 157.6 161.1 163.5 166.6 169.2 172.9 176.5 181.3 185.3 189.7 194.4 199.3 203.8 206.9 208.1 209.5 211.1 212.8 215.2 217.9 220.9 223.6 226.9 230.4 234 238 242.6 246.3 249.2 255.9 259.8 264 273.2 279.4 283.8 293.1 303.2 318.6 330.3 344.3 356.9 365.4 381.3 395.9 409 422.1 436.5 445.6 457 467.7 473.2 475.1 476 476.8 479.6 476.3 471 465.7 459.2 451.6 443.4 436.1 429.2 422.2 413.5 405 396.5 386.5 376.3 365.5 355.8 346.8 337 327.6 322.9 320 316.9 314.9 313.5 313.5 313.4 312.4 310.6 310.6 311.1 310.5 309.1 304.5 301 297.5 294.6 291 288.9 291.2 291.9 290 287.6 285.4 284.3 282.9 281.8 279.8 278.9 279.6 282.9 285.7 285.3 288.3 289.9 293.4 296.1 298 298.7 297 292.8 287.8 282.4 276.5 270.6 265.4 262.1 258 252.2 243.8 235.2 226.5 218.3 211.2 204.8 198.5 192.2 186.3 181.9 177.4 173.6 169.5 162.1 153.8 144.6 135.4 127.9 122.8 126.1 117.3 87.6
22.1 23 23.1 25.2 26.9 27.7 28.2 28.3 27.5 22.9 25.7 28.9 28.5 30.7 32.5 36 42.6 48.6 54.4 59.3 65.8 68.1 71.5 75 76.7 79 80.5 84 83.6 85.7 90.5 93.6 98.9 101.5 102.8 104.8 106.9 109.8 113.6 113.7 115.7 117.4 120 121.5 123.3 127.2 129.6 132.1 135.1 138.8 143.1 147.2 150.7 153.3 155.8 160.1 162.9 165.1 168.2 170.7 174.1 178.1 182.4 186.7 191.6 197 201.5 204.8 206.8 208.5 210.1 212 213.8 215.7 217.7 221 225.3 228.4 232.6 236.3 241.8 247.5 252 254.2 263.6 271.2 273.9 277.3 283.7 292.2 303.8 315.3 328.3 340.1 349.9 360.4 368.4 383.5 400.7 415.8 429.2 438.7 449.7 460.4 467.8 472.5 477.4 478.5 479.3 482.4 476.9 471.5 465 458.9 452.3 444.3 437.3 430.1 421.6 412.5 404.8 395.9 387 375.1 363.5 354.4 347 337 327.2 321.1 318.4 315.8 314 312.3 311.9 311.6 311.3 309 310.1 311 310.6 307 302.2 297.3 293.8 291.6 288.8 289.3 284.9 286.6 286.1 283.8 281.2 278.2 277 275.7 273.2 272.2 272.4 273.4 274.9 277.8 279.7 284.1 290.6 295.3 298.8 301 299.7 297.3 293.2 287.7 282.2 277 272.2 267.7 262.8 255.7 248.3 239.2 230.3 222 215.1 208.7 201.8 195.4 189 184.9 179.1 176.1 172.7 164.7 156.1 145.5 133.5 125.9 125.1 129.4 120.4 101.9
23 23.9 24.1 25.9 27.7 29.5 30.2 30.5 30 27.8 25 23 28.1 30.2 34.3 41.2 48.9 55.8 59.9 66.5 70.5 73.7 75 76.7 78.7 80.9 83.8 86.2 88.1 90.1 93.1 97.7 101.9 106.7 107.5 108.2 110.8 113.8 115.7 118.2 120.3 119.4 120.5 123.8 126.1 129.6 131.1 133.6 138.9 144.5 148.2 150.5 153.2 155.9 158.6 161 163.8 166.3 168.6 171.5 174.4 178.9 184.1 188.9 193.9 198.9 202.4 204.1 205.7 207.8 210.2 212.6 214.8 216.9 219.1 221.7 227.6 232.5 236.9 241.1 244.1 250.2 255.7 261.8 269.9 276 280.8 283 291.2 301.2 313.8 326.1 337.7 350.4 358.8 367.9 374.7 389 408.5 420 429.7 444.9 456.7 462.8 466.2 472.4 479.2 481.8 482.1 480.9 477 471.9 464.9 459.1 452.7 445.4 438.6 430.6 421.2 411.9 404.7 397.4 389 380.3 370.3 358.4 347 338.7 330.5 324.6 320.2 316.2 313.2 311.7 310.6 309.3 308.7 310 310 310.1 306.5 304.1 299.6 301 302.2 301.1 298.3 295.2 285 278.8 278.1 277.1 274.4 271.8 270.3 268.8 266.5 265.6 265.9 266.7 267.6 269.8 274.4 282.5 289.3 295.2 300.6 303.3 304.4 303.2 299.2 294.3 289.2 283.8 277.3 273.2 267.8 261.3 253 243.9 234 224.6 217.7 212.5 206 199 192 186.6 182.7 179.6 175 168.7 160.8 148.1 131.2 120 125.1 126.9 120 101.6
22.4 23.1 23.2 25.4 27.6 29.5 31.5 32.7 33 31.7 29.2 25.4 28.8 30.9 38.3 47.3 55.6 60.4 65.8 71 74.8 75.9 77.1 78.6 80.7 82.8 85.4 87.7 90.1 92.4 96.5 99.9 104.7 109.1 110 111.4 113.8 115.8 117.9 120.2 122 122.7 123.2 123.9 127 129.1 131.7 135.1 140.6 144.7 148.4 151.6 154.4 156.9 159.1 161.8 164.2 166.4 168.9 171.7 174.6 179.9 184.7 190.2 196.1 199.6 201.7 203.1 204.9 207.5 210.2 212.8 215.3 218.1 220.8 224.3 230.1 235.2 239.2 244.6 247.4 253 260.1 268.4 274.1 279.4 283.8 289.8 292.3 308.4 322.8 335.6 347.8 360.7 367.5 373.6 380.6 392 404.8 421.2 436.8 449 458.1 463.4 466.6 473.2 478.9 483.5 484 481.6 477.7 471.8 465.4 458.7 452.9 446.6 439.9 432 423.2 415.2 408.1 400.3 393 385.3 375.3 364.8 354.5 345.5 337.3 329.1 322 317 313.4 312 310.3 309.1 307.7 307.8 306.7 306.9 310.2 309.8 310.2 310.5 310.7 308.7 306.2 301.4 295.4 287.4 280.3 270.3 265.4 263.1 262.9 260.8 260.1 259 259.8 260.6 261 264.4 271.3 279.9 287.8 296 303.4 309.3 311.2 310.3 306.1 302.1 296.7 291.1 285.4 278.7 272.4 266.1 257.5 247.5 236.5 226.6 220.9 215.1 208.5 200.4 193.8 189.6 185.3 180.7 176.6 173.2 167.2 151.3 130.1 114.6 111.9 118.6 117.1 101.3
20.9 21.3 22.2 24.7 27.3 29.4 31.5 33.5 34.9 34.8 32.9 26.8 29.9 35 42.1 54.4 61.4 65.9 70.2 74.3 76.4 77.8 79 80.5 82.6 85.1 87.4 89.4 92.1 94.8 97.6 103.1 107.7 109.8 111.2 113.3 115.4 117.6 119.8 123 123.6 123.3 125 127.7 131 133.1 136.2 137.2 141.6 145.5 150.1 152.9 155.7 158.1 160 161.9 164.4 166.6 169.3 172 175.6 181.8 187.3 192.9 196.6 198.4 200.6 202.2 204.4 206.8 209.6 212.6 215.8 218.8 222.5 226.6 231.1 235.8 241.9 248.2 252 257.6 264.3 271.3 279.1 284.6 289.4 298.3 309.8 307 328 342.7 355.7 365.8 374.4 378.7 384.3 393.9 409.5 425.2 441.6 455.8 459.7 462.1 467.1 472.3 478.2 482.7 485.8 483.9 480.2 474.1 467.3 460 453.4 448.2 442.3 435.2 427.4 420.1 412.9 405.5 398.2 390.7 382.9 372.8 363 353.2 343.9 334.1 325.9 319.6 315.5 312.9 311.4 311.4 311 310.3 311.6 314.4 316.3 316.9 317 316.8 316.3 315 313.1 309.1 303.3 296.7 289.7 281.6 272.3 264.2 255 254 255.4 254.4 255.2 255.7 255.7 259.1 267.6 275.5 286.3 296.2 305.6 312.7 317.4 317.6 314.2 309.6 303.4 298.6 293.6 288.8 281.8 272.5 260.9 250.4 237.5 227.3 224.5 216.8 209.5 201.6 195.6 193.1 189.2 185 180.8 178.8 170.3 150 129.4 110 100.5 100.6 105.7 93.5
17.7 19.5 21.6 24.1 26.8 29.3 31.6 33.7 35.3 35.8 34.2 30.4 33.1 38.7 46.1 55.6 62.6 68.8 73.1 75.5 77.2 78.9 80.9 82.5 84.7 87.4 89.9 91.2 93.2 96.3 100.2 105.8 109.3 110.5 112.3 114.8 117.3 119.5 123.4 125.1 126 124 126.8 130.9 134.4 137.1 139.5 141.6 143.3 147 152 154.4 155.4 157.2 160 162.4 165 167.9 170.9 174 180.5 185.8 191 194.2 196.4 198.1 199.8 201.7 204 206.2 209.1 212.1 215.7 219.3 223.3 227.5 232 237.4 245.8 250.7 255.8 262.6 271 279.2 287.4 294.3 299.2 308.1 319.9 329 338.8 342.2 357.2 369.5 379.1 384.1 387.6 395.8 410.3 431.8 448.3 455.9 458.4 462.7 467.3 472.9 479.1 485.9 489.3 485.9 481.5 476.8 470.4 462.8 456.5 451.1 444.9 437.9 431.8 425.5 418.9 411.8 405.3 398.3 390.6 381.7 372.2 361.8 351.5 341 332.9 325.9 319.7 315 313.1 313.8 313.9 314.9 316.9 320 321.6 321.7 321.2 320.4 319.5 318.5 316.6 312.7 308.2 302.5 295.5 288.6 279.3 269.9 259 249 248.9 249.4 249.3 248.1 249 255.3 262.7 272.1 283.7 295.7 303.3 313.2 323.5 323.9 322 317 313.9 308.8 304.2 297.3 290.2 282.3 266.7 249.6 236.4 226.6 225.2 216.7 212.6 199.5 193.3 190.8 188.7 182.1 173.8 164.8 159.4 142 125.3 107 93.1 84.7 83.5 76
18.3 20.7 22.9 25.8 28.1 29.9 32 34.2 35.6 35.9 30.4 34.2 37 41 50 57.4 64.1 71.3 74.1 76.2 78 80.2 82.1 84.7 87.2 89.5 90.4 92.5 95.4 98.1 103.5 107.3 109.5 111.2 114.1 116.5 119.1 122.8 124.8 126.9 127.6 124.5 130.8 134.3 137.1 140.1 142.2 144.6 146.3 147.8 151.3 154 156.2 159.3 162.6 165.8 169 172.1 175.4 179.4 184.5 189.2 192.7 194.5 196.2 197.9 199.5 201.1 203 205.4 208.1 211.3 215.2 218.8 223.6 229 234.2 240.5 247.5 254.7 262.4 270 278.9 286.4 295.1 299.8 307 319.7 326.2 341.8 353.4 358.9 362.5 367.7 379 385.4 390.3 397.7 411.7 430.9 446 452 456.1 463 468.1 471.6 480.8 488.7 488.2 487.3 483.4 478.7 473.1 465.2 459 453.9 447.9 442.1 435.8 430 424.9 418.2 412.8 405.8 398 389.1 380 370.2 359.6 348.9 338.5 330.9 324.3 318.9 316.2 316.7 317.9 319.6 321.8 323.4 324.9 324.5 323.9 323.5 322.7 322 319.2 315.4 311 306.2 300.5 294.6 285.4 276.4 263.7 254.9 243.6 244 244.3 243.2 244.4 252.7 261 268.7 277.4 286.5 298.6 314.4 328.7 329.6 330.1 328.5 325.2 320 314.7 308.4 302.2 291.7 269.8 248 233.9 224 219.8 210.5 205.4 197.8 190.8 185.4 178.1 169.9 163.3 155.2 145.9 133.8 120.8 102.8 87.5 76.8 71.1 66.6
17.3 19.5 22.7 26 28.6 30.8 32.8 34.7 35.7 35.5 30.9 36.4 39.4 43.3 51.5 59.3 67.4 72.4 74 76.2 78.3 80.2 81.4 84.5 88.3 91.6 93.8 95.5 97.1 99.7 104.3 107.4 109.9 112 115.8 118.4 121.4 124.4 126.3 128.8 126.7 125.6 133.9 137.1 140 142.2 144.4 146.7 148.9 150.8 152.9 155.2 158.7 163.7 168.7 172.1 175.2 177.9 180.6 183.9 187.8 190.7 192.4 193.5 195.1 196.6 198.2 199.8 201.5 204.5 207.2 210.1 213.9 218 222.9 229 238.1 245.3 252.1 261 269.5 278.9 286.1 294.3 301.5 307.8 315.5 326.4 339.1 348.4 361.2 368.2 373.1 375.5 380.4 386.5 391.9 399.8 411.9 427.2 439.4 447.5 454.8 460.5 464.4 469.7 477.7 483.2 485.3 486.5 484.8 480.3 476.1 469.1 463 458.7 454.6 448.6 442.4 438.1 433.7 428.1 422.7 414.7 406.8 397.6 388 378.5 366.8 355.6 344.5 336 328.9 323.3 319.9 320.6 322.3 324.2 325.8 327 327.8 327.4 326.8 326.2 325.3 323.1 320.4 316.7 313 308.2 303.6 299 293.3 283.9 271.7 259.4 249.3 238.8 239.2 241.3 243.9 251.6 260.4 266.6 271.1 280.5 295 313.9 330.8 335.7 338.3 339.7 335.7 332.1 325.8 319.3 309.6 298.6 264.2 244.5 230.3 219.9 212.4 207.3 203.2 192.9 189.7 185.1 173 160.4 159 156.2 147.1 133.1 116.1 95.4 80 70.8 67.2 64.7
20.5 21.6 25.3 27.8 29 31.3 33 34.1 35.5 35.3 34.5 37.8 40.3 45.3 52.6 60.7 68.7 70.7 71.7 73.5 75.9 79.7 84.2 87.5 91.3 94.1 95.9 97.9 100.4 101.6 104.2 107.4 110.6 114.1 117.8 120.6 123.4 125.1 127.4 129.3 127 129.3 136.1 139.8 141.6 143.8 146.8 149.1 151.2 154.2 155.6 159.8 165.6 170.2 173.9 177 179.4 181.1 184 186.7 189.2 191.3 191.7 192.7 193.9 195.4 197 198.7 200.8 203.3 205.5 208.8 213.1 217.9 223.9 235 247 253.3 258.9 264.6 275.7 284.2 294.7 306.1 312.7 321.9 333 343.5 353 362 370.3 377.1 381.7 383.7 385.5 388.3 393.1 401 412.7 420.9 430 437.6 446.2 452.6 460.1 466.9 471.7 476.2 481.3 482.6 482.7 482 478.2 473.2 469 465.8 462.6 457.5 451.7 447.4 442.5 439.4 432 426.3 418.9 409.3 399.2 386.7 375.1 363.4 352 342.1 334.3 328 326.5 326.7 327.6 328.8 329.8 331 330.9 330.4 329.7 328.3 326.5 323.7 320.8 317.2 313.8 309.7 305.7 302.8 298.6 292.3 280.3 267 254.7 244 237.6 237.8 242 249 254.7 260.3 267.9 278.8 294.5 310 326 335.9 347.9 351 347.7 343.6 337.3 327.9 314.9 290.2 258 240.2 225.4 214.1 210 209.1 205.1 191.6 175.4 173.3 152.6 150.8 158.1 160.6 148.4 130.6 97.5 82.7 74.7 67.5 65.8 62
23.2 23.3 25.6 27.4 32.2 33 33.6 35 37.4 35.8 36 38.7 41.9 46.2 52.3 60 66.1 66.8 70.4 74.1 77.3 81.2 86.4 90.9 93.4 95.9 98.9 99.6 102.2 103.2 105.7 108.6 111.7 116.4 119.3 122.4 124.1 125.8 128 128 127.5 132.3 137.4 141.5 142.8 145.6 149.1 151.7 153.5 156.5 160.9 165.9 170.5 174.5 177.9 180.3 182.1 183.5 184.9 187 189.6 190.5 191.1 191.9 192.7 194.6 196.4 198.3 200.3 201.8 204 208.3 213.4 221.2 232 244.6 251.2 257.5 266.7 271.4 279.5 293.8 303.9 312.9 322.5 335.3 347.2 360 366.4 374.3 381.6 386.1 389.7 391.2 392.4 393.9 394.2 401.2 409.2 418.3 425.2 430.9 437.7 446.7 456.8 463.7 468 473.7 477.6 479 479.9 480.3 479.1 477.4 477.2 474.8 471.4 467.3 461.8 457.8 455 448.9 444.3 439.4 431.4 419.8 408.8 395.8 383 369.9 358.3 347.2 339.7 333.9 333.4 332.7 333.3 333.7 334.3 334.8 334.6 333.6 332 330 327.9 324.6 321.2 317.9 314.5 310.9 307.8 305.6 303.2 298.9 290 275.5 261.8 248.6 239.8 232.8 239.4 246.3 251.6 258.4 267.8 280.2 293.9 308.8 321.5 339.8 351 354.5 358.4 355.2 347.5 331 306.7 281.5 250.6 233.1 220.2 207.4 210.9 209.2 198.2 179.7 158.4 153.2 143.6 137.6 138.8 139.1 123.7 103.4 84.7 71.4 65.4 64.6 63.1 59.4
24.8 26.8 27.6 28.7 29.9 33.2 35.1 36.9 38.7 36.8 36.3 39.6 42.8 45.3 51.6 59 63 66.7 70.2 73.1 77.5 84 90 92.6 95.1 97.5 98.7 100.1 102.4 105 107.3 110.1 114 118.9 121.3 123.2 124.7 126.5 127.3 124.8 127 134.7 139 142.4 143.1 146.8 150.3 152.8 155.4 158.6 164.5 169.5 174 177.3 179.8 182.1 183.6 184.2 185.7 187.1 188.4 189.5 190.6 191.3 193 194.7 196.5 197.9 199.7 202 205.6 210.2 218.8 229.4 239.1 248.5 253.3 262.5 273.8 282.2 288.1 300.3 313 321.9 334.1 346.3 358.8 371.1 377.6 383.9 391.4 394.9 396.5 397.4 397.3 398.5 399 400 406.1 415.4 421.5 427.2 432.6 443.2 451.6 459 463.6 467.4 470.6 473.9 477.2 478.8 479.9 483.1 485.3 483.1 480.7 476.9 472.1 467.9 464.6 461 457.3 450.4 441.4 429 416.7 402 387.6 374.2 361.2 348.9 343.1 342 340.6 339.8 339.8 339.6 339.8 340 338.5 336 333.8 331.6 328.9 325.5 322.8 319.9 316.9 313.8 311.4 309.6 307 303.7 297.7 285.9 271.3 257.1 243.9 234.8 234.9 242.3 248.5 257.9 267.6 279.5 293.3 304.1 311.9 329.4 344.9 359.6 365 364.3 346.9 318 294.9 267.3 242.4 228.5 211.7 200 209.2 193.2 174.6 161.3 136.6 123.7 114.1 103.3 97.6 93.8 93.3 83.7 73.3 64.6 63.5 64.3 64 53.5
26 27.6 28.7 29.8 30.7 33.7 36.5 38.4 40.3 39 36.7 39.1 41.8 47.3 52 57.6 61.2 64.1 68.9 72.8 78.4 85.6 89.1 93.6 95.7 97.6 99.3 102.6 106.6 108.5 110 112 116.8 121.8 123.8 124.5 125.1 126 124.3 123.7 130.6 137.1 140.7 142 143.8 147.8 151 153.5 156.4 162.2 167.6 171.7 176.2 178.7 180.8 182.7 183.6 184 184.5 185.9 187.3 188.4 189.5 190.9 192.6 194.4 197.2 198.9 200.7 203.7 207.6 215.8 225.7 233.7 242.2 246.8 257.7 269.5 282.3 294.4 303.2 301.5 319.3 328.6 340.5 357 369.3 378.8 385.8 393.1 398.8 401.2 403.4 403.7 403.9 402.2 403.1 405.3 407.9 412.7 418.7 423.9 431.1 440.2 446.6 452.8 457.2 461.5 467.3 471.5 478.3 482.3 485.6 489.4 490.4 490.3 489.3 486.9 482.8 478.8 476.4 472.2 469.5 462.5 452.8 436.9 423.9 406.9 390.6 377.5 365 355.9 351.4 349.6 349.1 348.3 347.1 346.1 345.8 343.6 341.1 338.3 335.1 332.1 329.6 327.2 324.5 322.1 319.8 317.8 315.4 313.7 313.7 311.9 305.3 294.5 280.2 265.9 250.7 235.9 231.1 236.5 244 252.3 263.3 272.3 280.7 285.5 300.3 319.5 331 343 353.5 345 331.6 303 272 248.4 233.6 225.5 202.8 186.8 185.6 157.2 145.8 142.1 115.3 96.6 86.4 76.9 72.2 76.4 76.1 71.2 64.8 62.1 61.3 63.3 57.9 57.2
26.7 28.4 29.8 31 32.9 35.5 38.1 40.1 41.5 40.5 38 42.9 44.3 46.2 50.9 55.2 58 62.1 68.3 72.8 79.2 84.9 90.7 94.1 96.4 97.9 102.8 108.4 110.8 111.2 111.5 114.4 118.7 122.6 125.2 125.5 124.9 125.1 122.6 124.7 133.2 137.3 139.7 142.1 144.3 148.6 151.5 154.2 159 165.6 170.2 174.2 177.2 179.5 181.1 182 182.2 182.2 183.2 184.7 186.1 187.5 188.9 190.7 192.4 195.3 198.6 200.4 202.7 205.9 211.7 220.6 228.3 234.4 242 251.2 263 276.9 292.6 307.6 317.4 321.6 317.1 337.7 355.2 367.9 379.4 388 394.5 402.6 408.6 409.1 412.6 411 409.3 408.7 408.3 408.5 413.6 416.9 417.5 423.7 429.3 436 441.9 449.3 455.4 461.7 467 472.4 481 487.5 489.9 491.1 494.5 497.5 498.9 496.9 494 492 488.3 484.3 480.1 474.6 462.7 445.1 428.8 412.3 395.2 382 372.1 364.9 361.2 359.9 358.3 356.7 354.8 352.4 350.1 347.1 343.9 340.4 336.8 333.3 330.3 328 326 324.4 323.4 321.7 319.8 322.4 322.1 319.8 314.8 301.9 288.3 275.3 258.3 240.7 228.9 231.4 238.7 245.7 252.7 255.7 259.3 267.9 281.2 294.3 307.1 314.7 324.1 327.9 311.9 280.7 256.9 228.8 216.1 206 181.6 159.3 141.7 122.6 125.9 117.7 94 80.8 69.4 64.6 60.6 62.3 63.9 64.9 62.2 61.2 60 56.8 53.5 62
27.5 29 30.5 32.4 34.8 37.3 39.3 41 42.2 41.5 39.4 43.8 46.4 49.8 52.2 53.9 56.9 61.6 68.6 73.7 79.8 85.7 93.1 94.3 96.6 99.2 106.5 110.1 112.3 112.9 112.8 116.7 121.7 125.8 128.1 126.5 125 123.6 123.1 128.2 133.8 136.8 138.9 141.3 144.8 148.4 151.6 156 162.1 167.7 171.9 175 178 179 179.6 179.7 179.7 180.4 181.9 183.5 185.5 187.1 188.3 190.4 193 196.3 199.2 202.1 204.9 207.7 214.6 223.2 228.8 233.5 246 256.9 267.7 287.4 307.1 320.5 330.4 337.4 342.8 347.5 364.9 377.9 389.7 398.8 404.8 413.4 418.7 422.5 424.2 421.3 418.1 416.1 416.1 416.3 419 422.5 424.5 426.8 430.1 436.8 443 450.6 457.2 463.6 469.2 474.4 483.3 488.4 491.7 498.4 505 508.8 510.2 508.3 507.6 507.7 508.7 503.4 494.8 485.1 472.1 452.8 436.2 419.4 401.3 388.3 380.7 374 371.8 369.8 368.2 365.5 362.9 357.9 353.7 349.8 346 342.5 338.8 334.7 330.6 328.4 326.6 325.6 325.5 324.9 326.4 327.8 327.8 325.5 319.5 307.2 292.7 279.9 262.2 247.4 235.3 226.1 231.3 236 240.6 245.1 250.5 256.7 265.3 276.6 291.4 302.7 310.2 311.5 290.8 264.8 238 204.4 190.2 174.9 149.4 128.1 110.8 94.4 89.3 81.9 72.1 65.2 61.5 58.8 56.4 57 58.3 59.1 60 62.5 60.6 53.4 58 68.3
