ncols 200
nrows 94
xllcorner 320000
yllcorner 485100
cellsize 50
91 104.8 119.1 124.6 131.4 133.2 133.2 143.6 144.2 146 146.8 146.4 155.1 175.2 190.4 185.5 178.8 164.6 147 118.6 85.5 55.6 34.4 17.7 12.1 12.3 11.1 11.1 14.2 15.3 19 24.3 30.5 40.3 47.2 59.4 69.2 80.5 90.4 99.2 103.7 104.8 105.2 104.7 109.2 118 124 135.7 143.6 149 147.2 144.3 136.6 119.2 103.6 99.5 97.4 97.6 98.6 98 100.6 92.8 72.3 73 69.9 70.5 71.9 72.9 72.9 64.8 62.9 58.4 43.5 33.2 25.9 16.9 10.8 10.3 10.5 10.7 10.9 11 11.3 10.4 10.3 10.9 10.5 12.9 14.4 16.1 18.2 20.6 24.5 27.9 27.3 23 17.8 17 21.5 28.7 35.7 40 42.9 45.6 48.7 54.2 61.3 67.3 66.4 62.4 62.1 64.6 64.6 62.6 62.8 65.3 67.5 71.2 74.2 74.9 72.1 81.4 81.6 80.7 87 92.9 96.5 105.7 112.5 124.2 150 161.4 175.7 179.2 195.7 202.2 205.7 208.5 207.6 205.4 206.9 208.8 209.1 207.3 202.9 190.7 186.8 173.4 167.7 168.6 168.1 162.3 156.6 148.8 142.2 136 136.3 146.1 150.1 162.9 164.1 164.9 159.5 149.9 140.1 128.7 124.7 117.7 112.3 105.1 97.9 91.7 89.1 78.8 69.5 60.8 57.2 49 45.1 44.4 46.5 43.2 43.2 43.2 43.9 46.4 49.9 53.3 59.7 87.2 106.2 121.3 125.6 121.8 152.9 195.4 211.7 206.9 208.1 206.8
87 114.7 125.3 135.7 143 146.7 139.1 137.9 141 149.2 154.8 152.2 156.7 164.9 172.2 176.5 160.3 141.3 118.2 92.1 68 40.6 26.9 13.4 10.4 10.7 10.8 10.8 10.8 11.6 14.6 20.7 32.2 40 48.8 60.3 72.7 86.2 97.2 104.8 107.1 107.9 106.1 104.8 109.8 118.9 129.7 140.7 146.4 148.1 147.9 140.6 123.7 110 103.5 96.9 92.6 93.1 90.5 94.5 93.2 82.5 63.7 65.8 69 69.6 69.6 70.1 65.5 57.5 59.6 48.4 37 21.8 13.7 10.7 9.5 9.8 9.8 10 10.1 10 9.8 9.5 9.3 9.6 11 14.5 17.1 18.3 21.6 26.1 27.9 27.5 27.3 23.8 17.8 17.8 23.1 30.4 37.9 41.6 44 47 48 54.7 62.1 65.2 61.3 58.9 60.8 61.9 61 58 60.6 63.4 65.7 68.1 68.1 75.5 80.5 82.7 88 87 92.9 98.3 102.1 110 119.1 128.7 142.3 148.1 160.9 165.6 179.6 191.7 197.2 199.4 198.4 200.6 203 206.9 207.7 205.4 198.6 197.9 198.2 181.2 172 176.1 170.4 162.4 155.5 147.8 137.6 135.4 136.5 145.3 155.4 166.8 171.6 170.1 162.5 152.3 140.5 128.7 122.7 114.3 112.6 110.2 107.2 110.1 101.8 89.1 70.6 63.4 57 51 46 44.7 46.2 44.4 43.2 43.5 44.5 45.4 46.4 49.5 54 77.1 100.7 112 110.8 107.9 133 168.4 182.8 186 189.5 185.6
82 100.3 119.8 135.3 141 150.1 149.7 143.6 141.3 141.6 150.9 154 157.2 162.2 163.3 147 128.7 109.1 86.1 62.8 47.4 34.2 20.1 10.4 10.1 10.4 10.4 10.4 10.4 11.2 14.2 23.8 32 38.8 48.2 60.7 78.4 94.9 103.7 109.6 111.1 107.9 104.4 105 110.6 121.2 132.8 143.4 144.6 147 143.8 127.7 115.7 107 99.8 92.8 89.5 90.5 87.3 83.5 79.3 68.2 57.1 66.9 66.5 65.9 67.4 65.2 58.7 50.9 44.4 29.8 20.9 13.1 9.4 8.6 8.9 9.2 9.3 9.3 9.4 9.2 8.9 8.8 7.9 9.4 11.4 16.9 16.4 20.5 26.3 30.1 27.8 26.4 26.2 22 17.7 18.6 24.4 32.2 39.1 40.6 42.9 44.9 48.7 53.3 58.7 53 51 56.9 59.3 56.8 55.2 56.2 56.3 60.3 62.5 70.2 77 84.2 89.3 94.1 105.3 102.3 102.9 109.4 117.6 128.3 134.1 136.1 144.8 146.9 148.3 159.5 177.3 181.3 185.7 186 187.9 187.8 192.7 199.6 200.4 198.8 199.8 207.1 211.1 190.6 177.1 178.1 170 163 153.6 143.9 136.8 133.4 137.5 148.1 156.3 170.8 172.4 169.5 163.2 150.1 140.2 128.3 116.3 118.3 120.5 118.8 114.2 118.3 107 90.2 77.1 64.1 57 50.4 46.3 44.7 44.5 44.2 43.2 43.5 44.5 45.2 45.8 47.3 50.8 64.3 81.7 91.6 95.6 102 111.8 132.6 144.7 153.1 160.9 166.6
77.2 93.8 112.6 125.8 136.8 144.7 151.6 147 150.9 145.6 147 152.9 158.2 156.3 148.8 129.2 104.1 82.8 65.6 50.2 38.7 29.2 16.5 9.6 9.8 10 10.1 10 9.9 10 13.9 23.3 30 38.3 48.2 67.9 89.6 101.8 107.2 112.6 109.7 105.4 103.9 104.8 108.9 119.1 133.3 138.4 143.5 141.8 129.5 121.2 109.7 99.6 93.1 92.3 83.8 83.3 80.2 76.4 66 59.8 48.7 60.1 61.5 64.8 65 55.5 41.8 42.1 28.7 18.6 13.5 8.5 7.8 8.2 8.4 8.6 8.9 8.8 8.7 8.4 9 9.1 9.5 10.8 12.3 14.3 17.6 24.2 30.6 32.7 28.6 26.1 22.9 19.1 18.2 21.2 29.7 37 37.2 38.9 40.9 42.9 47.9 52 46.2 41.5 48.8 53.6 51.3 49.5 50 55.1 58.1 63.4 72.4 80.6 87.8 95.1 99.4 101.3 110.1 120.2 121.3 124.9 133.4 140.2 144.4 146.7 143 144.2 148.7 158.2 169.3 171 176.7 179.8 181 183.2 186.5 194.9 196 197.9 206.5 217.9 213.9 189.9 178.6 178.3 169.3 161.3 151.3 137.6 136.2 132.2 146.1 156.3 159.5 160.3 166.1 174.2 160.2 152.2 136.1 129.8 128.4 130.3 129.2 127.5 124.1 123.6 104.7 94.4 84.3 70.6 53.8 47.7 44.8 44.6 44.7 47.4 43.6 44.1 44.7 45.3 45.9 47.6 49 51.4 63.8 80.9 84.9 91.1 99.9 111.7 126.5 136.1 148.7 156.6
74.5 85.2 100.2 118.8 139.6 151.6 155.4 155.5 156.2 155.7 153.1 153.1 155.1 147.2 134.9 106.6 86.5 68.3 53.5 42.1 32 22.3 12.8 9 9.3 9.5 9.7 9.6 9.6 9.9 13.1 19.8 28.4 39 52.5 77.3 97 105.2 106.1 108.9 107.7 103.7 103.7 104.2 108.6 118.5 130.9 133.9 135.6 131.4 122 113.3 104.5 95.4 93.2 86 80.5 77.1 73.7 63.4 58.7 54.3 45.2 53.7 60.4 61.9 53.9 37.4 34.8 27.1 16.8 11.3 8 7.7 7.7 7.7 8.1 8.2 8.3 8.4 7.9 10.7 9.7 9.6 11.6 13.5 13.1 17.9 23.9 30.3 34.7 33.2 29.7 26.7 22 18.8 18.7 23.6 33.8 37.2 34.4 35.6 37.6 39 40 38.4 38.2 43.5 47.1 45.2 45.3 46.7 48.9 53.4 63 73.3 84.7 87.2 96.4 103.7 108.6 112.5 119.5 129.9 138.5 145.5 148.2 155.8 155.1 151.4 149.7 154.8 153.9 155.7 160.1 165.7 170.3 173.3 176 178.6 182.3 188.5 194.4 196.2 213 214 206.2 184 175.7 170.2 162.5 155.5 145.1 135.3 129.8 130.2 137.5 147.5 153.3 153.6 159.1 169.8 160.3 146.5 132.3 130.7 133.3 132.8 133.7 128.1 119.8 116.5 105.5 97.9 90.5 70.3 54.3 45.6 44.5 44.3 49.9 48.8 45.1 43.5 44.7 45.4 46.7 48.2 49.3 50.8 53.2 57.9 72.1 83 95.5 109.1 121.6 136 155.1 166.7
72.4 82 95.1 114 138.8 155.6 164.1 164.1 160.1 161.3 166.1 164.4 158.8 146.4 130.7 102.5 76.5 59.8 47.6 39.1 25.5 12.5 8.4 8.6 8.8 9.1 9.3 9.2 9.2 9 12.3 18.6 29.7 41.9 59 82.8 98.3 102.5 107.9 108.6 107.4 104.3 103.4 103.8 109.1 120 123.4 124.2 126.9 123.5 115.1 104.1 96.7 92.8 88.5 83.2 74.9 72.2 60.6 58.2 53.4 45.5 41.3 56.6 58 48.9 33.2 25.5 21.6 13.6 9.5 8 6.8 7 7.2 7 7.9 8 8.2 8.5 8.8 9.5 9.4 10.9 14.4 15.5 18.2 24.1 30.2 35.1 35.1 33.2 30.6 26.9 22.9 19.2 19.8 26.9 30.8 32.5 33.5 33.8 34.7 35.1 35.1 36.4 37.6 39.1 39.8 39.3 43.1 45.3 52.9 65.5 80.2 85.3 93.4 95 102.4 106.9 112.5 122.6 133.5 142.1 153.7 157.1 165.7 168.6 159 157.1 162.8 162 159.6 158.1 159.7 159.2 161.1 163.3 168.4 173.1 175.8 184.2 191.5 197.1 207.7 202.1 193.5 173.3 166 159.8 156.5 149 136 140.9 127 127.4 129.3 137.6 140.6 144.2 154.2 162.7 154 137.9 130.3 125.8 130.1 137.1 131.7 121.4 117.6 118 112 104.7 94.7 77.5 55.2 45.9 44.5 47.8 48.8 50.2 50.5 43.7 44.8 45.7 47 49 49.9 51.1 52.8 57.8 69.5 82.3 97.8 112.1 127.5 144.5 164.7 179
72.6 82.6 95.4 114.8 149.2 163.5 168.4 166.7 166.7 162.9 165.3 163.9 159.6 137.5 115.9 93.5 68.7 54.6 40 27.6 20.5 11 8.1 8.1 8.3 8.6 8.7 8.7 8.8 8.9 11.5 19.6 30 41.5 60.7 86.6 95.6 103.3 110 109.5 107.7 104.9 103.4 103.7 108.7 112.5 117.3 122.9 123.3 115.3 103.8 97.8 93.1 87.4 86.1 81.5 69.8 62.1 53.3 50.7 42.8 38.8 41.4 51.8 45.5 32.5 25.5 19.8 11.2 9.4 8.9 7.2 6.3 5.9 6.3 7 7.7 7.9 8.1 8.4 8.6 9.1 9.6 14.9 16.5 24.1 28.9 32.9 36 35.7 33.9 33.1 30.2 24.7 26.1 23.9 19.9 24 26.2 28 30.3 29.5 30.6 33.5 36.1 36.4 35.7 35.8 37.2 39.2 43.1 51.4 66.1 77.9 86.7 94.1 98.7 100.9 102.2 111.9 124.6 137.1 143 154.7 165.3 166.1 170.7 169 171 175.3 172.7 168.6 163.4 160.1 159.6 157.6 155 160.5 168.9 165.1 167.8 180 189.8 199.5 195.5 190.1 174 158.3 154 152.6 147.1 139.6 137.3 136.6 124.4 118.1 119.6 126.5 128.6 137.2 148 157.3 148.6 131 122.1 117.8 122.9 138.9 126.5 113.2 112.3 122.9 117.3 110.3 99.4 84.8 63 51.1 44.6 48.4 50.5 50.1 49.5 44.5 46 49.6 49.6 49.8 50.1 51.4 53.5 59.7 70.3 85.8 102.4 119.2 136.1 154.4 174.6 188.1
77.6 85.3 98.7 114.9 142.6 164 164.3 163.5 168.5 165.3 161.2 160.6 152 128.3 107.5 80.9 62.6 48.6 34.8 23.8 17.3 9.4 7.8 7.8 7.8 8 8.1 8.3 8.5 8 13.8 21.4 31.8 45.5 66.4 85.9 94.3 103.2 108.8 109 107.3 104.6 103.8 103.5 106.6 112.9 117 120.6 115 103.4 98.1 92.8 89.8 85 82.9 76.4 64.3 56.5 46.6 39.1 36.2 32.9 37.7 36.7 28.8 28 22.1 11.8 6.8 6.6 6.3 5.9 5.6 6.4 6.1 6.7 7.6 7.8 7.7 11 14.5 14.3 15.4 17.1 28.3 34.9 37.6 39.7 36.4 33.8 32.4 33.6 31 27.8 29.5 25.4 19.8 25.6 25.8 24.4 26.2 28.9 31.4 34.9 35.6 34.9 34.7 35.4 36.6 42.9 50.1 61.1 75.9 86.7 96.3 98.2 98.8 103.8 112.1 119.5 136.1 144 152.1 158.4 163.9 165.7 170.8 182 183.1 186.6 179.8 172.6 169.5 163.8 156.7 153 154 156.3 159.5 157.9 163.5 176.3 185.4 185.4 188.7 177.7 156.7 142.2 143.9 146.1 139.9 131.7 135.2 126.8 116 110.1 112.3 118 122.7 127.5 135.4 141 138.5 123.3 115.7 111.7 117.5 134.9 134.7 109.5 102.8 115.8 104.6 97.1 100.1 83.9 58.6 48.1 44.5 46.7 49.5 50.1 47.8 44 44 47 46.1 48.6 49.5 51.1 54.7 65.2 79.9 95.3 111.6 128.8 145.8 163.1 178.5 188.3
80.3 87.1 100 116.4 134.6 150.5 156.6 160.4 166.3 168.2 163.2 155 145.4 121.1 95.5 75.3 55.8 42.9 33.8 23.2 14.9 9.7 7.4 7.4 7.5 7.5 7.5 7.4 6.8 9 15.3 25.4 38.1 51.8 71.6 85.5 93.9 101.9 105.4 106.9 104.9 103.6 102 101.2 107.7 119.1 116.3 113.3 108 98.9 93.2 90.4 85.4 83.9 76.9 69.2 59 52.2 37.1 33.5 31.8 23.7 24.6 27.5 26 21 10.7 7.1 6.1 5.6 5 5.6 6.5 6.4 6.5 6.3 6.8 7.8 11.7 16.6 18.1 17.8 17.1 23.9 34.2 39.6 43.6 40.7 32.3 27.3 27.3 30.3 32.8 36.5 30.2 27 19.7 25.1 26.2 23.2 26.1 30.7 33.2 32.6 34.3 32.8 33.7 39 41.4 50.9 60.7 70.3 78.8 91.4 96.7 96.1 99.1 110 122.1 131.1 141.9 147.6 152.8 160.1 170.1 177.6 183.9 188.1 190.6 188.2 182.6 180.3 176.6 165.4 155.7 152.5 151.3 150.7 154.6 154.5 161.9 166.5 171.6 173.4 173.6 166.2 143.1 135.9 135.2 133.5 130.9 130.7 129.1 124.6 114.2 109.1 106.6 110.2 114.2 121 123.3 119.1 127.1 119.1 111.3 101.2 109.8 134.5 129.7 110.4 93.8 103.5 95.8 91.6 85.2 78.1 54.6 46 44.4 44.6 48.1 50.2 44.9 44 44 44 44.8 46.6 49.4 53.4 60.6 73.2 89.5 105.9 122.6 139.5 155.6 168.9 179.7 189.9
82.4 88.1 100.2 115 126.6 137.8 146 158.6 167.3 167.1 159.8 150 128.1 105.9 86.9 62.3 50.7 38.6 30.7 20.7 10.6 7.4 7.3 7.3 6.3 7 7.4 7.6 8.9 13.7 22.1 32.7 45.7 60.8 76.9 87.8 95 99.9 102.6 104.6 103.6 102.5 101 100.6 107 112.8 110.3 106.9 100.1 95.1 90.3 86.1 84.3 77.5 70.6 63.4 54.7 40.8 33.5 30.4 21.2 17.7 25.9 24 17.3 10.2 6.9 5.7 5.4 5.1 5.8 6.4 5.3 6.7 6.9 6.7 9.6 11.5 18.7 18.6 17.4 18 18.8 28.3 35.1 39.3 36.8 31.4 32.8 29.7 28.3 28.8 33.6 37.7 33 26.1 19.7 20.7 20.9 22.4 29.8 32.9 32.3 31.3 31.7 31.8 35 42.5 48 57.7 66.5 74.8 83.5 89.1 92.1 98.4 109.5 116.9 127.6 137.7 145.8 153.8 165.6 173.6 180.3 187.4 192.7 195.4 192.9 187.3 186.2 183.9 173.4 164.5 162.4 156 150.2 150.2 151.6 153.7 160.2 164.4 162.9 160.9 163.5 155 137.8 128.9 126 122.8 123.8 123 121.9 116.7 112.1 110.8 103.1 98.7 105.3 111.5 106.2 101.9 99.4 110.8 100 85.6 104 116.8 108 94 80.8 93.8 93 88.3 81.7 71.6 55.6 48.1 45.8 45.4 48.9 49.2 44.2 43.9 42.8 44.2 46.8 46.4 51.1 59.5 68.2 80.5 96 114 131.7 149.6 163.1 173.6 182.2 189
82.7 89.8 102.3 115.3 125 136.7 142.6 151.3 164.2 164 153.9 138.3 117.2 99.8 81.8 56.2 45.3 33.2 28.3 18.7 8.5 7.4 7.3 6.6 7.1 7.5 7.8 7.7 10.7 18.3 28.8 42.2 56.3 66.7 80.1 89.1 94.4 97.7 101.4 102.3 101.4 100.4 100.2 100.7 108.6 108.7 106.6 101.6 95.5 90.8 86.4 85.8 80.2 72.7 65.5 58.6 48.7 35.5 31.7 21.8 15.4 15.1 23.6 15.5 8.1 5.9 5.8 5.3 5.1 5.7 5 6.1 6.7 6.7 6.5 8.5 12.3 14.2 18.4 17.6 16.3 23.9 29.2 30.6 34.1 34.4 35.6 35.4 33.2 29.7 28.9 28.3 32.2 34.6 29.4 22 19.4 19.6 21.8 24.1 29.3 29.1 31.6 29.9 30.9 35.1 39.2 48 57.8 61.5 70.7 77.2 82.3 84.5 97 106.4 111.8 122.1 132.8 144.4 160.6 172.5 175.9 183 189.1 194.1 202.3 200.4 194.7 189.1 190.9 179.8 174.5 176 171.1 165.4 150.7 150.3 150.4 152.4 162.8 159.4 155.2 155.4 154.3 145.1 132 124.7 118.7 119.6 116.6 112.6 111.6 110.8 112.9 115.2 107.2 94.9 98.8 98.3 94.1 90.9 91.4 94.3 93.5 80.3 90.3 97.9 88.3 82.7 79.2 81.1 77.5 74 70.2 61.9 57.9 52 46.8 49.2 49.3 48 44.5 43.7 43.5 44.2 45.4 49.3 54.2 63.1 72.5 84.2 99.6 120 139.9 157.4 170.4 179.3 184.9 187.4
83.2 93.2 106.1 114.8 120.6 132.8 141.4 149.4 158.3 156.5 144.7 130.3 108.5 89 68.5 49.2 39.6 25.6 18.5 8.9 7.5 5.2 6.6 6.8 7 7.4 7.4 8.6 14.7 23.1 35.3 53.6 62.5 70.1 79.1 86 91.5 96.4 99.9 100.2 99.8 99.8 100.7 101.2 107 107.8 103.9 98.6 92.1 86.7 85.8 83.6 77.9 67.8 58.9 52.5 46 32.2 24.5 18.8 12.4 12.7 11.9 7.8 6.6 5.5 5.5 5.1 5.3 6.3 6.1 6.2 6.8 6.8 7.2 12.5 16.9 18.3 16 16.2 30.1 39.9 31.4 31.6 34.7 34.7 35.5 37.4 38.3 30.8 27.7 26.7 27 29.4 25.1 21.7 18.8 19 22.1 25.6 27.3 29 31.7 29.5 31.7 38.6 46.8 57.5 63.6 68.8 71.4 80.8 81.1 90 98.6 104.4 110.9 123.8 142.4 157.9 171.5 178.4 185.3 190.8 197.1 202.1 203.8 201.7 191.9 191.5 184.7 182.3 181 180.8 178.5 162.6 152.8 150.2 150.2 152 158 154.5 154.8 151.9 144.8 135.4 124 117.7 115.7 115.6 111.2 107.8 107.7 108.4 119.7 119.7 110.7 96.4 93.2 90.9 90.3 83.8 83.8 85.1 83.8 73.3 76.1 78.6 74.2 77.4 73.9 67.1 62.2 60.8 60.7 60 56.2 52.8 50.1 49 46.7 46.3 44.7 44.1 43.7 44.3 48.9 52.4 57.2 66 76.3 87.9 103.6 125.6 147.3 165.4 177.9 186.5 192.6 189.4
85.4 95.4 105.5 112.4 117.7 127 137.5 147.5 155.3 149.5 139.2 122.9 96.9 73.1 53.1 38.8 28 15.9 9.8 7.2 7.2 6.6 6.7 6.9 7.1 7.3 7.9 11.3 20.3 32.7 43.8 58.7 66.6 71.4 77.4 83.5 90.2 96.5 98.4 99.4 100.2 102.7 103.2 102.1 107.5 109.4 103.6 94.5 90.2 86.5 84 81.9 77 66.4 59.3 54.1 41.6 29 19.2 12.4 10.5 9.8 7.6 6.8 6.3 5.4 5.1 4.5 6.3 6.7 6.2 6.3 6.7 7.4 9.3 14.7 16.7 13.7 16.8 22.1 33.2 34.2 26.6 35.4 35.8 36.4 37.8 42.3 38.5 32.4 28.3 27.3 26.9 24.6 24.3 21.3 18.6 18.9 21.8 23.4 26.9 30.9 27.1 31 36 44.1 53.9 60.1 67.7 72.7 73.8 78.6 82.7 90 98.5 108.2 118.7 135.2 151.3 170.4 177.2 183.9 193 194.3 198.1 201.4 201.8 197.5 191.9 190.9 190.6 190.2 188.4 181.5 170.2 161.9 158.2 154.9 149.4 146.8 149.4 149.2 150.9 139.6 135.9 129.5 120 115.7 114 107.8 104.6 102.9 101.8 106.2 109.6 107.8 104.5 95.5 91 89 79.9 75.4 74.3 73.5 73.7 69.4 68.4 67.4 66.5 67.5 61.8 59.3 57.8 60.1 56.2 56.8 54.7 51.7 49.7 47.8 46.4 45.5 45.1 44.3 44.6 49.1 51.3 53.9 59.8 68.5 79.3 90.9 108.4 131.9 155.1 174 187.3 194.2 195.6 194.6
90.3 98.1 105 114.1 120 132.6 144.7 150.3 150.9 150.3 129.6 98.8 79.3 58.9 41.8 29.3 19.4 9.1 6.9 6.8 5.8 6.5 6.6 6.9 7.2 7.4 9.4 15.5 27.7 41.3 47.7 58.8 66.3 72.3 77.1 83.7 91.5 96.2 100.1 100.2 100.9 103 104.4 107 111.6 109.4 98.8 90.8 86.5 86 81.1 77.2 71.6 63.2 60.6 52.7 40.3 29.2 13.5 10.5 9.3 7.8 6.5 6.4 8.5 6.7 4.8 5.9 6.4 6.8 6.2 6.3 6.6 7.6 9.1 10.7 12.5 15.7 19.3 23.7 24.3 25.1 31.3 40.1 39.4 42.1 46.5 44.3 38 33 31 27.9 25.1 20.7 23.6 20.1 19.7 24.1 21.6 23.1 24.6 25.4 32.9 34.8 40.1 45.4 54.7 62.8 70.1 72.3 73.6 77.1 81.7 95.1 106.6 112.7 127 139.4 158.9 172.7 183 186.3 194.9 201.1 197.8 200.1 198.4 191.5 195.2 193.4 198.4 196.1 190.2 180.6 174.4 169.7 165.4 158 149.8 144.8 143.9 142.3 137.8 131.3 129.4 126.1 118.3 119.9 116 116.2 112.3 105.5 96.6 101.2 99.3 97 93.9 88.7 86.3 87.5 86.7 83.2 77.4 73.4 69.2 66.1 64.3 62.4 60.7 59.1 58.5 58.1 56.3 59.4 54.6 53.6 51.3 50.2 49.2 48.1 46.8 45.9 44.7 43.8 48 50 51.2 57 63.7 72.5 82.5 93.7 113.4 137.9 162.3 182.2 198.5 204.1 200.4 197.2
94.7 101.1 111.4 120.8 126.7 133.9 147.9 156.2 162 139.4 108.3 88 65.7 44.7 32.8 22.4 11.7 7.5 6.5 6.8 6.6 6.3 6.1 6.5 7.2 8 10.8 19.9 35.8 43.4 51.1 57.7 65.9 72.6 78.4 86.1 92.4 95.1 97.1 99.1 99.8 103.9 104.4 111.8 113.5 105.7 93.2 88.2 86.1 81.4 75.9 71.9 71 65.1 55.2 46.1 35.4 21.9 9.4 9.3 7.7 6.8 6.3 6.8 9.8 5 5.6 4.5 6.4 6.3 6.2 6.3 6.5 7.9 8.4 10.3 15.5 17 18.2 18.5 19.4 27.4 36.3 34.9 41.8 47 49.7 43.9 37.8 33.9 32.5 30.2 23.1 18.1 18.8 21.4 21.5 22.1 21.8 22.7 23.4 27.1 35.5 36.2 42.6 50.1 57.5 61.8 67 70 74.4 81.5 89.4 98.8 110.8 119.6 129.6 142.2 153.7 170.5 182 188.1 199 201 200.6 199.4 192.3 192.8 195 199.6 202.2 196.4 190 185.9 180 175.8 172.1 161.7 154.1 148.4 142.4 138.5 136 132.1 128.5 125.4 124.3 119.2 118.6 119.1 114.5 109.4 102.4 95.6 92.7 90.6 91 95.4 97.5 96.6 98.7 90.7 87.1 83.1 76.9 69 65.5 64.9 67.4 67 65.9 61.8 58.9 56.1 52.7 51.7 53.7 52.2 49.8 47.7 46.2 45.3 44.6 42.7 48.6 45.7 48.7 57.2 65 74.1 84 98.2 119.2 144.3 169.1 189.8 205.2 208.3 204.8 198.7
96.7 105.1 113.1 120.8 127.6 132.1 147.7 156.6 153.8 120.1 89.3 71.6 49.5 36.3 28 18 10.8 6.7 6.5 6.9 6.3 6.1 5.8 5.8 6.9 8.9 13.7 25.7 37.6 43.8 53.3 60.1 67.9 73.3 81 89 95.4 99.7 101.1 99.8 101.3 101.8 107.4 114.8 109.1 98.6 92.6 90.2 85.7 77.9 75.5 75.8 71.4 57.8 45.8 36.6 26.1 13.6 7.3 9.3 6.5 6 5.6 6.1 4.8 5.3 4.2 5.7 6 6.4 6.1 6.2 6.8 7.5 8.2 13.1 14.5 14.7 16.6 18.4 21.2 31.3 36.5 38.8 46.6 50.4 49.3 44.4 40.9 35.7 34.8 31.6 23.7 16.9 17 18.8 18.7 19.1 21.2 23.3 26.6 28.8 32.9 39.3 46 53.8 58.2 62.2 66.6 71.3 82.5 90.1 101.3 110.5 113 123.1 131.2 145.5 156.1 175.5 187 194.6 201.4 203 203.5 196.3 192 195 197.2 197.5 197.5 193.1 188.1 182.5 179 174.1 169.3 165 157.6 151.8 151.1 147.2 144.6 138.1 133 127.4 123.7 119.7 120 116.8 114 111.2 107.3 100.7 99.2 95 96.3 104.3 105.6 99.5 105 97.4 88 84.2 80 73.5 65.9 70 77 73.9 76.6 70 66.4 64.9 61.1 61.4 63 57.1 50.5 48.3 47.5 46.6 43.8 46.6 46.7 44.6 50.5 54.6 62.4 70.2 82.3 100.1 123 149.7 176.1 195.9 205.7 207.7 203.1 199.3
98.3 103.5 112.8 121.6 133.8 140.7 148.9 144.4 127.3 95.8 71 53.4 37.2 27 23.1 15.4 9.7 6.2 6.3 4.7 6 5.4 5.2 5.9 7.3 10.5 19.9 29.3 37 45.4 55.2 62.8 69.2 75.8 84.3 93.4 100.7 105.2 106.6 102.4 101.2 103.6 112.7 111.3 101.7 94 92.1 86.1 79.3 80 77.5 72.8 63.4 52.1 41.1 26.2 15.4 6.2 6 11.3 7.5 5.8 5.1 4.1 5 5.3 5.2 5.9 6.1 6.2 6.2 6.3 6.9 7.7 8.7 11.9 7.9 9.7 15.1 21.1 26.6 31.7 34.5 37.1 50.7 50.6 45.8 42.7 42.8 36.9 31.4 32.4 25 17 16.9 17.3 18.1 19.8 23.8 28.5 35.1 34.8 34.2 39.9 46.2 50.8 57.8 61.3 69.5 78.7 91.3 95.7 108.1 112.1 119.6 126.1 134.9 150.4 161.4 180.4 194 206.2 206.8 207.1 202.4 194.1 193.6 195.9 195.7 194.1 194.1 189.5 185.3 187.5 185.7 181.8 179.5 175.4 168.6 166.6 162.4 158.6 153 143.7 137.4 129.8 125.6 130.1 119.5 115.7 113.5 110.5 107.8 106.7 104 101.3 101.8 102.7 102.3 97.9 99.8 95.3 87.9 84.7 81.6 75.9 64.2 69.8 73.6 76.6 76.6 77.4 72.9 70.2 66.8 64.4 64.1 53.9 47.4 49.2 49.7 47.8 42.7 46.1 46 45.4 51.6 56.7 60.9 64.9 76.9 96.7 122.5 150.4 176.1 189.4 196.8 202.3 201.1 196.4
97.7 105.9 119.5 129.5 137 137.2 132.7 118.4 97.6 72.9 56.5 41.6 27.6 23.6 17.9 10.7 6.1 5.9 6.5 6.4 5.6 5.3 5.5 6.4 8 14.6 28.1 34.1 38.9 46.3 53.8 62.4 69 77.7 87.3 95.9 104.9 112.1 107.9 104.9 101.6 104.1 111.3 103.3 94.8 87.8 85.1 79.6 81 76.8 67.1 62.8 57.3 46 32.5 17 7.4 5.5 6.6 6.5 5.2 4.8 4 5.3 5.5 5.7 4.4 5.7 5.8 5.9 6.4 6.5 7.7 7.5 7.2 7.9 7.1 8.5 17.4 24.1 29.2 31.5 32.7 36.7 49.1 49.9 43.6 42.4 39.7 36.6 30.3 25 23.8 18.4 15.9 16.4 17.9 21.8 27 33.2 37.5 39.3 39.5 43.7 51.3 55.7 57.6 64.9 75.4 84.6 92.9 101.6 107.2 116.1 123.5 131.7 143.1 157.4 169 185.7 201.7 209.5 211.3 205.8 199 196.2 193.9 195.9 195.1 194.9 195 188.6 192.5 194.1 199.5 197.6 193.3 184.7 178.1 175.7 169.9 161.9 153.8 152 142.7 133.2 129.6 129.5 123.4 121.7 116 113 110 106.8 107.5 107.8 105.5 104 98.2 95.2 95.7 91.2 87.1 84.8 84.2 79.9 65.9 66.2 71.8 75.7 74.1 77.7 75.9 72.4 73.1 68.5 63.4 54.9 50.2 49.2 48.9 47.5 42.4 46.7 47.1 45.6 51 55.4 58.8 58.7 71.2 93.9 120.2 146.5 166.5 175.9 185.4 194 193.5 190.9
98.6 114 126.3 130.9 132.7 122.9 115.4 94.1 74.8 60.8 42 29.7 23 21.1 13 6.3 6.1 5.9 6.7 5.5 5.1 6.2 6.3 6.9 11.3 19.9 32.7 38.2 41.5 46 52.6 59.1 67.5 76.5 88.5 99 109 110.3 105.7 105.3 100.7 104.3 105.9 96.8 89.9 82.5 81.4 82.9 72.2 64.5 59.2 61.5 50.1 34.5 20.5 9.9 5.8 5.5 5.5 4.9 4.7 4.8 5.1 5.6 6 5.7 5.5 5.3 5.1 5.7 6.2 6.6 7.7 7.2 6.9 7.8 10.7 14.6 21.9 28.2 31.8 33.9 38.9 48.6 52.3 48.4 45 42.5 37.9 33.1 27 22.7 22.1 17 14.9 14.1 18.9 23.6 28.9 35.9 37.5 38.2 41.4 47 52.6 58.1 63.1 71.1 81.8 90.3 102.5 108.7 111.9 116.7 124.5 131.4 144 160.3 171.7 188.1 210.4 215.8 212 203.4 197 195.4 195.4 196.9 206.9 207.1 197.3 194.7 198.7 202.9 205.6 209.1 203.9 190.4 181.4 175.8 171 172.6 168 158.1 151.6 136.4 134.4 133 129.7 124.9 120.5 113.8 112 106.6 105.1 107 105.2 102.8 100.1 89.4 90.2 86.7 85.2 86.5 83.5 78.1 68.3 62.9 69.6 71.8 71.5 75.1 80.2 73.7 69.4 64.8 59.5 56 51.2 49.5 48.7 47 43.4 47.9 48.6 48.9 50.8 53.9 53.7 52.1 67.5 90.3 115.1 135.6 150.3 162.5 175.8 185.3 185.6 185.9
101.6 113.7 126.7 127.6 120 104.1 85.4 71.7 62.4 43.8 28.2 22.2 20 12.8 6.8 5.8 5.9 6 6.5 4.7 5.5 5.7 7.3 7.5 14.4 24.5 35.4 40.1 44.2 45.5 48.4 57.1 65.5 75.6 89.1 100.1 107 103.8 102.4 100.3 99.3 103 97 83.5 84 82.8 84.6 71.2 63.3 52 53.9 48.8 35.3 20.6 10.3 7 5.5 5.2 4.8 4.5 4.5 4.9 5.3 5.7 4.8 5.8 5.2 5.7 6.4 5.9 6.2 6.5 7.4 6.8 7.4 11.4 12.6 20.2 25.4 29.7 32.9 39 52.6 53.8 53 49.7 50.2 46.4 36.9 31.9 28.1 21.8 19.8 17.5 14.7 13.5 17.8 24.5 29.3 33.8 40.6 40 44.2 48.8 54.7 62.2 74.6 85.1 90 102.1 109.4 113.5 117.1 120.1 126.9 134.9 146.5 165.3 177.4 195.5 211.3 215.7 208 197.9 196.4 197.3 202.1 210.1 213.3 203.7 200.5 207 209.5 208.7 209.1 207.9 200.6 190.7 183.6 179.2 178.8 178.3 172.7 170.1 151.4 139.8 137.7 137.1 134.6 129.2 122.1 111.3 112.6 109.3 102.2 100.3 100.8 98 94.1 83 83.1 82.3 84.4 85.5 81.6 80.6 73.4 59.5 64.1 66.9 73.5 74.5 74.3 67 63.4 61 61.8 59.3 56.4 52.4 49.2 48.7 44 44 48.5 47.2 49.7 50.6 50.7 51.3 65.1 86.8 107 123.3 137.3 150.8 164.1 174 176.2 180.1
109.1 124.5 132.9 117.2 99.6 75.8 64 54 44.4 31.9 21.5 16.8 11.5 6.8 5.7 5.6 5.7 5.9 6.2 4.9 5.6 7 7.3 9.4 15.5 26.5 36.8 41.8 44.4 45.4 47.8 55.9 69.1 76.4 83.1 93.4 98.9 100.3 99.4 96.7 100.1 96.4 89.8 78.3 78.2 74.2 68.8 53.5 46.6 42.5 41.4 33.6 21.1 12 7 5.6 5.1 4.8 4.5 4.4 5 5.3 5.5 5.4 6.1 5 5.8 6.4 6.5 6.3 6.7 6.9 6.9 6.9 7.3 12.2 21.2 26.4 31.2 34 37.8 41.9 57.8 62.5 55.2 52.6 52.8 46.8 37.2 31.9 28.3 19.8 19.8 18.8 15 13.4 15.7 22.1 28.8 34.9 40.8 40.9 46.9 51.1 61.1 68.1 78.5 90.8 103.8 107.2 114.8 118.9 120 123.4 127.4 135 149.9 167.8 187.3 197.8 207.6 208.3 202.8 205.1 201.6 197.4 205.9 205.3 202.1 205 209.8 212.9 215 218.6 209.2 209.5 197.6 194 188.8 186 185.6 183.2 178.4 162.1 148.8 145.3 146.2 143.9 139.7 134.3 121.4 110.7 107.1 99.3 96.2 95.6 92.1 90.3 86.9 80.1 79.2 80.4 82 82.7 81.6 76.1 74.7 59.1 59.8 63 68.5 71.6 69.2 61.3 59.9 62.2 63.6 61.7 55.4 51 49.6 49.8 44.3 43.6 47.1 47.7 48.3 48.5 49.8 50.1 62.2 80.3 96.6 111.8 125.3 139.2 152.5 161.9 166.5 169.6
98.9 117.2 128.4 102.2 80.5 58.1 46.3 36.2 29.4 20.3 13.4 11.9 6.4 6.1 5.7 5.4 5.5 4.7 5.6 4.9 5.7 6.8 8.2 13.2 19 26.7 35.3 42.9 46.2 45.3 51 61.9 71.4 77 79.9 87.6 98.7 99 95.4 99 97.6 90 84.4 74.7 71.7 60.5 53 44.4 36 34.2 27.9 18.4 15.2 9.1 5.8 5.3 4.8 4.5 4.4 5.1 5.1 5.3 5.4 5.3 3.7 5.9 6.5 6.6 6.6 6.8 7 7.1 7.1 7.5 10.7 17.5 28.4 31.6 33.8 41.8 45.1 51 65.3 62.7 57.2 55.6 51.4 45.9 38.6 31.3 25.9 19.7 18 15.7 13.3 14.1 16.8 25.4 31 38.4 39.7 43.5 49.4 58.6 65.3 76.1 82.8 94.9 108.3 112.3 119.1 124.1 124.9 127.4 130.3 142.6 155 172.3 189.2 199.4 213.1 206.8 209.5 206.8 203.9 199.2 199.5 200 204.1 210.9 216.8 221.3 222.4 219.4 210.4 204.6 197.3 191.7 196.6 198.3 190.6 183.6 174 167.1 152.8 151 157.8 154.2 142.5 132.2 119.7 106.9 100 94.9 91 89.2 85.8 83.3 79 78.4 77.8 78.3 80.5 81.2 79.3 75.4 69.9 63.3 57.1 58.6 62.7 65.9 67.1 60.7 59.1 63.2 64.2 58.3 53.5 52.1 49.1 50.9 46.2 43.5 47.7 47.4 47.8 47.9 49.7 50.2 60.4 74 88.1 102.1 116.5 130.7 142.8 152.1 157.2 161.5
84.1 97.7 95.4 80.2 59.5 43.5 28.7 19.7 16.4 10.9 7.1 6.6 6.3 6.2 5.8 5.5 5.3 5.3 5.7 5.8 6.3 8.7 11.3 14.3 21 27.4 35.8 45.6 45.1 44.1 52.1 66.2 69.6 74.5 79.7 88.5 97.8 95 96.8 100.2 93.6 87 79.9 69.6 58.6 56.4 44.5 35.2 28.4 28.5 15.9 13.6 11 6.4 5.6 5.1 4.6 4.3 4.6 4.9 5.1 5.3 5.3 5.4 3.7 6 6.6 6.8 6.9 7.1 7.1 7.1 7.4 9.3 9.7 23.2 32.1 36.2 44.3 53.6 56.6 68.9 66.5 63.7 59.9 56.9 49.8 45 39.2 30.8 25.3 20.6 15 13.2 13.1 17.5 18.7 23.2 32.5 36.9 41 45.2 54.1 65.6 74.3 78.8 90.6 100.4 111.9 120.6 123.7 122.3 124.1 123.9 134.6 150.4 169 188.3 194.5 203.8 214.7 207.6 210.2 204 200.3 199.5 200.8 203.6 211.3 216.3 219.4 218.1 215.5 213.7 214.6 204.6 198.7 199.8 209.4 210.1 200.4 189.9 183.4 168.6 160.1 159.8 162.1 153.6 139.1 124.8 113.3 100.7 95.3 90.1 87.1 83.1 80.8 80.1 77.9 77 76.5 78 78.1 77.6 77.4 73.3 69.6 61.3 57.9 55.5 57.1 60.9 61.8 58.7 56.8 60.9 58.9 53.5 52 49.9 48.4 48.4 46.6 42.3 45.5 46.1 45.9 46.6 50.1 50.6 58 70.1 83.2 96.4 109.8 122.1 132 140.9 148.2 152.7
70.1 81.2 76.2 60.9 44.7 29.1 20.7 15.1 11 6.6 5.7 5.5 5.7 5.6 5 5.4 5.2 5.3 6 6.1 7.1 9.8 12.3 15.8 20 27.4 37.2 43.4 44.4 44.4 54 62.5 66.1 74.9 85.3 92.6 92.8 93.4 93 93.5 87.8 82.9 71.9 60.4 49.9 44.6 36.9 25 21.9 15.9 11.8 11.4 7.1 5.8 5.3 4.7 4.3 4 4.5 4.8 5 5.2 5.1 5 5.7 6.1 6.7 7.1 7.2 7.2 7.2 7.2 7.2 7.9 16.3 29.9 37.3 47.2 54.7 58.9 68.6 68.6 63.5 62.1 58.9 56.1 49.4 43.2 33.9 29.5 22.1 18.2 13.3 13.6 17.1 17.8 19.3 28.6 37.9 42.5 46.6 51.1 62.2 69.1 76.8 87.4 99.1 105.8 116.7 123.4 121.7 116.9 120.6 123.7 139.1 156.9 178.7 192 205.1 214.1 220.7 207.1 204.3 203.6 201.9 202.3 205.1 210.2 213.7 214.9 220.5 214.7 218.1 221.9 212.4 204.5 203.3 212.5 222.7 215.5 208 197.9 187.2 172.4 170.7 162.2 158.6 151.6 138 122.7 108.3 98.6 90.5 84 80.3 80.6 78.6 78.4 77.4 77.7 80.5 76.7 76.9 75.3 74.9 72.9 70 63.1 57.9 54.6 54.3 55.4 55.5 54.4 53.4 55.2 53.2 51.9 49.4 46.4 45.3 45.9 45.6 43 43.3 43.2 45.6 47.7 49.9 51.5 55.1 66.1 78.4 90.7 102.3 112.1 121.3 130.1 137.3 144.4
61.4 69.6 63.9 50.3 34.2 19 15.3 9.9 7.6 6.1 5.5 5.4 5.3 5 5 5.1 5.6 5.6 5.9 6.2 7.9 12.8 15.7 18 22.4 34.2 41.9 44 44.3 45.5 52.8 59.1 68.8 81.6 93.5 97.6 89.3 86.6 87.4 86.7 80.1 71 61.4 50.9 41.3 32.1 25 23.6 15.7 11 11.3 9.5 6.9 5.4 4.7 4.6 5.3 4.6 4.4 4.7 4.9 5.1 5.2 4.7 6 6.3 6.5 7 7.3 7.3 7.3 7.3 7.5 11.7 27.2 34.7 43.8 51.3 56.3 72.4 74.6 66.3 64.4 60.9 55.1 53.1 47.2 39.9 32.9 26.5 20.2 15.2 12.6 13.9 15.4 16.5 23.3 36.2 43.7 43.7 48.3 52.1 64.7 78 85.8 93.6 107.4 115.4 117.2 114 113.5 108.8 114.1 130.3 147.8 163 183.5 207.1 217.6 222.2 216.4 213.7 209.6 205.8 205.7 205.4 209.2 211.8 211.4 211.3 209.7 212.7 212.4 216.5 213.6 210.2 211.7 222.3 228.8 225.5 215 204.2 188.6 177.4 175.3 163.9 164.6 155.6 141.3 121.6 107.8 97.4 89.6 85.4 80.3 78.5 77.9 78.9 81.5 79.9 78 75.8 76.5 74.6 73.3 70.8 67.8 63.4 58.4 54.3 52.9 51.9 50.7 49.7 49.2 50.2 50.7 49.7 45.4 44.6 44.4 44 43.6 43.8 42.3 43.2 46.3 48.7 52.4 54.9 53.4 60.6 71.3 81.9 92.6 102.4 111.8 121.9 129.7 141.2
54.4 61.1 55.8 40.4 25.5 14 9.6 7.6 6.5 5.6 5.4 5.3 5.2 5.1 5.4 5.6 5.5 5.7 6 7 9.5 14.2 19.3 20.7 25.6 36.8 42.7 44.3 43.8 47.6 50.6 58.4 74.6 88.2 98 95.5 87.7 81.9 79.6 77.3 69.4 60 50.3 39.5 30.1 24 21.9 16.6 9.8 11 7.4 6 5.8 4.9 5 8 5.7 4.8 4.3 4.6 4.8 5 5.1 5.6 6 6.5 6.4 7.1 7.3 7.2 7.3 7.6 10.7 20.2 30.9 36.5 47.3 55.8 64.1 75 73.7 65.2 66 61.5 51.7 48.9 45.9 41.1 36.5 26 22.3 14.8 12.3 12.7 13.5 14.9 23.5 40.5 45.8 46.8 49.5 56.1 72.5 81.4 86.9 93.8 101.5 111.9 102.7 99 101.2 102.5 114 130.5 152.1 169 192.5 209.7 217.7 222.5 216.9 223 219.5 212.6 210.9 211.5 209.1 204.9 204.2 201.7 203.5 203.6 208.5 214.8 212.3 214.5 218.9 227.4 234.3 230.6 216.5 204.8 186.7 180.8 175.6 167.4 168.6 158.1 134.2 120.2 107.3 96.3 91.6 87 84 78.4 78.8 83.8 84.8 81.4 79.3 75.9 75.3 75.1 73.7 71.1 68.3 65.7 64 57.8 56.7 55 51.6 48.4 47.8 46.2 46.9 45.2 44.8 44.7 44.6 44.8 47.4 45.1 44.1 42 47.4 49.2 52.7 55.1 52.2 58.1 64.7 73.9 83.4 92.7 103.9 117.5 126.5 134.8
47.2 52.1 47 28.8 17 7.8 6.4 6 5.6 5.5 5.4 5.2 5.2 5 5.2 3.7 5.5 5.8 6.3 7.1 11.2 15.5 20 21.8 28.4 37.3 41.8 41.3 45.3 46.7 47.9 60.3 76.4 91.5 95.1 92.3 85 77.7 70.8 66.6 58 48 37.5 28.1 23.5 19 17.7 10.4 9.2 7.6 6.1 6.3 6.3 5.9 9.3 6.8 5.1 4.8 4.3 4.4 4.6 4.8 5 5.5 5.2 6.1 6.3 7.1 7.1 7 7.1 8.3 15.7 26.3 40 53.9 57.7 63.8 66.4 76.1 71.8 71.4 65.7 58.9 51.6 47 40.8 36.6 32.8 25.4 20.3 12.3 11.7 12.5 13.3 17.9 25.3 40.2 46.7 48.6 51.2 57.8 67.5 80.3 89.7 89.6 95.4 95.2 90.9 89.6 89.7 95.3 113.3 129.9 147.3 166.4 185.2 204.9 210.2 215.7 230.3 233 232.4 228.7 224.4 215.3 208.6 202.7 199.3 197.1 195.3 192.8 196.1 198.3 203.8 215.6 224.8 227.4 229.3 224.1 214.7 198 183.7 173.5 169 172.3 169.1 153.7 134 118.1 105.9 95.9 90.9 85.7 83.9 78.7 80.7 84.7 81.6 82.5 78.7 78.6 75.5 75.6 75.3 73.5 71.6 69.1 66.2 62 59.1 56.6 52 47.3 49.2 46.6 46.3 45.9 44.9 44.7 44.5 45.6 47.4 46.7 44.7 43.2 46.8 49.5 55.3 57.4 53.2 60.7 64.6 67.1 76.1 84.8 96.8 112.3 118.3 125.8
39.9 43.5 39.7 20.5 10.4 6.1 5.8 5.5 5.3 5.3 5.2 5.4 5.1 5 5.1 3.4 4.5 5.9 6.8 9 14.2 17.8 19.8 21.2 27.5 36.1 39.6 39.3 46.1 44.5 50.9 64.3 79.4 90.7 92 90.4 80.7 71.4 64.6 60.2 48.8 37.2 26.9 19.6 14.7 13.5 11.7 9.2 7 6.3 6.3 6.3 7 7.6 6.7 6.1 4.5 4.2 4.2 4.3 4.5 4.7 5 5.3 3.7 5.8 5.9 6.3 6.4 6.5 7.6 9.9 30.2 45.6 55.2 65 60.4 66.1 69.4 70.7 71.5 71.1 66.6 59.2 49.6 37.4 33.7 31.2 27.8 21.7 14.7 11.4 12 14.1 16 19.3 28.6 38.1 45 47.7 53.1 56.2 67.6 73.9 76.8 80.8 83.3 82.4 78 79.8 82.7 97.8 108.3 130.4 144.4 168.3 184.5 200.6 211.2 224.2 238 242.6 241.1 237 231.8 220.7 210.2 202.4 195.7 190.3 185 183.9 186.3 193.6 204.7 210.7 216.7 219.6 216.9 208 202.9 181.9 173.6 169.1 176.7 171.4 162 146.5 129 112 97.4 93.6 89.7 83.3 80.4 78.8 82.3 81.5 79.5 78.3 78.1 79.8 79.3 80.3 77.8 77.1 74.3 71.2 68.8 65.4 56 52.8 49.7 46.5 46.8 46.8 46.3 46.2 46 47.6 45 44.2 44 44.3 43.7 43.2 43.1 48.6 55.2 54.2 51.2 57.2 63.6 63.8 68.4 77.2 89.8 102.9 110.7 118.7
28.5 32 28.4 12.1 5.7 5 5.4 5.5 5.3 4.7 4.8 3.8 5.6 5 3.6 5 6.3 7.5 10.9 14.8 18.7 19.6 20.5 23.8 28.1 31.3 34.6 39.6 41 41.7 53 66.9 81.3 84.9 85.2 84.5 74.2 63.3 58.5 51.2 36.3 28.3 18.7 11.9 10.8 10.7 9.8 8.3 6.3 6.3 6.4 7.5 7 5.8 4.9 5.1 3.9 3.8 4.5 4.6 4.4 4.6 5 5.3 5 5.9 5.8 6 6 6.2 7.7 25.9 45.2 58.5 66 72.3 60.8 63.5 65.9 67.3 69 69.8 64 53.7 43.4 36.1 30 24.2 22.5 17.3 11.9 9.9 14.3 16.2 16.5 19.9 26.2 36.5 42.2 46.6 49.7 55.3 63.6 64.4 64.4 72.4 73.7 72.8 70.5 78.1 82 97.5 109.5 127.8 149.2 175.1 197.2 212.1 219.4 232.7 241 246.1 244.3 242.6 232 224.8 217.7 205.7 193.8 185 181.8 176.6 178.4 182.1 191.4 196.1 204.1 205.3 198.1 191.8 187.9 177.1 167.9 174.8 176.4 169.5 156.7 140.7 124 107 98 91.7 88.8 81.7 79.3 79.1 81.2 81.9 80.9 81.3 83 85.5 86.8 86.2 86.4 81.4 78.5 75.1 70.2 68 61.6 56.8 52.3 47.3 47.3 47.7 46.9 46.9 47.7 48.2 47.1 46.2 44.6 46.4 45.7 44.6 43.3 40.6 44.4 48.3 49.9 56.8 59.6 66.9 66.1 71.4 84.7 98 109 120.3
19 20.7 16.5 6.1 5.8 5.4 5.2 5.6 5.3 5 4.3 5.4 6.1 6.4 6.3 6.5 6.8 9.5 13 17.8 20.6 22.1 23.9 29.4 33.9 33 33.8 37.6 38.2 42.5 53 66.5 75.9 74.3 73.9 71.5 63.3 58.1 48.7 38.9 32 22 15.1 10.9 10.3 10 8.6 6.7 6.6 6.6 6.8 7.9 6.6 5.1 3.9 3.2 3.6 4.5 5.5 5.4 4 4.5 4.8 5.1 5.4 5.5 5.7 5.8 5.8 6.4 17.3 39 55.4 62.2 73.7 64 62.8 61.9 67.9 66.6 65.8 68.8 61.8 49.8 40.7 33.9 27.5 21.1 17.4 12.5 10.4 9.9 14.1 16.1 16.5 18.4 22.1 30.8 39.3 43.4 47.1 50.3 53.4 55.1 57.2 62.9 64.5 64 69.9 77.8 83.4 99 112.9 141.1 161.2 189.5 206.3 214.2 226.1 236.3 238.7 237.8 234.7 230.9 231 228.8 216.9 207 193.2 179.6 176.5 172.4 168.8 170.5 175.2 180.2 190.6 188.3 179.4 174.6 173.3 167.4 167.3 175.6 175.1 159.8 144.6 131.6 120 104.4 96.2 89.4 86.4 81.9 79.6 82.1 83.6 83.3 85.7 90.6 91.5 94.1 94.5 93.8 92.9 87 76.8 72.6 70.4 68.3 67.5 59.8 56.5 51.1 50.4 47.9 47.6 48.4 48.6 48.4 47.6 47 46.7 47.1 47.1 46.5 43.4 44.6 39.2 45.5 48.9 52.1 57.7 68.8 66 70.1 82.6 97.7 110.8 124.2
10.6 12.6 7.6 5.8 5.7 5.8 5.5 5.6 5.3 4.9 3.3 5.2 6.7 6 6.2 7 7.9 9.7 14.5 17.5 20.1 22.5 28.7 32.5 32.6 32.6 34.1 35.7 37.8 45.5 57.9 65.9 66 64.6 63.8 60.8 57.6 55.6 44.7 33.4 28.2 21.9 15.8 10.1 10.4 10.7 8.5 6.8 6.9 7 7.3 7.7 7 5.7 4.2 4.9 5.7 6.4 6.4 6.3 5.4 4.4 4.6 5 5.3 5.9 5.7 5.7 5.9 6.8 27.6 44.4 49.9 72.1 71.2 56.8 61.1 66.5 68.3 67.3 60.3 62.6 57 46.5 35.7 27.9 23.6 18.4 13.3 9.6 8.5 10.8 14.4 15.8 17.4 17.9 20.5 25.8 37.3 45.5 41.5 46.6 47.6 49.3 49.3 56.6 61.4 66.4 72.4 81 91.5 104 122.3 149.9 171.6 190.2 203.8 210.3 223.6 230.4 228.1 224.2 222.9 223 228.3 224.8 217.3 206.7 196.3 183.6 174.6 165.1 162.9 162.6 164.2 167 170 164.6 158.4 156.6 161.5 160 166 172.8 169.8 160.2 139.2 130 115.6 102.1 94.7 90.2 85.6 85.2 82.3 83.2 83.2 85 89.8 97.5 100.2 101.5 97.1 98.2 93.9 84.5 77.7 70.5 69.3 76 72.6 62.3 57.8 54.5 50.4 47.3 50.4 50.5 51.6 52.9 49 47.8 49 50.3 47.6 48.1 43.3 44.9 41.4 41.7 48 48.4 55.9 62.7 63.1 71.5 85 99.8 114.9 130
6.1 7.3 6.5 5.7 5.9 5.9 5.9 5.5 5.1 5 4.2 5 5.8 6.8 7.4 9.1 8.6 10.9 15.9 18.4 20.7 27.8 33.8 35.7 36.1 33.4 32.9 34.9 38.6 42.5 50.5 57.4 62.2 69.1 62.4 52.3 44 39.5 35.6 31.9 27.8 21.6 13.6 12 13.1 11.6 8.8 7.5 7.4 7.4 7.3 7.3 7.3 6.2 5.6 6.9 7.7 7.4 7.8 6.5 5.4 4.5 4.5 4.8 5.1 6 5.7 6 6.3 6.8 24.5 38.9 53.6 66.3 58.4 58.7 59.7 66.4 63.6 60.5 58.7 56.4 49.4 39.5 29.1 22.9 18.7 14.3 8.4 7.7 9.1 11.6 14.7 15.5 17 17.1 17.7 24.6 32.8 43.5 38.8 37.9 38.4 41.2 48 59.7 65.4 68 72.6 79.2 97.2 110.7 130.1 150.9 171.4 185.2 193.1 200.1 200.2 203.7 209.1 208.8 212 214.2 223.2 221.1 217.3 211.4 193.3 181.8 168.8 162.7 159.1 159.5 155.5 151.8 152.8 153.7 146.6 149 151.2 152.1 157.5 163.6 163.7 157.9 143.7 125.5 112.7 102.5 94.6 91.4 89.5 85.4 91.1 91.7 87.2 90.3 97.8 103.4 105.2 105.7 100.8 96.2 87.8 83.4 76.8 69.4 68.6 75.2 70.9 63.6 60.3 53.8 48.2 53 55.7 55.6 55 52.6 52 51.1 54.3 54.8 47.3 46.1 44.8 42.8 41.2 40.9 46.2 46.6 51.8 56.3 61.4 74 88 103.8 120.2 134.7
5.4 6.4 6.2 6.1 6.4 6 5.6 5.2 5.4 5.5 5.3 5.2 5 6.8 11.8 11.3 10.9 15.1 20.6 22.7 27 33.9 35.4 37.3 37 34.8 33.9 35 37.3 39.8 47.6 63.1 63.2 59 49.1 39.4 31 29 28.9 26.3 25.6 20 17.3 16.4 16.7 12.2 8.9 7.9 7.9 8 8.3 7.7 7.2 7 8.5 9.4 9.3 8.6 7.4 6.6 5.6 5.2 3.6 4.7 5.2 4.1 5.8 6.2 6.1 6.3 15.7 33.2 53 54.7 55.6 62.7 56.8 60.7 57.5 55.7 53.3 49.8 38.1 27.5 23.6 19.6 13.1 9.5 7.3 7.8 9.5 11.3 14.3 16.6 14 14.7 19.4 21.3 28.3 32.7 33.6 30.9 34.1 40.7 53.4 60.6 63.2 68.1 77.6 90.7 101.7 119.2 134.1 149.4 166.5 177.5 174.9 174.5 175.9 177.9 188.6 197.7 206.5 205.9 212.8 217.5 215.5 208.5 190.9 183.1 170.3 162.2 159.1 154.2 151.5 148.2 145.1 141.3 140.3 141.7 140.3 141.7 145.4 162.3 158.1 151 135.5 122.5 111.5 103.8 95.3 92.7 91.4 89 91.7 95.2 94.1 94.3 103.1 107.8 106.5 103.5 99.7 99 92.2 81.5 72.8 68.7 67.8 74.5 69.9 62.2 58.6 49.7 54.8 58.2 61 59.8 58.5 55 53.2 52.7 56.7 54.7 46.4 45.2 44.4 41.8 40.6 43.6 44.7 46.5 48.8 52.7 62.4 75.7 90.2 105.9 122.7 136
4.8 5.5 5.7 6 5.8 6.1 6 5.3 5.4 5.2 5 5.9 6.3 11.4 12.2 13.2 16.6 20.5 25 28.8 33.1 34.3 35 35.1 33.2 34.3 34 34.1 36.6 46 53.7 59.8 59.8 49.3 36.2 29 25.3 25.3 25.8 26.2 23.6 19.2 19.7 19.8 17.1 11.7 8.4 8.5 9 8.8 10 9.1 8.6 10.5 12.4 14.3 12.5 8.1 7.8 7 6.6 6.1 5 4.4 4.8 4.8 6.1 5.9 5.7 5.9 11 26.3 45.3 49.3 59.1 61.1 56.4 52.4 46.8 47.2 44.4 35.1 25.6 19.1 19.9 14.4 8.9 6 6.3 7.3 9.1 10.9 12.8 13.9 11.5 16.8 16 17.7 22.3 20.8 23.8 28.1 41.6 44.1 50.9 56.9 68.9 76.9 86.6 98.6 106.8 124.4 136.9 151.5 159.5 154.8 151.8 150.4 156.5 164.9 178.4 186 193.3 195.7 199.4 194.3 194.6 196 185.5 173.1 166.1 159 155 149.5 146.2 142.8 139.1 135.2 133.1 130.5 129 134.8 142.3 152.5 148.1 141.9 128.9 115 107.4 100.8 94.1 91.6 89.5 89.5 91.9 93.5 96.2 100.6 104.4 104.1 102.6 103.2 102.2 100.1 94.7 87.6 76.4 67.4 65.6 61.8 63.7 61.3 50.3 53.9 62.1 63.1 66.3 64.6 61.3 56.5 53.4 51.8 55.7 53 45.5 44.8 43.2 41.6 38.8 40.7 43.4 45.3 47.8 51.9 63.4 77.1 91.8 107.2 122.2 135.4
6 3.8 5.4 5.8 6.2 5.5 5.3 5.7 3 4.8 4.9 5.6 7.2 10.2 12.9 15.9 23 26.6 32 37.1 37.9 37 35.7 32.3 32.5 32.9 33.9 36.7 43.2 44.7 50.4 53.2 50.5 37.6 28.9 25.3 25.3 25.5 28 27.2 20.9 19.5 23.4 24.5 17.7 10.8 7.8 8.9 9.6 10.6 13 12.7 12.2 12.5 14.9 14.7 9.4 8.6 9 9.1 9.8 6.8 6.2 3.6 4.8 5.5 4.9 5.3 5.4 5.6 6.9 16.1 32 46.2 56.3 56.1 44.2 43.9 41.4 42.6 33.8 21.9 17.7 14.9 13.5 10.1 5.3 5.6 5.8 7 8.8 10.4 11.1 9.2 12.1 15.9 14.1 15.8 16.7 19.8 25 35.9 46.1 49 56.6 66.3 76.1 86 95.3 106.6 117 129.3 141.1 148.6 144.2 139.5 138.7 140.7 149.3 156.3 169.9 171.5 172.5 177.6 177.7 180.4 175.2 169.9 168.8 162.6 156.9 152 149.3 144.5 139.3 134.6 129.5 126.2 121.7 121.1 119.9 129 132 139.5 137.5 132.8 124.2 110 102.4 97 92.4 90.7 89.2 88.7 90.4 92.3 95.1 99.3 104.7 102.2 105.7 108.4 101.3 98.5 98.2 88.1 75.3 66.7 64.6 59.2 57.6 53.9 51.1 57.3 63.9 65.9 68.6 67.8 64.5 59.7 55 51.4 54 50.4 44 43.4 42.2 41.5 39.8 39.8 43.5 45.1 48.1 51.4 63.6 78.5 93.5 108.5 122 135.9
5.3 5.3 3.4 6.6 6.1 5.3 5.5 4.8 5 5.4 5.1 5.7 7.2 11.4 13.2 22.8 30 36.1 43.3 45.3 42.6 39 31.8 31.8 31.3 34.5 42.9 48.1 45.4 44.1 41.6 42.3 36.8 30.2 25.8 26.3 27.1 30.5 32.6 26.5 20.7 23 28.4 28.4 16.9 9.2 7.2 8.9 10 12.9 15.8 15.2 14.5 14.1 13.9 12.2 9.5 11.8 10.9 11.3 9.9 9.6 9.4 3.8 4.7 5.2 4.7 5.5 5.4 5.5 6.3 12.7 26.6 42.7 49.9 41.4 39.6 44.6 41.5 33.6 23.8 15.2 11.8 10.7 9.5 7.7 5.7 5.5 5.9 6.5 7.9 9.6 9.3 7.9 10.8 10.4 11.9 13.6 16.1 23.7 30.3 39.9 49.6 56 67.9 75.2 83.5 94.6 104 112.4 123.1 132.3 141.8 143.6 138.8 138.1 138 138.5 144.5 149.8 156.3 154.6 155.1 164.5 160.3 155.5 155.9 153.9 153.1 153.8 151.5 148.9 146.3 140 133.5 127.6 122.7 119.5 117.3 115.3 115.2 116.8 117.8 123.7 129.1 125 116 104.4 99.6 94.3 90.6 91.6 89.5 87.6 87.4 88.5 93.3 97.1 96.6 101.5 104.4 109.4 105.3 94.6 95.7 89.3 76.2 66.8 66.3 61.8 55.9 52.8 52.3 55.9 62.8 65.2 70.5 69.6 65.5 60.9 57.5 52.8 51.4 47.6 44.5 44.6 44.2 40.9 40.3 39 44.1 45.9 47.4 52 62.9 79.1 95.9 110.1 124.2 138.4
4.9 5.2 4.9 5.2 5.2 4.9 5.1 4.9 4.9 3 5 5.9 8 11.2 17.1 30.2 36.7 46.2 48.4 47.4 41.7 33.2 29.4 28.5 31.9 41.5 51.1 48.2 42.4 36.8 34.4 34.4 29.8 26.6 26.3 24.5 31.1 35.3 34.5 24.3 22.1 25.6 30.5 30.8 18.1 9.5 7.9 8.8 11.2 14.3 15.6 16.2 17 17.4 14.9 14.7 12.3 11 13.9 13.8 10.7 10.9 8.1 4 4.8 5.3 4.9 5.7 5.5 5.3 6 9.6 25.2 43 43.1 36.1 41.3 40.4 34.9 21.3 14.2 12.4 9.2 7.8 7.7 6.2 5.2 5.4 5.8 6.3 7 8.4 7.9 8.2 7.8 9.2 11.4 17.7 19.9 31.3 39.9 44.9 57.1 67.1 81.8 89.6 95.4 101 110.6 117 123.1 127.8 134.2 138.8 137.7 138.1 139.4 139.7 142.3 143.8 144.3 145.8 148.1 147.5 144.5 143.7 144 146.6 150.8 151.6 149 146.2 142.5 136.6 130.8 125.3 121.3 118.7 117.1 116.2 114.5 112.7 113.9 117.8 119.4 114.1 106.5 99.1 96.2 93.8 90.1 91.6 89.4 87.4 87.5 88.2 90.2 90.2 95.9 100.5 107.2 110.9 104.1 92.6 90.7 84.6 75.3 68.7 68.9 61.7 60.7 54.9 53.3 58.7 64.4 67.1 72.3 71.5 67.8 63.6 58.5 55.1 49.3 46.8 45.7 44.9 43.2 41 39.4 39.4 43.8 46.7 48.6 52.1 64.4 81.5 98.6 112.9 127.3 140.4
4.7 4.9 5.2 4.8 4.8 4.7 4.7 4.8 4.9 5 3.4 6.6 10.7 16.4 24.9 34.7 42.4 50.8 48.6 42.4 30.4 28 28.6 36.6 40.3 46.6 47.1 47 45.2 37.2 32.4 31.6 28.3 26.3 23.6 27.2 34.4 38.3 32.9 23.7 23.7 29.1 34 31.5 18 9.6 8.4 8.8 11.1 13.5 15.7 17.2 18.9 16.4 14.7 14.5 12.8 14.6 16 14.6 14.3 11.6 8.8 4.1 4.7 5.2 5.7 5.8 5.3 5.3 5.5 6.5 26.9 35.1 34.7 34.9 37.9 35.3 25.2 10.4 7.1 7.5 8.3 7.8 6 5.5 5.5 5.1 5.8 6.4 6.8 7 7.4 6.8 6.8 8 15.4 21 29.8 37.7 46 53.8 66 80.2 88.8 98.6 104.7 108.5 111.8 119.7 122.7 125.6 132.9 137.2 138.8 146 145 142.7 142.6 143 142.9 140.1 140.7 140.9 141.8 142 143 145.9 151.2 151.6 148.5 144.3 141.1 137.2 130.3 126 123.1 121.5 121.4 120 116.4 112.1 110.7 111.3 111.6 105.4 101.8 99.9 97.7 93.9 89.7 89.4 88.8 88.3 86.7 85.6 84.7 85.4 91.8 105.4 106.5 105.3 100 94.2 87.9 80.8 73.3 69.5 69 64.5 60.2 54.8 54.5 65.9 67.1 71.6 74.4 75.2 70.2 65.4 59.2 53.8 50.2 47 45.9 44.9 44 41.5 39 38.9 44.9 47 48.2 53.6 67.3 84.7 101.3 115.8 130 141.9
4.5 4.7 5.2 4.5 4.5 4.4 4.7 4.8 4.6 -2.6 -2.6 9.6 13.8 20.3 30.5 40.7 49.5 50.2 45.1 34.9 27.4 27.5 32.1 40.2 46 51.9 47.7 46.5 42.7 32.3 30.6 30.7 27.5 24.5 26.4 30.5 35.7 36.8 29.7 26.8 29.3 30.6 37.3 27.6 17.6 8.9 8.9 8.8 10.5 15.6 18.5 17.1 19 16 15.3 14.5 15.8 16.8 15.6 17.2 14.6 11.4 8.7 4.3 4.7 5.2 5.7 6.1 6.1 5.6 5.3 6.9 17.5 28.9 32.6 30.5 31.8 24.5 12.9 6.6 6 6.2 6.3 5.8 5.4 5.8 5 5.5 5.7 6 6.1 6 5.9 5.9 6.5 10.1 19.4 29 36.6 44.6 55.1 65 76.5 88.4 98.2 102.7 109.3 116.3 122.7 124.9 126.5 133 138.6 143.1 145.7 149.5 145.9 146.2 144.2 141.3 140 139.7 140.1 140.9 142.3 145.4 150.4 154.9 153.5 151 148.5 143.3 140.2 135.9 133.8 129.6 127.5 126.1 123.3 118.9 114.8 112.9 110.7 111.7 107.4 104.7 104.2 99.1 97.7 95.3 91.8 89.5 89.3 92.1 87.6 83.8 81.9 80.7 88.5 95.3 98.4 94.1 91.3 91.9 86 79.9 73 73.5 71 67.8 63.3 53.8 62.2 69 73.9 77.6 78.8 75.9 73 68.1 61.9 56.8 50.8 47.6 45.7 44.8 44.2 42.3 38.7 38.1 44.8 46.5 48.1 55.8 70 87.5 104.6 119.4 133.3 144.9
4.7 4.5 6 4.2 4.9 5.8 5.6 5.3 5 -2.6 -2.6 15.7 18.6 24.9 34.5 45.2 49.9 46.8 39.5 31.7 26.9 28 34.5 43.4 52.6 54.5 44.9 44.8 35.6 28.7 26.4 26.9 25.9 26.2 29.6 32.4 33.7 31.8 31.4 32.3 29.6 30.2 30.3 23.6 15.3 8.7 8.7 8.7 10.1 16.2 19.1 20 19.1 17.4 16.8 19 18.3 16 18.5 17.9 15 11.8 7.9 4.4 4.7 5.2 5.6 5.8 6.4 5.7 5.5 6.2 15.2 22.8 27.3 26.1 20.9 12.7 6 5.8 5.6 5.4 5.3 5.3 5.2 5 5.3 5.2 5.2 5.3 5.7 6 5.7 6.2 8.3 14.3 24.8 36.9 43.2 55.4 63.8 71.3 85.8 91.9 102.3 108.9 115.9 123.8 129.2 132.3 135.9 144.8 146.7 150.5 155.1 151.3 148.7 148.1 145.7 144.5 141.5 139.8 139.6 142 142.5 148.6 152.2 152.7 150.3 147.2 145.1 141.2 140.7 138.5 135.6 132.7 130.4 126.8 124.7 118.6 114 112.2 110.3 110.4 105.2 103.3 100.5 98.6 96.7 95.5 92 92.7 95.6 92.7 87.5 85.8 85.1 79.3 83.8 88.1 93 90 88.2 85.1 85.5 82.9 76.7 74.3 71.8 68 60.8 54.5 71.1 75.3 80.8 83.6 82.7 77.3 76.3 71.6 65.9 58.6 51.9 48.6 46.4 44.9 44.5 43.2 39.3 37.3 43.6 46.1 49.8 60.3 73.1 90.6 108.3 124.6 137.1 148.1
4.3 4.4 4.4 4.9 5.7 5.6 5.4 5.2 5 -2.6 8.4 18.2 22.2 26.8 38.8 46.6 47.3 42.3 35 30 26.3 30 39.3 51.1 51.3 42.9 36.1 32.2 27.7 21.9 23.8 26.7 24.1 28.4 32.6 33.7 29.4 29.5 31.5 31.2 31.4 34.1 31.2 23 13.9 8.6 7.9 7.9 10.1 17.8 19.1 19.3 18.6 19.2 21.3 21.4 18 19.8 20.5 17.6 15.9 10.1 7.5 4.5 4.7 5.2 5.4 5.5 5.9 5.8 5.4 5.5 10.9 17.4 22.1 19.6 14.4 8.2 5.4 5.2 5 4.4 5.5 5 5.5 5.7 6 6.2 5.9 5.8 6.2 6.4 6 6.8 15.9 25.8 32.1 43 51.2 60.3 72.9 83.9 96.1 100.5 108.9 117.5 121.2 129.3 136.4 140 147 152.3 157.6 157.3 162.3 161.2 159.6 154.8 148.8 142.7 140.4 139.5 139.8 142.1 143.1 146.3 149 150 145.6 144.4 142.8 143.2 143.3 140.8 135.2 134.1 130.2 125.4 120.8 114.1 112.6 113.5 112.5 112.3 107.6 104.4 103.3 100.8 98.5 101.9 97.7 100.3 100.7 96.1 88.6 86.9 84.8 78.8 80.8 80.3 81.2 82.3 82 81 83.3 78.1 74.1 74.9 71.5 65.5 60.3 57.8 77 83.9 91.2 92.6 86 82.1 81.4 74.5 68.2 59.5 52.3 49.6 48.2 47.7 44.4 42.8 40.3 37.7 42.1 45.5 53.4 65.7 79.6 96.1 113.4 129.9 140.4 151.6
4.3 4.3 2.5 5 4.6 4.3 4.2 5 4.6 -2.6 8.7 18.6 26.6 30.7 41.7 45.3 43.4 36.8 29.8 26 26.8 32.8 46.1 48.1 37.1 33.2 28 24.1 18.8 23.7 26.1 25.1 26.4 31.9 33.1 30.7 27.8 29.1 30.6 33 38.6 42.5 35.1 25.2 15.2 8.6 7.6 7.7 9.4 14.1 15.8 18.9 21.8 23.2 24 21.3 21.7 21.8 19.4 18.7 14.8 10.1 7.4 4.6 4.8 5.3 5.5 5.7 5.6 5.8 5.5 5.6 7.5 11.8 14.4 13.1 8 5 5.4 5.3 5.1 5.2 5.3 5.9 6.6 6.5 6.4 6.3 6.4 6.2 6.5 6.5 6.4 10.3 21.5 31.8 40.5 47.5 60.2 72.3 82.3 90.6 102.9 109.3 118.7 123.5 128.3 135.1 142.2 148.4 154.3 160.7 161 163.8 163.3 161 154.2 149.1 144.4 139.7 138.4 137.4 137.9 139.8 142.3 145.4 148.1 145.6 143.8 143.5 143.1 143.3 143.8 137.9 133.4 131.7 127.3 123.4 119 112.6 113.1 115.4 115.2 114.9 111.4 107.3 105.4 107.7 108.2 108.6 106.2 106.4 106.5 100.1 95.7 88.9 83.1 76.9 76.3 75.8 77.5 77.1 78.2 76.1 76.9 72.3 72.3 75.8 66.8 61.5 56.3 63.2 82.3 93.6 91.5 93.9 88.9 88.1 85.2 76.5 68.6 58.3 51.5 49.7 48.3 48.4 47.2 42.8 40.6 36.4 40.6 45.7 57.3 71.1 86.8 103.1 118.8 133.5 144 154.4
4.3 4.2 2.5 3.4 4.7 4.9 4.4 4.7 4.7 -2.6 10.2 19.3 27.4 37.4 41.1 42.9 38.8 33.2 25.5 25.6 23.9 29.9 33.5 29.8 28.8 27.5 23.5 18.1 17.9 21.4 26.9 23 28 30.9 30.6 27.3 27.1 29.6 35.9 40.1 45.6 46.5 36.7 25.2 14.6 7.7 7.2 8.6 11.8 20.3 20.2 19.3 23.8 26 25 24.1 24.5 22.2 19 18.7 13.2 10.3 7.5 4.8 4.8 5.4 5.5 5.5 5.5 6 5.5 5.7 5.5 6.2 8 7.5 4.5 4.8 4 5.4 5.7 5.7 6.1 6.3 6.6 6.5 6.4 6.4 6.5 6.5 6.6 6.9 11.1 19.4 29.7 39.9 50.2 57.8 68.8 81.5 92.7 100.6 115.4 120.1 124.5 128.3 133.9 143.9 148.1 153.6 160.5 166.6 168.7 161.3 154.4 147.5 143 141.6 138 132.8 133.1 133.8 138.4 139.4 143.1 145.8 146.9 145.1 146.3 146 143.3 140.1 137.9 135.1 131.4 126.3 122.6 120.4 113.8 112.1 115.3 118 116.7 118 115 111.5 114.5 114 115.1 115.6 113.7 117.8 116.3 108.8 98.8 89.7 84.4 78.5 77 75.2 73.9 74.7 71.8 74.5 73.4 67.5 66.6 64.4 58.5 60.1 60.2 64.8 72.7 85 89.3 89.9 90.6 89.6 87.5 76.3 67.4 57.4 50.8 49.2 48.1 49.9 47.8 43.2 39.6 37.1 39 45.5 59.5 76.7 93.4 108.7 123.2 136.8 149.1 156.9
4.3 4.1 3 3.4 4.4 5 4.3 4.4 4.6 -2.6 9.5 20.9 34.5 39.9 42.2 40.3 34.7 29.2 23.4 21.3 23.8 27.5 27.2 23.7 23.3 21.3 17.6 16 15.7 24.5 21.6 24.2 28.8 29.3 26.5 24.4 28.9 37.8 46 52.3 53.7 48.6 36.8 23.2 11.3 7.3 7.1 7.9 14.4 20 18.9 21.8 24.1 26.2 26.7 25.8 24.8 21.3 18.5 16.1 13.7 11 8 4.8 4.8 5.4 5.4 5.8 3.2 5.9 5.3 5.3 5.3 5.5 5.3 5.2 5.4 6.1 6 6.3 6.2 6.9 6.9 7.5 7.1 6.6 6.3 6.5 6.6 6.8 8.8 15.7 24.3 32.9 36 42.4 56.5 68.9 81.9 91 96.3 106.6 119.6 127.4 130.3 134.7 140.3 149.4 158.1 161.2 167.5 170.2 162.4 152.8 145.8 141.1 137.4 135.3 133.2 131.3 132.9 134 137.6 140.7 142.2 144.3 147.6 150.6 147.7 145.5 142.2 138.3 133.1 130 128.6 123.4 120.1 116.8 113.8 112.4 117.5 122.2 122.3 121.2 120.2 118.6 121.2 122.8 123.6 120.3 119.5 128.3 121.4 110.4 101 92 85.4 80.8 78.5 78 74.1 72.9 70.5 68.5 66.7 66.6 61.2 59.7 63.2 62.6 62.8 65.4 68.4 80.7 86.3 89.7 92 88.3 83.3 73.3 63.8 56.2 50.8 48.8 48 47.8 46.1 41.9 36.8 36.8 38.4 46 64.7 83.9 101.5 116.2 128.7 140.2 150.6 157.7
4.3 4.1 -2.6 -2.6 3.5 4.9 4.6 4.8 4.8 -2.6 15.6 27.1 36.9 39.7 40.1 37.5 33.5 27.3 20.6 21.3 25.4 25.1 23.2 20.2 19.8 17.4 13.5 13.2 18.7 20 22 26.4 27.4 25.1 23.6 27.1 39.2 50.7 56.5 59.6 60.4 49.6 34.5 20.4 9.3 7.3 6.5 7.7 13.3 14.8 18.6 22.6 25 26.9 28.6 25.9 22.3 18.5 17.1 16.5 13.7 11 7.1 3.7 5.3 5.3 5.3 5.3 4.2 5.9 5.4 5.1 5.1 4.3 5.4 6 6.3 6.9 7.6 6.6 6.5 7.1 8.7 8.5 7 6.6 6.3 6.5 6.5 8.9 13 28.1 32.8 39.7 46.4 51.9 62 79.7 90.7 96.8 100.2 115.3 125.1 130.4 134.1 139.7 146.6 151.3 158 162.6 164.5 164.7 157.2 148.4 139.9 135.8 132.3 134 131.3 129.7 129.5 131.8 136.5 138.8 141.9 155.1 155.5 149 141.8 138.8 137.6 133.2 130.7 126.3 124.4 122.6 118.8 116.8 113 113 122.7 128.5 125.5 124.4 122.8 123.4 129.4 128.1 125.1 127.1 131.7 133.9 125.4 116.4 103.9 93.9 87 79 77.6 75.2 73.1 74.2 74.4 67.5 62.9 61.6 60.4 60.7 60.6 61.5 64.2 65.7 70.5 81 82.6 88 91.6 89.7 81.4 72.1 62.1 55.3 50.9 47.8 46.3 46.5 43.8 39.9 36.4 37 38.5 52.2 71.7 91.4 109.5 124.4 136.4 148.6 155.8 158.5
4.7 4.7 -2.6 -2.6 -2.6 3.4 -2.6 -2.6 -2.6 -2.6 20.3 29.5 36.7 38 37.2 34.7 31.2 23.3 16.5 19 20.2 18.6 17.9 15.1 14.7 12.3 10.9 12.5 14.9 21.6 27 25.9 26.4 21.5 22.9 34.8 50.7 59.8 64.5 64.8 59.1 46.6 32.1 18 11.9 7.8 6.4 8 9.4 13.7 18.1 23.1 25.2 27.9 27.1 24.1 20 19.3 19.1 14.6 12.2 9.9 6.5 4.9 5.2 5.2 5.2 5.1 5 5.3 5.2 4.4 5.5 6 6.4 6.9 7.2 8.2 8.3 7.9 7.7 8.4 8.9 8.1 6.7 6.4 6.3 6.6 12.1 19.8 23.6 26.9 34.6 43.5 49.8 54.8 71.2 81.6 97.1 102.4 109.2 123.6 129.9 132 139.2 145.7 153 159.9 165.6 172.4 170.2 160.9 151.7 144.2 136.7 133.5 130.9 130.8 129.8 128.7 128 128 129.5 138.7 143.3 146.9 147.2 143.8 136.3 132.4 129.1 127.2 126.3 124.4 122.9 118.9 117.5 117.1 112.8 117.2 124 128.7 126.9 124.1 124.1 128.4 132 140 139.1 135.3 141.2 140.9 132.6 123.3 108.6 95.5 87.5 82.7 77.3 74.1 72.1 71.2 70.2 64.2 62.5 61.8 61.4 61.3 60.3 61.7 64.6 65.4 70.6 78.1 85.1 89.3 86.8 86.1 79.2 71.4 62 55.2 51.2 47.8 44.3 44.2 41.9 38.4 36.3 36.7 40.2 57.9 78.9 99.2 118.4 133.6 144.9 154.6 158.7 159
5.1 5.2 5.1 -2.6 -2.6 -2.6 -2.6 -2.6 -2.6 13.9 24.8 31.7 35.3 34.8 33.8 31.7 25.9 17.3 13.2 14.9 19.5 18.2 13.8 11.1 10 9.4 11 11.3 20.7 26.8 27 24.9 24.2 21 31 43.9 56.5 62.8 66 61.3 52.6 40.4 27.2 17.5 14.2 8.7 7 6.7 7.9 14.8 19.3 23.3 26 25.6 23.7 22 17.7 17.7 14.2 10.7 9.5 3.7 5 4.8 5.2 5.2 5.2 5.3 5.3 5.6 4.6 5.7 6.1 6.4 6.7 7.3 7.2 7.2 8.2 8.6 8.8 8.9 8.8 8 6.8 6.3 6.4 6.8 12.6 26.3 29.4 33.8 40.2 43.7 50.5 60.2 76.7 92.1 104 105.5 115.7 125.3 129.6 134.7 143.3 154.5 162 164.3 172.7 170.1 163.5 152 146.3 140.5 134.9 132.5 130.4 129.8 129.7 130.4 128.1 125.6 126.8 129.3 131.4 137.8 141.8 136 130.8 125.8 127.1 126.8 124.2 121.5 119.4 117.1 112.9 108.8 106.5 119.2 125.6 127.9 126.4 125.7 128.4 134 136.9 145.5 146.8 145.2 143.8 137.5 132.3 123.9 112.8 103.2 90.1 81.9 77.4 73.1 71 68.4 65.7 63.7 63.9 64.5 62.4 61.9 61.9 63.5 64.8 65.1 70.3 82.5 84.9 83.8 83.7 80.8 78.9 69.7 61.6 54.8 50.9 46.6 42.9 41.8 39.7 37.2 36.2 36 44.4 64.3 85.9 108 128.3 144.2 154.4 157.7 160.3 157.9
5.3 5.1 4.7 4.8 -2.6 -2.6 -2.6 -2.6 7.2 16.3 26.8 30.8 33.3 32.2 30.5 25.5 17.4 11.4 10.7 12.7 17.4 14.2 9.8 8 8.7 8.7 9.3 15.6 25.6 26.5 25.3 19.8 17.6 26.6 42.3 55.1 63 61.4 59.9 53.4 43.5 33.2 21.4 17.9 13.7 8.7 7.1 6.8 7.6 13.2 20.1 22.7 21.9 20.6 21.1 18.7 19.7 15.5 7.8 6.8 4.6 4.7 5.3 5.1 5.2 5.2 5.3 5.3 5.3 3.2 5.6 5.4 6.6 6.7 7.3 7 6.8 6.7 6.8 6.9 7.4 8.7 8.1 7.8 6.7 6.3 6.4 10 23.3 32.1 36.4 38.4 41.1 50.2 59.4 73.6 86.5 98.4 106.5 109.4 119.5 127.9 132.8 139.8 151.5 160.4 163.1 171.2 169.8 161.5 153.7 146.9 145 140.2 134.8 131.5 130.5 131.8 129.6 128.9 127 128.3 124.6 124 124.5 127 127 122 122.4 122.1 119.8 121.2 120.5 120.1 113.9 113.3 111.8 104.6 105.1 109.5 121 123.2 124.2 126.8 134.6 145.5 142.1 148.9 148.8 151.2 139.7 137.7 133.4 126 114.9 104.4 90.6 78.5 75.1 71.4 69.2 66.4 65.1 65.2 64.7 64.9 64.1 64.2 64.6 65 64.3 64.7 68.9 79.9 81 80.9 79.2 78.1 78 70.8 61.4 53.8 48.8 44.4 42 40.7 38.6 37.1 35.1 37.4 49.5 70.8 93 115.8 138.7 152.6 157 158.6 157.9 156.2
5 4.7 4.5 4.6 4.6 4.8 -2.6 -2.6 10.3 17.8 25.6 30.3 30.4 30.6 27.5 21 12.2 8.7 10.4 11.9 12.3 7.7 6.4 7.1 8.1 8.5 12.6 23.3 26.5 25.4 21.1 15.2 17.2 32.2 52.6 61 60.8 56 52.5 42.6 32.6 24 18.2 17.2 12.3 8.2 7.2 7.2 10 12.6 20.9 23.1 21.3 18.7 14.1 14.2 19.5 12.9 6.7 5.2 5.5 5.5 5.3 5.3 5.2 5.3 5.4 5.3 5.3 3.2 5.6 5.8 6.1 7.8 7.9 7 6.6 6.6 6.6 6.6 6.8 6.7 6.6 6.6 6.7 6.7 13.4 18.3 25.9 35.5 35.1 37.6 45.6 55.4 67.1 83 94.6 102.3 107.5 118 125.9 133.2 139.6 149.2 155.3 156.3 159.2 162.2 160.9 158.1 152.9 148.5 144 140.3 134.3 131.1 130.7 131.8 130.7 131.6 129.4 126.7 124.4 122.8 120.6 119.9 119.3 119 119 117.2 115 112.8 111.8 111.1 110 107.8 105.6 105.1 104.3 104.1 107.8 115 121.9 128.2 130.3 134.7 136.9 146.1 147.7 146.5 135.9 132.1 127 121.3 109.9 98.4 83.2 75.2 72.3 69.7 67.1 67.3 66.7 65.4 65.5 65 65.7 65.8 67.1 67.9 67.6 64.5 66.6 67.8 66.6 70.2 77 75.9 77.4 70.6 58.7 51.8 46.6 43.8 42.4 41.1 39.4 37 36.4 38.3 54.6 77 99.7 122.7 143.3 152.8 150.4 152.2 151 149.3
4.6 4.5 4.4 4.5 4.6 4.6 4.7 -2.6 10.1 18.5 26.5 29.6 30.3 27.7 22.8 15.6 7.7 7.5 8.5 8.5 6.3 5.9 6.1 7.4 8.7 11.8 16.9 22.3 25.2 22.9 14.8 12.4 20 37.5 48.7 54.2 51.1 46.3 39.3 30.1 22.8 20.1 20.5 18.7 12.7 8.3 7.1 8 12.5 16.4 23.1 21.4 19.3 15.4 11.3 14.9 11.5 6.9 4.6 5.5 5.5 5.4 5.5 5.6 5.5 5.5 5.5 5.5 5.5 5.4 5.5 5.6 5.9 6.9 7.6 7 6.6 6.4 6.4 6.4 6.5 6.3 6.3 6.2 6.4 11.1 16.7 24.1 29.4 31.5 36.2 40.8 48.8 60.2 73.3 86.6 96.2 104.2 111.3 128.5 131 139.5 149.5 155.2 152.3 152.1 153.4 152.9 152.7 153.5 151.9 148.6 144.3 139.8 138.6 133.4 131.1 130.8 133.5 133.7 130.4 127.2 125.8 125.8 123.7 121 121.5 122.5 118.3 119.1 120 118.6 113.7 110.3 108.1 107.4 105.6 104.8 103.7 102.7 101.3 104.6 108.6 112.3 115.1 115.1 120.1 127.9 135.4 129.1 130.8 123.2 115.9 107.1 100.2 88.1 76.8 72.2 69.9 68.8 68 71 69.1 68.4 68.1 68.4 68 68.5 67.7 68.3 67.3 63.8 64.5 67.7 65.8 65 65.3 68.3 70.4 64.9 54.6 48.8 47.6 46.6 43.8 42.6 40.2 37.1 35.5 38.5 57.4 79.7 101 119.9 135.3 142.1 142.6 140.9 140.1 139.4
4.5 4.5 4.5 4.6 4.6 5 -2.6 -2.6 12.5 22.5 28.9 32.2 28.8 23.1 16.1 9.2 6.3 6.6 7.4 6.2 5.8 5.4 5.9 7.9 12.9 15.3 19 25.4 24.6 17.2 12.1 13.7 24.2 38.8 43.5 44.8 43.4 36.8 27.1 20.6 18.3 22.9 25.1 22.3 17.3 10.3 7 6.4 9.9 16.4 21.4 20.2 15.9 12.1 11.4 12 6.4 4.5 5.2 5.8 5.6 5.4 5.7 5.9 5.7 5.6 5.7 5.7 3.2 5.4 5.5 5.2 5.4 6.5 6.7 6.7 6.6 6.5 6.1 6.3 6 5.9 6.1 6.6 14.8 18.4 22.3 30.4 32.9 33 38.6 43.4 54.7 66 76 87.4 99.1 108.2 117.4 132 144 153.1 154.4 150.2 149.3 148.8 148.8 148.5 148.5 152.9 150.1 149.1 143.9 140.5 137.6 133.7 130.6 137.8 132 129.7 127.6 126.6 126.5 126.3 126.7 121.9 121.2 122.4 122.2 125 125.9 124.8 117.8 114.9 111.1 108.9 106 105.2 104.4 103.4 102.6 102.2 103.5 107.8 110.2 111.2 110.8 109.4 112.2 116.1 117.2 111.4 105.4 92.3 86.8 79.3 73.2 71.3 71.3 71.1 70.2 69.1 69.2 68.7 70.7 69.5 68.2 65.9 65.8 68 64.4 63.3 64 64.1 64.8 68.3 65.9 66.5 64.6 60.3 53.6 50.8 51.5 50.4 46.1 45.3 40.8 37.1 35.4 39.2 55.3 72.2 87.6 104.1 116 123.3 129.2 130.7 130.9 130
4.7 4.6 4.6 4.6 3.5 4.5 -2.6 -2.6 14.7 26.6 29.6 29.3 22.7 18 12.7 6.5 6.1 6.2 6.3 5.9 5.4 5.5 6.1 8.8 13.9 17.9 26.1 28.3 23.5 12 11.9 17.1 30.3 37.2 40.1 40 37.6 27.7 19.8 17.5 21.1 27.9 28 26.2 22.1 10.8 6.7 6.2 12.4 14 16 17.1 13.9 15.2 8.3 4.7 4.8 5.3 6.1 6.6 6.7 6.6 6.6 6.4 6.4 6.1 5.9 5.7 5.7 5.3 6.2 5.5 5.4 5.3 5.9 5.8 5.6 5.6 5.5 5.1 5.4 5.5 8.1 17.9 22.5 27.8 30.2 34.5 36.4 36.8 41.9 46.7 56.4 67.4 75.9 89.6 96.6 110.8 123.1 139.2 156.3 155.2 147.9 146.4 146.7 145.9 147.7 148.5 149.9 154.3 151.7 147.8 145.5 140.6 136 130.6 132.2 130 129 128.1 127 127 126.8 125.1 123.3 126.5 127.5 128.1 128.5 128 127.3 125.5 126.2 122.9 120.6 117.2 110.4 108.1 105.7 104.3 103.6 103.4 102.2 105.8 107.7 108.7 108.3 104.9 99.7 100.9 103.1 100.4 92.9 86.8 80.8 76.2 73.4 75.8 74.9 72.3 71 69.4 69.4 68.9 67.7 67.5 67.4 65.4 64.1 64 62.6 62.6 61.7 62.9 68.8 73.4 72.1 69.6 64.5 59.6 55.1 53.5 53.5 51.3 49 44.5 40.1 36.1 34.7 39.3 50.1 61.5 72.6 87.8 100.3 108.5 116.2 120.3 123.3 123.5
4.7 4.6 4.7 3.8 4.7 -2.6 -2.6 -2.6 18.6 28.3 28.4 25.3 18.5 13.3 9.4 5.8 5.8 5.7 5.8 5.7 5.4 5.8 6.1 7.3 14.6 27.2 30.3 27 17 11.8 11.7 21 26.3 33.7 37.7 35 29.9 17.9 17.8 22.1 26.8 31.7 33.7 31.3 20.2 12 7 6.1 7.3 6.8 9.7 13 14.9 9.6 3.2 5.4 6 6.5 7 7.4 7.7 7.8 7.5 7.1 7.1 6.7 6.1 5.6 5.3 5.3 3.7 5.4 5.4 5.5 5.5 5.3 5.3 5.3 5.4 5.5 5.6 6.5 13 20.9 23.7 34 36.6 38.2 40.4 41.9 46.9 53.3 62.1 70.6 80.9 88 96.7 111 127.4 140.4 151.9 145.2 141.1 145.6 147.9 148.9 148.3 147.6 153.8 156.1 150.4 147.5 141.5 132.5 134.3 131.1 127.8 127.8 127.3 126.9 127.1 128.2 126.3 125.9 127 130.8 134 132.7 132.6 131.9 133 129.8 126.9 125.1 124.8 124.4 117.9 113.7 110.9 110.1 110 107.9 107.2 105.5 102.1 102.4 103.3 101.9 98.1 92.6 90.5 87.9 85.9 82.3 77.1 78.3 80.6 80.5 78.6 74.7 72.6 70.7 70.7 68.3 69.6 71.1 66.8 64.2 64 63.4 62.7 62.2 62 65.3 70.9 77.9 77.3 71.8 64.6 58.2 55.7 57.1 53.1 50.4 49.1 41.5 38.8 35.7 34.7 39.4 46.5 51.1 58.3 73.7 86.6 96.3 105.2 112.5 116.9 117.7
4.9 4.9 4.3 4.7 4.7 -2.6 -2.6 13.1 24.8 27.8 26.4 21.4 14.7 8.6 6.1 5.5 5.5 5.5 5.5 5.4 5.6 5.8 6.1 8.8 23.2 33.7 31.2 23.8 14.7 12.2 12.3 18.2 24.4 33.6 31.7 29.7 20.8 14.4 20.1 25.8 32 38.3 40.5 29.2 20.1 14 8.4 6.5 5.9 5.9 7.3 13.1 10.3 6.5 5 6.3 7 7.4 7.7 8.2 8.6 8.6 8.2 7.9 7.7 6.8 6.1 5.5 5 5 4.9 4.4 5.3 5.4 5.3 5.5 5.7 5.7 5.6 5.7 6.8 13.2 14.7 24.5 33.6 43.9 43.4 42.6 46.5 49.5 53.4 59.3 66.6 73.4 80.6 96 103.7 117.2 130.5 143.2 146.5 137.2 144 147.2 151.9 150.4 147.5 147.7 152.9 152.7 145.9 136.7 131.3 132.3 137.8 132.4 127.4 127.4 126.5 127.1 126.5 127.3 126.3 127.1 128.2 129.4 133.1 135.2 135.7 137.1 136.6 134.4 129.2 130.3 129.5 126.6 123.9 122.7 119.7 117.3 117.1 114.5 111.5 110.9 109.4 107.2 102.3 98 94 90.1 88.7 85 81.3 81.3 84.4 86.2 86.1 82.4 79.3 74.8 73.5 71.2 69 67.8 67.6 66.4 65.2 64.8 66.3 66.4 65.9 62.2 64 67.5 69.9 75 73.6 68.2 62.5 56.7 57.8 58.4 54 49.2 46.6 40.8 38.4 36.8 34.4 37 41.8 47.2 53 60.9 73.3 84.2 95 103.8 109.4 115.6
5 4.9 4.5 4.7 5 -2.6 -2.6 18.4 25.1 25.4 24.4 16.4 8.3 6.8 5.6 5.6 5.6 5.5 5.5 5.4 5.5 5.7 6.2 14.3 32.6 33.7 29.6 21.5 16.9 12.4 13.6 14.9 24.2 31.3 26.4 22.3 15.1 12 22.5 31.1 39.8 46.8 38.4 28.5 20.5 14.5 7.8 6.3 5.8 6 6.3 7.9 6.1 4.4 5.9 6.7 7.6 7.9 8.4 8.8 8.7 8.5 8.6 8.4 7.9 6.8 6.2 5.5 4.9 4.5 4.7 5.4 4.5 5.3 5.5 5.7 6.2 6.4 6.1 6.4 9.5 14.7 26.6 38.7 46 48.2 48.3 48 51.6 56.8 59.3 62.4 66.9 72.7 81.3 94 104.4 116 128.8 138.8 134.7 140.5 144.8 145.5 148.4 146 150.3 153 151.4 148.8 135.4 129.7 136.9 136.3 133.6 130 126.4 126 124.9 126.9 126.3 125.4 124.9 126.1 125.8 126.8 130.2 135.5 139.7 137.8 138.1 136 136.1 137 135.6 132.4 128.8 127.4 124.7 122.8 121.7 119.9 117.4 115.9 113.6 110.6 105.6 101 97.1 93.7 86.8 87.1 88.9 89.7 87.9 85.1 83.1 80.7 77.7 74.7 72.7 71.3 71.1 69.6 68.6 67.7 67 66.6 65.2 66.9 63 62.6 67.4 66.6 66.7 68.5 67.1 63.8 60.3 56.8 63 58.5 53.1 47.7 44.3 41.8 38.7 38.4 33.9 35.9 41.9 54.1 56.9 54.6 63.3 75.8 87.6 97.3 105.8 112.6
4.9 4.1 4.6 4.3 4 -2.6 -2.6 15.6 22.7 23.3 19.2 10.2 6 5.4 5.6 5.6 5.6 5.5 5 5.2 5.4 5.8 6.9 21.1 35.3 34.2 28.2 19.9 13.8 12.2 12.9 14 20.3 25.3 18.9 13.5 9.8 11.7 26.1 38 47.8 47.3 39.6 25.2 17.2 15.7 11.4 6.1 5.9 5.8 5.4 5.1 5 4.8 5.4 6.1 7.1 8.4 8.7 8.9 8.7 8.5 8.4 8.7 7.8 6.6 6.2 5.5 5 4.5 4.9 5.5 5.2 5.5 5.7 5.9 6.3 6.7 6.8 8.8 13.2 24.1 39.8 47.1 48.8 54.5 53 54.7 56.8 61.6 63.3 64.3 69.6 75.6 83.8 95.1 105 116.1 124.6 128 135.5 146.4 152.2 147.9 145.9 141.5 145.7 146.1 138 130 128.5 137.1 138.1 131 127.8 126.1 122.6 124.4 122.3 126.1 125.2 124.4 124.5 124.3 124.6 125.3 128 130.4 137.4 144.5 147.9 146.4 143.3 141.9 138.7 135.9 135.8 132.4 131.5 128 126.5 126.7 123.3 121.4 117.8 110.2 105.4 100 95.2 90.4 93.5 97.9 99.6 95.9 90.6 86.7 82.2 78.9 76.5 74.2 72.7 71.2 71.3 70.9 68.7 67.8 67.1 66.3 64.4 63.3 62.5 66.2 68.3 65 62.6 60.9 60.9 60 58.5 57.7 59.4 55.5 48.6 44.8 42.8 41.1 37.7 35.6 33.7 36.7 48.1 58.3 56.5 55.6 62.2 71.4 81.5 92.2 103.6 115.2
5 4.2 4.6 4.4 3.8 -2.6 -2.6 14.7 19 18.6 11.7 5.8 5.9 5.3 5.5 5.5 5.5 5.5 5.3 5.4 5.5 6 7.3 27.4 36.4 31.9 24.9 19.9 12.6 9.9 9.6 14.4 17.4 18.7 9.8 7.9 9.6 16.7 29.8 43.4 46.8 40.5 32.2 19.2 15.9 13.5 9.3 6.2 5.6 5.5 5.2 5.4 3.2 4.9 5.4 6.1 7.6 8.7 8.8 9 8.8 8.5 8.3 8.6 8 6.2 5.4 5.2 3.9 5.8 5.6 5.6 5.6 5.8 5.9 6 6.4 6.8 9.3 13.6 21.8 30.3 45.9 50.5 56 58.3 60.5 64.7 64.9 63.2 62.5 67.1 73.6 80.7 83.3 94.9 103.9 111.5 116.7 139.5 152.8 158.9 159.3 155.6 145.2 138.5 140.3 134.7 128.5 128.6 128.3 129.3 129.2 127.2 124.1 121.5 119.9 120.7 120.1 120.3 120.7 120.9 122 121.7 122.5 124 128.7 137.4 145.1 152.5 155.9 161 151.6 145.3 141.8 138.9 142.6 136.6 135.9 137.6 136.4 133.5 129 122.3 115.9 111.7 102.3 98.1 94.4 96.3 98.1 95.9 98.1 96.8 93.4 90.1 83 77.9 75.3 72.8 72 71 71.6 69.5 68.3 68.2 68.2 66.4 64 61.8 62.5 66.9 65.6 62.3 59.7 54.9 56.4 57.7 58.4 58.4 59.2 53.2 46.1 42.2 41.1 37.5 35 34.7 33.8 39.5 50.3 58 56.9 58.1 62.9 70.6 79.6 90.1 102.9 117.6
4.2 4.5 4.2 4.6 4.1 -2.6 -2.6 8.3 14 11.1 6.5 5.5 5.6 5.7 5.4 5.3 5.3 5.5 5.5 5.8 5.9 6.9 20.6 35 35.9 28 21.7 19.8 13.9 10.4 8.8 12 13 11.5 7.8 8.1 13.6 23.6 36.8 45.2 41 35.6 27.9 19.3 16.9 14.7 10.4 6 5.7 5.7 5 5 5.1 5.1 5.5 6.4 8.3 9.1 9.1 9 8.8 8.6 8.3 8.4 7.1 6.6 5.7 3.2 5.8 5.7 5.5 5.8 6 6.1 6.2 6.4 6.7 8.5 13.2 20 29.4 41.6 48.9 52.9 61.1 63.3 68.6 71.2 67.4 66.3 67.3 73 77.4 81.4 86.1 93.4 100.7 110.5 126.8 146.7 162.9 162.8 162.7 153.9 142.4 135.9 133.4 129 128.7 128.9 128.7 129.5 131.6 128.3 123.4 122.1 118.1 118.6 119.6 119.5 120.3 120.7 121 121.5 121.9 124.2 127.6 138.6 148.1 156.3 163.8 164.7 154.3 149.5 145.8 144.7 141.3 140.1 139.6 141.6 138.5 130.4 121.5 116.9 112.7 106 98.9 99.8 95.7 95.4 95.2 91.2 88.7 87.9 88 86.9 83.7 77.9 73.7 71.7 71.2 70.4 70 68.7 68.6 69.8 70.2 67 62.7 59.2 61.6 63.9 61.7 59.3 56 53 55.7 58 59.7 58 54.3 50.8 45.5 40.2 37.8 34.6 34.6 34.3 34.6 39.7 48.9 53.6 52.8 53.5 62.1 72.9 84.7 94 101.6 113.4
4.4 4.2 4 3.7 -2.6 -2.6 -2.6 6.6 7.6 6.5 5.7 5.7 5.8 5.8 5.4 5.1 5.2 5.6 5.6 5.9 6.3 12.1 28 35.1 30.5 23.3 19.9 17.6 13.3 9.5 8.4 8.5 8.3 7.5 8.1 8.5 20.1 29.9 42.4 43.4 39.2 34.1 25.7 20.6 20.3 18.5 13.6 6.4 5.9 5.7 4.9 4 4.8 5.4 5.9 6.7 9 9.1 9 8.9 8.8 8.6 8.3 6.9 6.1 5.7 5.2 3.2 5.6 5.5 5.6 5.6 5.7 6.2 6.8 6.4 7.9 12.2 18 27.1 41.4 49.8 53.9 56.9 62.8 68.9 71 71.1 68.5 69.4 73.1 78.3 79.2 84.5 91.1 99.4 104.1 116 134.9 155.5 169.1 165.6 157.9 148 140.2 135.1 130 129.9 131.1 133.7 132 130.5 129.3 122 116 115.5 115.8 116.6 119.4 117.6 120.4 121.1 121.8 122.4 123.1 127.4 138.6 146.4 151.5 156.9 164.3 165 154.3 150.8 149 148.8 144 142 140.6 138 132.9 124.8 116.8 113.4 110 103.3 106.1 99.3 96.8 91.6 90.6 89.6 88.3 87.6 87.2 86.7 85.2 79.4 75.6 72 70.3 69.8 69.5 69.7 70 71.1 70.3 65.8 61.3 56.4 58.3 60 58.3 56.1 53.5 52.8 56.7 59.1 59 52.9 48.4 45.2 42.6 39.5 36.4 34.4 34.5 32.2 35.6 39.7 46.3 48.8 49.5 53.5 66.1 78.5 91.1 101.1 110.8 116.5
4.3 4 3.8 3.5 -2.6 -2.6 -2.6 4.5 4.9 5.6 5.6 5.6 5.5 5.6 5.5 5.2 5.3 5.6 5.7 6.7 7.6 23 34.9 36.3 23.8 20 19.9 16.7 9.4 6.6 6.5 6.5 6.5 6.8 8.6 15 25.3 36.9 42 41.1 38.6 33.5 23.3 24.4 23.4 21.6 17.5 5.5 5.4 5.5 5.1 5.4 5.5 5.6 5.5 6.3 8.2 9 8.9 8.8 8.7 8.6 7 6.2 5.6 5.2 3.2 5.8 5.6 5.8 5.8 5.8 5.7 5.5 6.1 10.1 13.4 18.4 25.1 39.9 45.9 57.5 60.2 63.3 68.2 71.3 71.8 73.4 73 75.6 77.4 80.2 81.7 87.1 94.2 100 107.2 123.4 142 167.3 179.2 169.4 156.1 151.1 139 130.9 133.2 140.8 146.5 142.9 132.2 127.2 123.5 116.1 114.9 115 115.1 115.1 115.8 117.4 122.3 122.7 123.4 125.7 132.9 142.8 153.8 157 158.9 163.1 167 164.6 155.9 148.8 147.4 149 143.9 139.9 135.6 131.8 127.6 120.1 112.7 108.9 107.1 111 107.8 100.2 96 92.5 90.9 90.1 88.3 88 87.8 86.7 84.1 80.1 76.5 72.1 70.2 69.5 69.2 69.2 70.8 70.7 70 65.4 60.8 56 55 55.8 54.8 53.6 51.5 53.7 57.8 58.3 55.8 50.8 46 43.3 41.8 39.6 36.9 34.1 33.6 32.5 36.4 40.4 44.7 46.5 48.3 56.6 70.2 83.9 97 109.2 117.4 121.2
4.4 3.9 3.6 -2.6 -2.6 -2.6 3.3 4.3 4.6 5 5.1 5.1 5.2 5 5.4 5.6 5.6 5.7 6 8.3 15.7 26.8 32.9 29.9 23.1 21.2 20.1 9.6 6.2 6.2 6.1 6.1 6.4 8.5 12.9 22.5 31.7 41.3 42.1 40.5 38.7 30.1 25.5 25.1 21.1 24.9 16.9 5.7 5.7 5.2 4.9 5.2 5.3 5.3 5.4 6.1 6.4 8.1 9.2 8.8 8.4 7.7 6.3 5.8 5.2 3.2 5.7 5.8 5.9 6 6 5.8 5.7 6.9 11.6 18.3 26.4 31 34.8 48.5 54.9 59.7 64.9 67.5 69.5 72.6 74.2 74.5 77.9 80.6 81.4 82.7 85.6 89.7 97 102.9 110.6 131.7 155.1 168.8 173.2 163.2 154.1 149.1 136.5 131.9 133.5 139 137.3 134.9 134.8 129.5 121.5 115.2 114.4 115.5 115 115.3 118.9 124.9 126.7 128.8 132.2 141.7 151.4 165.4 169.2 169.5 168.1 170.8 169.1 164.1 150.5 146.2 143.1 139.8 133.8 129.8 125.6 122.9 118.2 113.3 108.9 107.9 111.4 111.9 107.4 100.1 98.1 95.5 91.9 90.5 90.1 89.1 87.8 87.1 83.1 79.5 75.9 71.3 69.5 69.8 71.2 69 71.9 70.3 67.6 64.2 58.1 53.5 52.2 52.2 50.7 49.5 49.6 56.4 58.7 56.7 53.3 50 45.1 41.7 40.8 39.6 36.5 34.1 33.5 34.8 37.1 39.1 42.5 46 47.9 60.4 75.1 89.5 104.1 116.8 123.8 128.1
4.4 4 3.6 -2.6 -2.6 1.9 4.4 3.9 4.4 4.3 4.4 4.7 4.9 5 5.6 5.7 5.7 5.7 6.1 7.4 19.5 29.6 30 26.9 23.9 20.8 14.5 6.9 6.4 5.6 8.2 9.3 13.5 17.7 20.2 30.5 38.3 41.7 41.6 40.6 37.4 28.7 27.4 25.5 22.1 25.9 17.4 5.7 5.4 5.1 4.7 5.1 5.2 5.3 5.3 5.7 6.1 6.5 8.6 8.8 8.1 6.7 5.7 5.2 3.3 5.6 5.7 5.8 5.9 6 6.2 6.3 11.7 14.6 19.6 32.5 39.9 42.9 47.4 54.4 62.5 66.7 71.4 73.9 75.2 77.6 78.6 80.1 83.9 87.8 86.1 84.8 88.9 94.6 98.7 104.8 123.1 147.4 167.2 177.3 178.4 168.4 157.3 141.6 136.9 130.5 139.9 136.3 127.4 121.9 119.5 120.4 117.7 112.6 114.3 114.3 116.7 117.5 121.9 127.5 130.7 143.2 153.1 163.9 170.6 177.3 185.3 188.7 183.7 176.9 171.9 165 151.9 143.9 139 134.1 127.3 121.2 116.9 113.3 111.4 109.8 108.8 109.7 113.3 111.5 105.4 99.5 97.1 95.4 93.3 91.6 89.9 89.1 88.4 90.4 84 78.4 74.1 72.5 69.7 70 71.8 68.3 75.5 72 63.7 58.4 52.5 50.5 49.4 49 47.5 45.5 50.8 58.4 58.5 52.6 49.1 48.5 44.7 41.1 40 38.1 36.4 33.9 31.5 35.7 37.7 37.9 40.8 43.8 50.5 65 79.8 95.2 110.2 122.1 131.7 134
4.6 4.1 3.6 -2.6 -0.5 2.6 3.6 4 4.4 4.6 4.4 4.9 4.8 4.8 5.1 5.7 5.5 5.7 6.1 9.9 21.2 28.3 29.2 24.7 23.3 16 6.9 6.3 6.4 7.1 13.9 19.3 27.5 29.9 27.4 32.7 39.9 41.5 41.6 40.2 36.2 32 30 26.1 24.4 27.2 14.8 5.8 5.3 5 5 5.1 5.2 5.2 5.3 5.4 5.8 6.2 6.5 6.6 6.5 6 5.1 5.3 5.5 5.6 5.7 5.8 6 6 6.4 16.8 25.9 29.3 32.8 42.4 51.7 58.3 56 61 68.3 73.1 77.6 83.3 79.7 79.9 81.9 84.5 87.9 90.8 89.1 89 93.5 97.5 102.1 106.5 133.8 159.3 166.8 169.4 171.7 159.4 140.1 137.4 130 122.6 124.5 120.1 114.8 108.5 110.5 110.9 111.4 111.5 112.1 113.4 115.2 116.5 122.6 125.5 134.6 151.2 164.4 175.9 187.5 196.4 200.9 200.4 190.9 184.3 172.9 164.1 153.9 147.7 140.5 134.2 128.9 122.7 117 113.1 111.3 110.2 109.2 110.5 110.2 106.9 101.1 99.4 97.1 94.8 93.1 91.4 90.4 88.7 90.9 87.4 82.7 78.4 76.1 72.5 70.6 69.2 71 68.3 73.3 69.1 61.9 55.5 48.1 47.7 47.3 46.1 44.9 44.2 50.6 58.4 55.1 48.3 47 46.6 43.8 40.5 39.6 37.4 36.5 34.1 32.1 35.1 37.4 39.6 41.6 44.7 53.6 69.7 84.7 100.5 112.1 128.3 135.7 141.2
4.5 4 3.4 -2.6 -0.1 3.1 3.8 4.4 4.4 4.5 4.8 4.9 4.8 4.8 5.2 5.5 5.4 5.5 6 11.9 19.6 25.7 24.4 21.1 18.1 11.2 5.9 6.2 6.7 17.8 25 29.1 36.9 37.8 32.6 36.4 39.4 41.1 41.8 39.6 35.1 30.3 26.9 27.1 22.7 17 6.4 5.3 5.4 4.6 5.1 5.1 5.1 5.2 5.3 5.4 5.5 5.7 6 5.9 6 5.3 4 5.6 5.6 5.7 5.7 5.9 6.1 6.5 14.1 25.2 36.9 42.7 45.3 51.7 58.5 66.2 69.6 69.4 76.4 81.2 85.8 86.7 83.1 83.4 86.4 90.2 89.1 89.2 93.5 94.8 98.2 98.8 104.2 109.6 133 140.6 141.1 141.5 147.9 131.4 126.2 124.8 118 111.8 105.9 105 105.7 106.9 107.9 109.2 110.8 111.8 112.8 115 118.1 120.6 123.3 131.4 145.1 162.1 180.3 194.6 203.4 207.8 210.2 200.8 191.8 184.1 174.6 168.4 159.3 152.7 143.8 137.7 131.3 123.8 118.8 115.3 112.6 111.2 110 108.5 106.3 102.8 103 102.7 101.2 99.1 96.4 91.8 89.1 88 87.3 84.3 81.4 79.2 77.5 76.3 70.7 68.1 71.4 68.1 69.5 65.3 60.3 55.4 47.3 46.1 46 44.7 44.1 43.4 49.2 53.8 49.6 46 45.2 42.9 40.2 39.4 38 36.3 35.4 34.4 31 35.1 37.7 42.4 39.9 44.3 56.3 72.8 90.6 106.5 119.4 131.3 141.9 151.1
4.3 4.2 -2.6 -2.6 -2.6 2.5 4.6 4.4 4.3 4.3 4.6 4.5 4.8 4.9 5.1 5.4 5.3 5.5 5.9 13.6 20.3 23.6 22.9 21.7 14.8 6.5 5.7 6.2 14.9 27.8 35.6 41 43.2 36.7 34.2 40 42.2 42.4 41.3 39.4 32.9 28.5 28.5 32.3 27.6 6.3 5.6 5.9 5.2 5.1 5.4 5.1 5.1 5.2 5.3 5.4 5.3 5.3 5.5 5.6 5.7 5.3 5.4 5.4 5.5 5.6 5.7 5.9 6.2 12.5 22.2 33.2 42.5 50.6 55.8 58.7 64.5 71.6 75.4 77.7 86.8 92.6 92 88.7 87.8 89.4 91.6 95.7 94.8 95.1 94 94.2 95.9 99.8 106.2 104.8 121 123.2 129.7 125 115.4 112.4 109.2 111.6 114.1 107.2 104 103.9 105.8 106.9 109 111.8 112.7 114.7 115.5 117.2 119.2 121.8 126.4 140.5 154.2 170.5 184.1 194.4 207.5 212.3 206.4 201.7 193.4 182.4 176.8 172.3 161.6 153.3 146 141 134.9 126.3 121.6 118.7 115.1 112.3 110.5 108.7 106.1 106.9 108.4 107.8 105.9 102.7 99.2 95.9 93 90.7 88.9 88.7 84.8 81.2 79.3 76.1 70.9 67.8 66.6 65.6 65.2 59.6 55.3 49.9 46.5 45.3 44.9 44 43.2 42.6 43.5 45.8 44.1 43.9 42.1 40.5 39.5 38.3 36.6 36.1 35.4 35.8 33.6 33.8 39.8 41.3 43.3 43.5 58.1 75.4 93.8 110.7 126.2 136.7 149.2 160.3
4.3 4.3 -2.6 -2.6 -2.6 -2.6 4.6 4.5 4.5 4.5 4.6 4.8 4.7 4.8 4.7 4.8 5.4 5.6 6.1 13.5 20.2 21.2 22.6 21.1 10.2 5.9 5.8 8.8 21.5 32.3 42.1 44.6 43.1 34 39 44 44.5 43.7 41.4 35.8 29.2 29.7 34.3 22.2 10.3 5.7 5.2 5.2 4.7 5.4 5.6 5.3 5.4 5.4 5.5 5.4 5.4 5.4 5.4 5.4 5.4 5.3 4.3 5.3 5.4 5.6 5.8 5.9 11.4 20.4 30.1 39.6 46.7 53.8 59.1 62.9 69.2 78.6 84.5 80.8 93.5 95.1 94.4 94.2 93.2 94.7 99.5 99.8 99 98.7 95.7 88 88.4 92.7 95.9 99.6 108.9 110.3 118.8 110 107 100.8 102.1 108.6 106.5 100.9 101.1 106 109.2 111.8 113.9 115.4 115.8 116.9 117.9 120.2 122 128.1 137.6 147.1 159.1 177.8 190.5 197.5 207.6 211.9 206.9 198.3 190.5 182.5 179.4 177.8 164.9 156.1 150 142.9 137.9 130.2 123.7 118.5 116.3 111.5 110.8 109.4 108.2 110.6 110.5 107.3 105.9 105.2 102.9 99 96.8 93.8 90.4 90.9 88.8 83.5 80 77.2 73.6 72 65.8 62.2 58.3 55.3 50.4 47.6 47.3 48.3 45.5 43.8 43.1 42.6 42.4 42 41.7 41.3 40.7 39.7 39 37.8 37.8 36.9 36.8 37.6 35.7 31.3 36.4 38 42.2 43.4 59.4 77.3 95.8 113.3 129.4 138.6 152.4 163.4
4.9 3.4 0.9 -2.6 -2.6 -2.6 -2.6 4.7 4.7 4.6 4.5 4.3 4.8 4.8 4.8 4.9 5.2 5.4 5.8 11.8 18.8 19.3 20.6 13.5 6.2 5.5 5.9 13.4 26.8 34.8 38.9 40 36.2 38.2 47.6 49.3 46.2 43.6 37.8 32.3 31.4 31.6 34.5 13.4 5.5 5.3 5.4 4.6 4.9 5.5 5.5 5.3 5.9 6.1 5.6 5.5 5.5 5.4 5.5 5.5 5.4 5.5 4.8 5.3 5.4 5.7 6.1 9.5 18.7 28.3 38.1 46.2 49.7 52.9 58.5 69.1 80.6 89.2 92.2 89 93.6 96.7 97.6 99.8 101.2 102 104.3 101.8 100.4 99.5 95.9 85.6 81.4 85.4 87.5 93.5 98.3 101.4 106.4 106.1 99.6 95.1 97.4 98.4 97.6 100 103.2 107.8 112.5 114.6 117.2 119.6 120.8 120 122.5 123.3 128 136.6 149.1 160.1 171.7 183.9 193.4 198.3 204.7 208.5 205.4 198.8 190.6 187 185 181.4 170.1 159.6 152.5 146 139.2 131.8 124.3 119.4 119.2 118.4 117.4 117.1 114.8 115.3 113.4 110.5 106.1 104.7 104.3 102.6 96.9 95 93.4 89.4 87.9 82.4 79.9 78.3 73.7 71.4 67.3 61.5 53.7 51 48.8 50 48.9 48.6 45.9 44.4 43.2 42.4 41.9 41.9 41.6 40.9 40.7 40.2 39.1 38.3 39.6 40.6 41.6 39.6 37.2 31.9 31.6 31.2 40.2 44.3 59.4 76.4 94.5 112.1 129.4 141.8 152.9 164.5
4.7 1.9 -0.1 -2.6 -2.6 -2.6 -2.6 4.7 4.5 4.4 4.3 4.6 4.7 4.8 4.7 4.8 5.1 5.3 5.3 13.7 18.1 19.4 17.5 6.6 5.7 6 6.4 14.1 23.6 28.8 32.3 33.5 35.8 48.1 55.1 50.1 46.5 40.5 32.4 30.7 33.1 30.5 20.4 10.3 5.4 5.1 4.5 4.8 5.1 5.4 5.4 5.3 5.6 5 5.3 5.3 5.4 5.2 5.5 5.6 5.5 5.1 4.5 5.8 5.5 5.8 6.6 16.2 26.3 36.5 46.3 54 53.7 54.1 66.1 71.9 88.5 97.6 98 94.8 97.6 100.3 101.5 103.9 105.3 107.4 106 103.3 103.1 99.8 94.8 83.9 76 77.8 83.7 87.3 93 99.4 106.4 100.7 92.6 84.6 90.1 97.6 101.3 104.3 108.7 113.7 119.2 122.5 125.3 124.9 126 126.3 125.6 128.4 136.1 143.3 153.9 167.5 180.7 196.6 206.4 206.4 204.7 207.2 203.6 196.8 194.7 191.5 189.1 183 171.9 162.6 155.1 148.3 140.1 129.5 128.3 123.1 121.8 123.4 125.7 122.8 119.6 119.6 118.2 116.5 112.3 109.8 104.1 102.6 99.2 96.6 94.6 93.4 87.6 85.4 81.7 78.4 75.5 72.5 67 61.9 55.6 52.2 53.2 53.1 52.9 50.3 47.7 46.3 44 42.6 42.5 42.6 42.7 42.3 41.2 40.1 39.4 40 40.5 39.9 41 38.8 37.5 35.8 32.4 30.4 38.4 43.6 58.3 75 91.8 107.4 122.8 135.5 153.1 159.4
3.3 1.9 0.2 -1 -2.6 -2.6 -2.6 4.7 4.5 4.3 4.2 4.4 4.5 4.4 4.5 4.7 5.1 5.4 5.1 12.4 12.8 18.1 8.2 5.8 5.7 6.1 6.7 12.4 15.9 20.7 29.4 35 44.1 51.7 55.2 50.1 47.2 40.4 35.1 30.5 29.3 26.5 7.1 5.7 5.2 3.4 4.9 5.2 5.3 5.3 5.3 5.3 5.3 5.2 5.3 5.4 5.2 6 5.8 5.6 5.3 5 4.9 5.5 6 6.1 11.6 22.6 34.2 45.4 57.4 58.1 56.9 55.5 66.7 74.9 92.7 103.3 103.3 100 101.5 102.9 104.5 103.8 102.6 102.2 101.2 102.2 101.4 100.3 94.3 78.8 72.6 74.6 78.7 84.3 94.9 103.1 104.2 96.3 85.9 90.8 97.8 102.3 106.8 110.2 113.5 123.3 127.5 130.9 130 131 128.9 128.5 130.4 137.5 148.5 155.3 167.7 180.6 195.1 204.9 210.2 209.7 208 205.8 203.4 204.1 205.3 199.2 196.8 187.1 172 165.3 157.1 147.6 137.9 137.9 133.7 126.2 128.5 129.2 131.3 128.7 127.7 126 125 124.2 120.4 113.6 109.5 109.2 105 101.5 98.3 95.7 91.1 87 82.1 80.8 78.9 71.9 67 64 61.3 58.2 57.3 57.8 56.3 53.3 51.8 48.2 45.3 43.1 42.9 42.9 42.7 42.4 41.3 40.3 40.3 41.8 42.7 42.3 43.4 40.5 39.7 36.1 33.2 31.6 34.4 42.1 55.7 70 82.9 96.3 110.7 127.4 144.6 156
3.3 2.4 1.2 0.2 -0.9 -2 -2.6 -2.6 4.4 4.3 4.1 4.3 4.2 4.3 4.4 4.7 5 5.4 6.7 8.9 9.8 13.9 6.1 6 5.8 5.9 5.9 6.4 11.7 25.9 34 44.1 51 56.9 53.1 50.6 51.2 40.6 35.2 29.2 23.8 8.8 6.1 5.3 4.2 4.8 5.1 5.5 6 6.9 7.2 6.5 6.1 5.4 5.5 5.5 5.5 5.6 5.9 5.5 5.4 5.1 5 5.4 5.7 6.6 17.9 29.4 41.3 53.8 64.2 64.2 61.4 54.7 64.6 76.5 90 98.5 102.4 103.6 105.5 102.2 99.3 99.3 98.2 97.8 97.7 96.3 94 93 82.2 72.2 69.6 71.5 75.5 87 95.4 103.7 99.6 90.8 84.1 93.8 99.8 105.5 111.7 117.1 124.7 132.5 136 135.5 136.6 133.8 130.6 131.9 141 151.7 163.4 174.7 182.7 192.7 206.8 212.4 213.8 213.2 212 212.4 212.5 212.7 208.5 202.4 197.2 188.6 170 165.9 158.8 150.7 143.3 143.3 136.4 132.7 137.5 139.8 139.7 137.2 138.8 135 135.7 134.2 129.4 125.3 119.2 115.8 109.2 104 100.6 96.8 89.4 87 87.3 81.5 77 71.7 68 66.4 64.8 63 59.9 59.2 57.1 54.7 52.7 51.1 48.4 46.9 44.4 43.4 43.2 42.5 40.6 41 43.8 46 45.7 51.9 50.6 45.1 41.8 37.7 35 31.4 32.5 39.7 49.3 59.2 70.4 83.4 99.3 120 139 146.6
3.5 3.3 2.1 1 -0.1 -1.2 -2.6 -2.6 4.4 4.3 4.3 4.7 4.3 4.5 4.6 4.6 5.1 5.5 5.7 4.9 6.2 6.3 6 5.9 5.8 5.7 5.8 11.5 21.6 36.3 37.7 53.9 56.8 54.3 50.2 51.8 50.8 39.3 33.1 27 17.7 6.6 5.4 5 4.6 5 5.3 6.1 8.2 9 9.1 8.9 7.9 7.1 6.1 5.9 5.7 5.5 5.4 5.9 6.1 5.1 5.3 4 6 11.5 23.3 35.5 48.3 61.1 69 65.4 57.4 52.1 63.4 72.1 79 96.6 103 101.2 98 95 93.9 92.4 93.9 95.2 95 86.5 83.7 82 75.5 69.3 68.2 69.9 76.7 90.5 97.9 94 90.2 82.1 90.2 95.2 100.6 107.4 114.1 123.6 136.3 142.2 144.6 141.3 141 134.8 132.9 134.4 145.5 155.1 175.1 187.5 200 207.5 217.7 216.9 217.2 218.5 217.7 223.7 222.5 219.2 214.2 206.8 197.3 184.5 174.3 168.6 161.7 152.5 152.9 147.9 140.3 140.1 143.5 150 150.8 153 152.6 149.5 147.4 144.2 139.8 133.6 124.5 118 111.8 104.6 98.1 92.3 88.9 83.1 82.5 77.9 74.9 72.2 72.4 69 66.4 64.9 64.1 61.4 59.4 56.9 54.2 52.3 49.4 48.5 48.2 43.5 43 42.5 41.8 42.8 47.2 48.1 48.7 54.2 53.4 45.9 43.7 39.1 35.9 32.6 29.9 38 40.6 48.1 57.5 70.5 88.6 108.1 121.8 131.1
4.1 3.8 2.5 1.3 0 -1.2 -2.6 -2.6 3.6 3.9 4.3 4.7 4.4 4.4 4.4 4.6 5.1 5.6 5.9 6.4 6.7 6.7 5.7 5.8 5.8 5.5 8.6 20.5 32.4 44.7 50.7 59.9 56.5 48.7 49.9 53.8 48.5 33.3 29.1 22.1 8.2 5.6 5.2 4.7 4.8 4.9 5.4 6.4 8.4 9.4 9.4 9.4 9.4 9.2 8.3 6.2 6 5.7 5.4 5.4 5.7 5.7 5.3 5.4 7.9 17.6 28.8 40.9 53.4 63.2 61.2 53 46.7 51.7 61.3 70.6 83 93.4 94 90.5 87.7 89.4 89.8 89.6 91.7 89.2 88.4 81 75.7 72.8 68.1 67.1 68.5 70.3 82.7 89.3 86.2 82.8 80.6 92.8 97.6 99.8 106.5 113.7 119.4 130.3 141 149.4 143.2 140.5 139.7 135.3 135.4 144.9 151 169 182.7 195.7 216.8 224.6 227.4 228 229.5 228.6 232.4 229.4 225.9 220.9 216.4 207.7 197.5 182.7 176.9 166.8 162.5 162.5 158.7 150.9 148 148.2 154.9 158.6 164.2 168.3 161.5 161.4 158.5 153 143.8 137.2 128.3 121.1 113.4 106.5 101.8 92.5 86.5 81.9 77.9 75.8 74.5 75.1 73.3 71.6 68.6 70.1 67.4 63.3 60 57.5 55.6 52.2 50.8 50.8 46.2 44.5 44.7 44.2 43.2 42.8 45.9 49.1 51.5 54.1 47.7 47.3 44.5 38.7 36 33.2 31 31.8 36.5 39.6 45.8 59.5 76 91.4 104.9 115.4
4.4 3.7 2.6 1.3 0 -1.3 -2.6 -2.6 3.6 4 4.4 4.6 4.3 4.3 3.4 4.7 5.3 5.5 5.4 6.5 10.7 8.7 5.6 5.5 5.5 5.7 14.8 27.1 37.3 47.4 56.7 60.6 49.3 48.1 49.3 50.4 42.7 27.8 18.3 9.5 5.7 5.1 4.8 5 5.1 5.2 5.3 7.1 9 9.6 9.6 9.6 9.6 9.6 9.1 7.9 6.2 5.9 5.7 5.6 5.4 5.5 5.4 3.5 14.2 24.7 34.1 44.1 52.3 53 46.5 37.2 33 44.3 58.4 71.7 82 87.2 84.4 81.1 81.3 86.2 88.1 87.8 88.8 88.8 80.8 77.4 71 66.2 66 67.7 73.4 77 77.1 80 83 84.4 91.2 98.1 104.2 106.9 110 118.6 129.2 136.2 142.9 147.1 145.3 145.9 146.4 147.9 147.3 153.7 162.3 176.4 189.5 217.8 231.5 239.3 241.6 245.8 245.3 241 244.3 240.3 231.9 228.8 220.5 212.3 199.1 187 175.1 172 170.3 170.1 165.4 160.4 160 161.1 165 168.9 172.9 174.6 173.7 170.2 165.7 157.9 150.3 142.4 131.3 122.8 115.7 105.9 98.2 91.4 83.5 80.6 77.2 77 76.2 73.7 72.8 71.3 71.5 69.2 66.9 62.9 60.6 58.3 55.6 53.1 51.9 49.9 47 47 47.4 46.7 45.7 46.6 48.2 49.1 52.6 50.7 49.1 49.5 44.1 38.5 35.5 33.9 32.5 28.6 30.3 34.7 38.9 45.6 60.7 75.3 88.6 100.2
4 3.4 2.3 0.5 -0.6 -1.9 -2.6 -2.6 3.7 4.1 4.4 4.3 4.3 4.3 4.5 5 5.5 5.3 5.2 9.3 12.9 9.7 5.8 5.7 5.7 9.9 22.3 36.8 52 53.3 58.6 53.1 47.8 47.7 45.7 44.1 32.5 26.9 17.8 6.5 5.5 5.4 5.5 5.5 5.5 5.6 6.1 7.4 9.2 9.8 9.8 9.8 9.8 9.8 9.8 9 7.3 6.2 6.2 5.4 5.2 5.5 3.7 8.9 21.5 32.7 38.9 41.1 41.5 42.4 32.4 26.8 29.1 42.3 57.7 69.4 71.7 74.6 75.5 75.6 79.5 86.5 89.4 91.7 83.8 83.9 78.8 73.7 65.4 64.6 71.2 79.3 87.3 94.7 94.3 90.5 92.2 95.8 99.1 102.1 106.9 109.8 115.2 125.6 131.1 137.2 140.7 144.2 146.3 149.7 151 156.3 153 160.7 175.4 192.5 211.2 231.3 241.9 246 251.5 259.1 255.5 255 250.4 243.6 239 232.5 223.6 207.7 192 184.9 176.8 176 175.9 173.8 169.4 167.7 170.4 173.7 177 180.6 183.4 185.1 182.5 177.4 172.1 163.1 151.2 142.9 132.8 123.5 115.6 101.9 94.5 86.3 81 79.2 77.9 79.2 78.6 74.5 74.3 71.6 69.6 69.8 68.1 64.5 61.6 59 56.6 54.2 51.9 50.5 49.2 50.6 49.7 49.5 49 49.6 49.9 49.6 48.1 47.3 50.5 49.4 44 38.1 36.1 34.4 33.9 31.9 29.8 28.7 34.2 39.7 47.1 59.6 72.6 84.6
3.7 3.4 1.9 -0.4 -2.6 -2.6 -2.6 3.6 3.9 4.2 4.2 4.2 4.6 4.3 4.6 5.4 5.6 5.5 6.2 11.3 12.2 8.9 5.4 5.6 5.8 13.1 32.9 34.2 52.4 57.5 54.4 47.3 49 48 39.6 36.6 26 17.2 7.6 5.3 4.7 5.4 5.6 5.6 5.6 5.8 5.9 6.1 8.9 10 10 10 10 9.9 9.8 9.3 8.8 6.9 6.5 5.8 5.1 5.7 3.4 9.4 22.9 33 33.3 30.5 30.6 29.5 27.4 26.8 30.5 42.5 57.7 67.6 71.9 71.6 70.9 73.4 77.5 81.9 88.7 81.2 76.4 82.2 72.7 64.5 63.6 71.9 81.3 90.3 98.7 101.5 96.9 93.4 97.3 104 102.6 104.6 108.3 114 123 131.8 141.8 146.9 144.6 146.2 151.7 149.8 154 152.5 154.5 166.8 189 209.8 229.4 249.7 254.5 258.5 263.3 264 265.3 261.7 254.5 248.5 245.7 236.1 219.2 198.9 190.3 184.1 181.7 180 178.8 177.1 176.8 179 188.5 193.2 192.3 195 193.6 189.3 185.9 179.8 174.8 163.1 152.6 143 133.8 124.4 112.4 101.1 91.5 82.8 80.3 81.3 77.8 82.9 79.7 72.5 70.9 70.2 70.4 68.7 69.5 68 63.4 60.6 57.7 55.2 53.2 53.4 52.2 52 51.6 51.6 52.7 53.2 52.3 52.5 49 44.7 46.3 48.5 43.5 39.1 38.4 35.9 34.5 34.5 33.2 27.6 28.4 35.2 37.3 46 57.9 68.9
3.4 3.2 0.2 -2.6 -2.6 -2.6 3.8 3.9 4.1 3.9 4.1 4.2 4.4 4.3 4.9 5.7 5.7 5.6 6.7 11.9 11.9 5.9 5.2 5.9 7.2 13.7 32.1 50.4 55.4 51.9 43.1 45.4 49.7 45 36.5 33.9 17.2 9 5.7 4.7 5 5.4 5.6 5.7 5.6 5.9 5.9 6.1 7.8 9.7 10.2 10.1 10 10 9.8 9.3 9.1 7.8 6.6 6 5.9 5.7 5 8.6 20.3 25.9 25.5 21.6 20 22.3 27.4 29.6 33.7 46.9 58.1 68.8 72.2 68.8 68.2 69.5 69.3 76.5 80.8 70.2 70.9 68.8 62.2 65 72.2 81.5 90.8 99.7 104 103.4 100.5 99.4 101.3 103.6 105.2 106.4 107.6 116.6 127.4 139 146.5 149.2 147.4 153.2 155.1 151.9 151.2 155.3 159.2 171.8 197.5 217.5 241.1 256.2 265.1 272 274.8 271.7 272.2 269.6 264 256.1 245.6 230 214.6 201.1 191 187 185.5 184.2 183.7 185.3 189.3 195.8 203.1 206.2 204.9 200.6 196.1 191.9 186.8 183.5 173 165.9 155.5 145.4 136.2 125.7 112.9 100 89.7 82.5 83.1 83.9 77.9 79.9 75.6 71 73.3 72.2 70.8 68.2 68 65.7 64.1 60.4 57.5 55.8 55.4 55.9 55.2 54.4 54.6 54.4 55.2 54.8 54.2 53.5 50.5 44.3 43.6 44.8 43 42.5 41.7 41.8 37.6 32.9 33.6 31.1 27.7 32.4 35.6 40.6 47.8 55.4
2 0.4 -2.6 -2.6 -2.6 4.5 4.4 4.1 3.9 3.6 3.9 4.2 4.7 4.8 5.7 5.7 5.7 5.9 9.8 13.9 9.7 5.4 5.9 6.2 6.7 22.2 37.6 53.4 47.4 43.7 38.8 41.1 44.9 40.5 37.9 27.2 9.4 6.3 4 4.9 4.9 5.5 5.7 5.7 5.7 6.1 7.5 8.3 8.7 9.5 10.2 10.2 10.1 10 9.7 9.4 9.3 8.8 6.9 6.5 5.9 5.4 5.1 8.9 15.4 21.7 19.2 19.8 19.2 22.3 27.9 31.9 36.7 50.1 60.6 69.9 71 69.2 66.1 65.9 64.8 69.1 69.4 65.6 61.4 61 68.1 75.9 83.4 91.3 99.9 105.8 107.9 106 100.4 101.5 102.8 105 106.5 109.9 118.9 129.5 138.9 149.7 154.5 154.9 150.8 149.9 150.1 149.5 149.9 151.2 155.5 167.5 185.9 218.9 247.3 259.8 273.1 282.1 280 282.5 281.2 278.7 271.6 257.5 242.3 229.9 215.5 202.6 194.9 193.3 192.1 192.2 193.3 197.4 202.5 209.3 212.5 210.8 208.5 201.7 196 190.4 187.8 179.9 170.5 162.9 154.6 147.6 132.7 122.7 108.4 97.6 88.7 83.8 84.6 80.3 76.1 72.8 70.9 72.2 71.5 69.4 67.9 67.4 66.3 65.3 60.2 58.8 56.6 55.8 56.4 57.2 57.3 56.8 56 55.3 56.2 58.2 57.8 56.5 52.9 43.4 41.4 41.8 44.3 40.8 40.3 39.5 37.5 35 32.2 30.8 28.5 27.8 36.1 42.3 45.1 51
-2.6 -2.6 -2.6 -2.6 4.1 4.5 4.3 4.2 3.6 -2.6 -2.6 5.8 5.2 5.8 5.7 5.7 5.7 6.3 11.3 13.1 6.9 5.6 5.7 6 7.7 24.9 43 46 43.7 37.3 37.5 41.6 38.7 42 32.5 17.1 5.7 3.3 5.6 5.2 5.5 5.4 5.7 5.7 6.1 9.1 9.4 9.7 9.5 9.7 10.2 10.2 10.1 10 9.8 9.7 9.5 9.3 8.7 8.2 5.9 5.3 3.7 8.3 14.5 20.3 17.6 22.7 24.1 28.6 27.6 33.3 40.9 53.7 64.2 71.1 73.2 67.8 63.4 65 66.1 66.2 65 57.1 63.1 71.8 77.3 85.3 93.5 99.5 104.9 107.3 107.4 104.1 101.4 102.2 104.4 108 108.8 116.2 127.2 140.9 151.4 158.7 150.7 149.7 149.5 150.1 149.5 149.9 150.5 149.8 157.3 164.1 188.6 221.7 244.7 262 275.9 283.1 287.4 290.8 289.9 281.3 264.8 254.6 240.7 226.7 212.5 203.3 201.2 200.7 199.6 201.1 209 216.6 216.8 216.2 214.6 211.9 207.3 199.2 192.6 191 186.2 178.7 170.8 163.6 152 142.9 130.2 118.9 106.7 97.4 90 85.2 81.7 80.3 75.2 72.8 71.5 69.7 69.4 68.3 67.6 66.8 66.2 63.7 59.5 57.7 56.8 56.5 59.1 59.4 59.7 59.6 60.6 56.4 56.7 59.3 58.1 54.5 47.8 42.9 41.2 41 40.6 38.5 37.6 39.3 38.6 37.9 35 30.9 26.6 26 35.1 40.3 42.9 47.8
-2.6 -2.6 -2.6 4.1 4.4 4.4 4.4 4.2 -2.6 -2.6 -2.6 10.5 5.9 5.9 5.7 5.7 5.7 7.3 12.5 11.5 5.7 5.7 5.8 6.1 12.3 27.9 44.1 33.3 34.5 34.7 43.3 39.7 39.8 37.6 21.1 7.6 4.5 5.4 5.8 5.6 5.8 6.4 7.3 7.8 7.4 8.8 9.4 9.9 10.1 10.3 10.3 10.1 10 9.9 9.9 9.7 9.6 9.4 9.1 9 6 5.3 3.2 7.9 13.5 16.7 17.7 19.1 23.6 29.1 32.7 38.1 48.6 58.5 70 71.5 71.3 63.1 57.3 66.3 65.7 60.4 53.8 64.6 71.3 79 87.2 95 101.9 105.5 108.1 105.7 105.1 103.2 103 104.3 106.8 108.1 111.6 120.3 136.5 148.2 151.4 150.8 150.4 151.2 151.1 149.9 149.8 149.9 151.2 150.4 157.9 170.7 187.9 216.2 228 238.9 261.2 283.7 293.9 297.1 286 273.3 261.2 249.5 234.7 221.9 212.2 208.2 207.5 207.3 210.2 221.8 228 230.3 229.8 225.4 216.9 206.1 200.4 195.6 192.2 189 183.2 177 168.2 158.3 149.3 138.4 127.9 119 107.4 99.5 93 84.4 81.2 78.2 73.4 72.2 72 69.3 68.8 68.3 67.7 66.9 65.7 62.9 61.1 59.1 58.5 60.5 62.2 61.1 58.8 60.5 60.3 56.6 56.5 57.3 56.6 52.4 47.9 41.6 41.1 43.6 45.6 40.1 36.9 37.2 41.4 40.7 34.9 30.4 26.7 28.7 33.8 36.7 40.5 44.5
-2.6 1 3.7 4.7 4.3 3.9 4 -2.6 -2.6 13 13.1 9 5.8 5.6 5.5 5.6 5.8 8.1 11.5 7.1 5.4 5.5 5.4 6.6 16 26.8 31.6 34.6 34.1 35.7 39.7 37.9 38.5 29.6 14.5 5.1 5.3 5.3 5.1 5.3 5.8 6.8 7.4 7.9 8 8.4 8.8 9.3 9.7 9.7 9.7 9.6 9.5 9.6 9.8 9.8 9.6 9.5 9.3 9.1 5.8 5.7 5.5 5.6 15.4 15.5 19.1 22.5 25.6 32.6 36 45.4 54.5 58.9 69.3 70.7 61.7 53.9 55.4 60 55.8 52.5 65.1 74.6 81.1 89 97.1 104.3 106.2 109.1 107.9 105 102.6 103.1 105.2 107.8 106.7 109.1 115.9 129.8 143.6 150.3 150.6 151.2 150.6 150.5 153.1 153.4 153.6 155 151.7 153 160.6 169 186.4 198.7 208.7 221.9 243.1 266.7 284.1 290.4 286.1 268.6 257.6 243.4 229.5 218.8 214.9 214.2 214.7 215.5 228 238 241.3 240.3 236.1 222.5 214.9 208 198.8 195.6 191.6 187.3 182.1 175.8 166.2 157.3 148.5 139.9 129.9 120.9 112 103.7 90.6 84.6 81.1 76.7 73.5 72 70.5 69.2 68.8 68.5 67.8 67.6 66.2 62.3 61 61.1 62 62.3 64.9 61.1 58.9 58.5 58.6 57.9 54.3 54.1 53.6 51.9 46 44.1 41.4 48.4 47.8 39.7 35.4 35.9 40.8 39.6 34.9 30.9 26.1 27.6 31.5 34.3 37 39.9
-2.6 1.4 3.7 4.6 4.1 3.7 -2.6 -2.6 10.6 18.9 13.2 8.2 5.8 5.7 5.9 5.9 5.8 8.5 8.7 5.6 5.5 5.4 5.4 6.8 17 33.5 34.2 39.6 36.1 38.2 36.6 33.6 31.7 18.1 6.3 5.3 5.6 5.7 5.5 5.9 6.1 6.8 8.1 8.4 8.5 8.3 8.3 8.7 8.7 9 9.2 9.1 9.2 9.3 9.5 9.7 9.7 9.5 9.3 8.5 5.8 5.4 4.9 5.8 12.3 16.1 22.3 27.7 32.7 38.2 46.5 52.4 57.9 65.4 72.8 67 54.9 51.7 50.6 49.5 51.7 65.4 75.2 83.1 91.5 99.6 107.1 110.8 108.9 109.8 106 101.9 102.9 105.3 109 111.1 108.7 112.5 122.1 134.1 140.9 142.7 150.6 152.5 153.1 153.4 151.5 151.1 151.4 152 150.3 149.6 151.1 156.7 168.3 181.4 196.4 213.5 233 260 279.6 282.6 275.9 265.2 252.7 237.4 225.6 221.3 219.9 220.2 222.8 230.9 241.2 252.2 250.6 244 235.5 226.9 219.3 208.9 202 197.1 193.2 186 179.1 173.5 166.9 159 150.1 141.5 133.5 125.4 114.6 100.5 92.7 86.9 80.5 76.1 73.4 71.8 70.6 69.3 68.5 68.6 67.7 67.4 63.6 63.7 66.3 65.9 63.9 62.6 63.8 62.6 59.4 58.6 57.5 56.6 54.3 53 51.9 52.6 51 46.3 43.7 49.8 45.7 38.2 34.9 35.1 39.4 39 35.4 30.7 25.3 27.1 28.6 29.8 32.8 36.6
-2.6 0.5 3.3 4.6 4.4 3.9 -2.6 -2.6 12.9 20.3 12 6.7 5.5 5.6 5.2 5.6 6.6 6.2 5.6 5.6 5.5 6.1 6.3 11.4 18.8 33.4 36.8 37.6 36.4 36.9 31.3 28.4 21.1 7.1 5.6 5.6 5.8 5.9 6 6.2 7.1 8.8 9.4 9.4 8.9 8.7 8.6 8.5 8.4 8.6 8.7 8.8 8.9 9 9.2 9.3 9.4 9.4 9.2 7.3 6.5 5.8 5 5.5 10.7 19.3 25.2 31.8 38.1 44.4 54.1 60 65.4 72.7 69.8 67.2 57.8 46.6 43.4 48 63.1 74.1 83.6 93.3 102.7 110.1 116.1 114.5 112.5 109.2 102.7 101.7 103.4 106.8 110.9 111.4 109.4 115 119.5 128.3 131.6 141.2 151.2 155.6 160.4 159.8 161.6 159.1 151.3 145.7 142.5 140.7 144.2 151.7 158.5 176 188.7 207.7 230.9 260.9 277 277.6 274.6 262 246.1 229.6 221.8 221.9 222.7 225 238.1 249.5 258.5 257.5 250.8 247 239.1 231.1 223.9 214 207.5 201.2 198.4 190.5 182.1 173.4 165.5 161.6 152.3 144.7 136 126.1 111.3 100.9 94.7 87.6 81 76 73.4 71.7 70.7 69.4 68.7 68.8 68.9 67.4 67.8 66.1 66.3 66.4 64.4 63.8 68.9 67.3 62.8 59.7 57.1 55.9 57.5 57 53 53.9 51.1 46.9 45.5 46.7 43.6 35.6 34.5 35.1 34.3 34.7 33.1 30.2 25.3 26 26.3 27 27.8 30.5
-2.6 -2.6 -2.6 -2.6 -2.6 -2.6 -2.6 -2.6 10.1 8.1 7.2 6.7 4.9 6.3 5.1 5.6 6.8 5.8 5.2 5.3 5.4 6.5 20.3 22.9 23.6 42.1 46 43.1 33.9 28.1 22.4 17.9 7.9 4.6 5.6 5.8 5.9 6.3 7 7.6 8.5 8.9 9.1 9.2 9.1 9 8.9 8.9 8.3 8.3 8.3 8.4 8.6 8.6 8.7 8.8 9 9.1 7.4 6.4 5.9 5.2 4.8 5.8 10.3 22.9 30.1 38 43.4 51.4 61.9 66.4 69.3 71 70.8 63.5 51.2 39.7 41.8 57.5 71.6 84.2 94.9 105.3 114.1 120.8 119.1 117.3 115.5 108.7 99.9 95.3 98 100.7 103.3 104.8 105 111.2 118.7 125.7 135 145.7 153.4 155.1 154.6 152.7 154.5 150.4 148.1 143 140.7 139.6 143.1 150.9 159.4 169.9 182.6 200.4 234.3 262.3 273.5 279 265.9 249.7 231.8 222.6 219.2 223.8 222.5 233.6 251.8 258 257.3 253.5 248.8 249.4 243.4 235.8 226 219.4 210.6 206.8 199.1 192.5 184 174.4 166.5 161 153.4 145.5 135.6 121.6 112.1 103.1 96.6 87.4 81.5 75.9 73.4 72.1 72.4 69.9 71.8 70.8 67.5 67.2 70.5 65.8 65.6 65.2 66.2 68.3 71.8 69.2 62.1 59.7 59.6 60.6 60.7 56.4 51.6 51.2 49 49.4 47.8 42.4 40.9 38.5 37.2 36 33.8 33.2 31.7 29.3 28.4 24.7 25.2 24 24.2 24
-2.6 -2.6 -2.6 3.7 3.3 3.2 3.3 3.3 12.7 15.3 8.4 5 4.6 5.4 5.4 6.4 6.2 6.1 5.6 5.6 5.8 7.9 29.6 24.2 40.6 50.5 48 43.2 29.7 22.3 12.5 7.5 4.7 5 5.5 6.1 6.6 7.3 7.3 7.7 8.4 8.7 8.8 9 9.4 9.3 9.2 9.2 8.9 8.4 8.3 8.5 8.5 8.2 8.2 8.4 8.6 8.8 6.3 6.2 5.7 5 4.3 6.3 18.5 28.5 38.8 44.4 50.2 57.2 64.4 71.9 70.1 75.2 66.6 56.7 40.7 31.6 50.6 66.6 78.5 92.2 106.3 119.1 126.5 124.1 123.6 123.6 119.7 108.9 96 87 88.6 90.3 93.7 98.8 105.4 113.1 121.3 126.2 140.8 149 152.1 154.2 153.2 153.5 146.8 144.2 143.7 141.6 139.7 141.3 145.1 153.7 163.3 174.2 187 200.4 220.1 257.4 276 266.7 250.1 239.1 226.5 216.4 215.2 219 223.4 240.5 249.5 248.3 240.8 238.6 248.2 249.9 245.5 238.2 229.9 217.2 214.8 208.7 197.1 192.2 186.2 177.2 170.5 163.1 155.2 146.6 134.4 122.7 113.2 103.5 97.2 88.2 81.9 76.4 74.8 75 73.7 73.3 73 69.3 67.9 66.8 65.8 65.6 65.5 66.1 70 74.3 74.4 70.6 66.6 63.9 63.6 63 61.6 57.6 53.9 52.8 55.3 51.5 47.5 43.9 40.2 38.6 38 37 35.4 34.2 33.1 33 32.2 30.7 33.7 34.5 28.9 23.9
-2.6 0.6 2.3 2.5 2.5 2.6 2.8 3 3.2 6.2 6.3 5.6 4.3 5.1 5.9 5.6 6.3 6.1 6 5.9 6.1 8.9 26.5 35.1 52.4 52.8 44.7 30.1 26.2 16 6.7 4.6 5.5 5.3 5.8 6.6 8.5 7.7 7.7 8 8.2 8.5 8.7 8.8 9.3 9.2 9.1 9 9.1 8.9 8.5 8.4 8.3 8.1 8 8.1 8.2 7.4 6.3 6 5.6 4.8 4.8 8.5 25.9 35 41.2 46.9 56.1 66.9 68.3 70.9 74.4 76.2 66.2 49.7 30.6 37.8 55 72 84.5 100.4 117.9 128 128 126.2 126.4 125.2 117.3 100.2 90.3 81.7 79.9 83.4 85.1 90.4 104.1 113.4 123 125.6 134.5 141.9 145 153.4 151.9 146.2 142.6 140.3 139.1 138.9 141.1 146 151.1 158.7 172.6 185.9 195.9 207.2 223.5 252.3 268.2 253.8 244 232.3 217.1 212.5 209.7 213.9 219.9 224.8 235.4 233 227.1 231.9 241.5 248.4 245 236.7 230.5 224.5 219 209.9 198.6 192.6 188.7 180.4 173.6 164.8 155.3 142.3 131.7 120.7 112.8 105.6 100.4 90.1 80.9 77.9 76.3 75.7 75 77.8 74.9 68.8 66.8 66.3 65.7 65.7 66 67.9 72.4 78.4 80.4 75.6 69 67.2 67.5 64 63.3 62 57.9 57.2 56.9 51.5 46 42.7 41.2 40 39.3 36.9 36.8 36.1 38.2 39.6 37.4 35.5 32.8 35.5 34.5 26.4
-2.6 0.4 1.5 1.7 1.7 1.9 2.1 2.3 2.7 3.2 4.7 8.1 4.7 3.7 4 4.4 5.3 6.1 6.3 5.5 5.5 8.4 27.2 51.9 54.2 48 33.3 27.3 18.1 7.2 3.4 5.9 5.9 5.9 6.4 8.4 9.5 9.2 8.5 8.5 8.1 8.3 8.5 8.5 8.9 8.9 8.8 8.9 9 8.6 8.1 8.1 8.1 8 7.8 7.7 7.2 6.4 5.6 6.2 6.3 5.8 4.8 8.9 26.6 39 48.9 56.6 65.6 70.5 68.5 74.4 73.4 67.7 56.1 40 23 38.4 49.4 68.8 92.2 106.9 120.5 124.4 123.9 127.9 129.7 122.5 111.1 98.5 88.7 83.1 76.1 77.4 79.9 92 99.3 107.2 115.5 118.2 125.4 133.6 139.5 141.1 139.4 138.6 137.9 138 139.6 141.7 147.7 153.8 159.2 167.3 175.3 190 206.7 218.7 241.6 253.2 250.2 241.6 229.7 221.8 211.5 207.3 205.2 211.8 213.7 215.3 216.6 219.7 217.8 222.1 232.5 242.7 240.4 239.2 231.8 227.1 219.2 210.6 201.5 194.7 188 181.8 174.2 165.9 154.8 141.4 131.6 119 113.5 109.4 100.6 90.8 82.4 79.8 77.3 77.5 78.5 75.1 69.7 67.6 66.8 66.3 66.6 66.3 68 71.6 76.2 85.1 86.3 76.4 71.5 70.1 68.6 68.9 69.7 65 61 58.9 56.1 50.6 47.6 46.7 44.6 43.9 43.4 40.8 38.5 39.5 41.8 44 41.3 39.7 36.4 32.6 33.4 26.8
-1.8 0.1 0.7 0.9 1 1.2 1.4 1.8 2.2 2.7 3.2 7.2 3.3 3.3 3.4 3.9 3.3 5.8 5.6 5.3 5.6 18.3 34.2 51.3 50.9 39 21.4 18.9 9.1 4 6.2 6.3 6.2 6.2 7.5 9 9.3 9 8.4 8.6 8.2 8.2 8.4 8.7 8.7 8.6 8.7 8.8 8.7 8.2 8.3 8.7 8.2 7.8 7.7 7.3 6.2 6.5 5.8 5.3 6.2 5.4 4.9 16.3 30 44.1 52.9 62.7 65.7 64.1 70.8 73.3 70.5 63 45.1 31.3 22.7 36.4 44.6 61.1 78 95 107.6 108 114.2 130.9 127.6 122.6 113 98 84 80.5 72.7 75.6 76.3 84.5 92.5 98 102.7 105.6 112.5 121.6 126.8 128.8 129.3 131 131.6 136.7 142.1 146.7 151 158.2 166.4 173.4 182.1 198.5 211.7 232.8 249 248.4 240.8 229.7 221.1 213.3 207.7 201.2 201.7 207.2 205.8 209 210.5 211.2 211.4 219 226.5 235.3 238.5 231.8 229.1 226.6 222.9 214.3 203 193.8 187.4 179 172.9 164 153.7 141.2 131.7 122 117.4 112.5 98.7 92.3 87 84.7 83.4 83.1 77.3 72.2 70 68.4 67.4 68.7 71.6 70.4 73 76.6 81.2 87.5 85.6 75.8 74.8 74.3 74.4 75.5 74.6 70.2 65.7 62.6 59.5 56 53 51.1 49.4 49 46.6 42.3 39.1 39.9 45.5 47.2 44.2 42.7 40.8 34.9 30.8 27.4
-1.9 -0.5 -0.1 0.2 0.4 0.6 0.9 1.3 1.8 2.2 2.3 2.6 2.4 2.4 2.5 3 3.6 4.8 5.6 5.6 6.8 19.6 31.4 47 41.4 25.5 18.4 9.2 5.3 5.9 5.8 6.1 6.7 6.8 7.9 8.1 8.9 8.3 8.2 8 8 8.3 9.1 9.2 8.8 8.5 8.5 8.6 8.3 8.2 8.5 8.8 8.9 8.8 7.5 7 5.9 6 6.1 5.1 5 5.2 7 19 36.8 45.8 53.8 59.4 62.2 69.9 73.9 71 66.2 47.8 30.7 24.9 23.7 34.2 44.4 56.6 66.1 79.8 88 94 110.4 119.4 121 116.9 109.5 92.5 78.8 72.3 65.7 71.7 73.3 80.9 85.1 89.7 94.8 96.3 102.7 107.2 112.6 116.2 119.1 122.9 125.6 132.2 140.5 148.7 152.4 160.6 170.8 177.4 184.5 195 218.5 239.2 240.8 238.6 230 220.8 211.8 211.6 207 198.6 198.2 200.9 199.6 202.1 203.3 202.5 206.5 217.5 226.8 235.7 230.4 225 223.9 225.9 223.6 216.2 205.8 192.3 185.3 181.4 170.1 161.9 151.3 142.9 132.9 125.8 120.9 113.3 99.9 95.7 92.1 89.7 90.1 81 77.8 74.3 72.1 71.6 73.3 74.8 75.2 76.7 78.8 81.3 84.4 86.9 82.3 79.9 82.2 81.8 80.6 78.8 78.4 75 71.5 68.3 65.7 61.4 57.9 57.8 53.9 51.8 48.7 45 41.8 40 46 48.1 44.4 42.3 41.4 38 32.9 27.4
-2.6 -1.3 -0.8 -0.5 -0.3 0 0.4 0.8 1.3 1.3 1.2 1.4 1.3 1.3 1.5 2.1 2.7 4 6.6 4.9 11.8 21.2 40.2 35.2 31.7 16.6 8.4 5.9 5.9 5.9 5.7 5.8 5.9 7.7 8.5 7.2 7.1 7.6 8 7.7 8 8.6 9.2 9.4 9 8.5 8.3 8.4 8.1 8.5 8.2 8.2 8.4 8.2 6.9 6.3 5.9 6 5.7 5.3 5.2 4.1 9.8 16.8 30.9 44.9 49.2 54.4 63.4 71.7 68.3 64.7 53.4 32 22.1 16.7 24 32.6 45 55.6 63.2 67 73.9 83.2 91.9 103.8 98.9 101.1 95.4 84.7 76.6 67.1 62.2 67.1 72.4 78.6 82.6 83.4 87.1 92.2 96.1 101 104.9 109 112.6 116.3 124.4 133.5 141.9 147.3 154 162.6 172 180.4 187 192.7 206.6 221.7 225.4 221.9 212.9 206.5 210 212.9 201.7 194 191 192 192.9 194.2 196.3 198.3 202.5 214.6 226.6 227.9 221.9 216.1 218.3 218.5 216.7 211.2 203 194.2 184.5 180.8 172.7 162.2 152.4 142.6 135.5 129.3 122.2 112.3 101.1 98.5 95.8 93.2 84.8 81.5 79.1 79.6 77.2 76.5 78 80 81.9 84.4 87.4 88.5 85 85.5 83 85.4 87.5 86.1 84.4 82.7 81.7 79.8 77.8 76.5 73.1 68.5 64.1 60.3 57.8 57.4 55.8 52.6 46.5 42.6 47.2 46.9 43.5 41.6 39.3 37.3 33.8 29.6
-2.6 -2 -1.5 -1.2 -0.9 -0.5 -0.1 0.3 0.2 0.2 0.1 0.3 0.2 0.2 0.5 1.1 1.7 2.5 3.3 4.9 13.6 26.7 35 24.3 18.7 7.9 5.7 5.4 5.4 5.7 5.7 5.7 5.7 6 6.5 5.9 5.9 6.6 7.4 7.9 8.5 8.8 9.3 9.5 9.1 8.7 8.3 8.2 8.2 7.7 7.5 7.1 7.3 7 6.2 5.6 5.8 5.2 5.6 5.4 5.6 4.9 7.2 20.1 32.7 38.5 45.1 53.1 60.3 60.2 52.5 51.7 37.8 23.1 16.1 15.8 23 32 45.3 55.4 61.9 61.2 64.9 76.7 73.9 76.4 78.4 88.4 86 75.7 64.1 62.1 61.3 68.5 74.5 76.6 77 78.3 86 91.6 98.1 101.7 103.9 107.6 113.4 118.5 126.3 136.2 145.3 146.9 155.7 168 178.3 181.1 182.4 182.5 191.1 198.8 204.7 203.7 200.7 207.4 205.3 202.3 194 189.2 188.1 187.4 187.1 188.9 191 192.1 197.7 213 210.9 207.6 206.4 207.1 207.3 208.8 209.1 207.4 202.7 197 189.4 178.4 170.3 163.6 154.8 145.1 135.5 129.8 122.7 113.8 102.9 100.3 95.3 89 84.1 83 82.3 84.2 83.1 82.7 83 86 91.9 92.9 91.5 88.2 86.3 87.5 88.3 90.7 91.5 93.5 91.8 91.8 88.7 88.1 86.3 83.1 80 74.7 70.9 64.6 65.5 65.1 64.3 59.6 52.3 51.2 50.4 48 44.6 41.6 38.1 34.8 33.2 33.4
-2.6 -2.6 -2.6 -1.8 -1.4 -1 -0.7 -0.8 -0.8 -0.9 -0.9 -0.9 -0.9 -0.8 -0.4 0.1 0.8 1.6 2.6 5.5 9.7 29.2 19.9 8.7 7.3 5.8 5.6 5.3 4.8 5.4 5.5 5.6 5.5 5.8 5.8 5.8 5.8 6.3 6.8 7.4 8 8.8 9.4 9.7 9.2 8.8 8.4 8 7.9 8 7.6 7.1 7.1 7 6.8 6.3 6 5.7 5.8 5.4 5.6 4.9 6 16.4 24.6 32.8 44.2 51 53.5 49.9 40.6 31.1 20.7 15.4 11.3 14.2 21.3 33 44.5 54.1 59.1 56.7 58.4 59.8 59.3 65.3 65.9 72.5 74 66.8 57.2 55.6 62.2 67.6 71.7 72.7 74.3 82.8 91.7 97.5 105.2 110.1 110.2 108 115.2 121.2 127.5 133.1 138.6 147.5 162.4 170.4 173.7 175.5 176.4 176.8 179.9 183.2 192.2 192.5 197.9 202.8 200.3 197.1 187.9 187.2 186.4 184.9 184.8 184.7 185.5 188.4 191.7 197 195.3 196.3 196.5 198.9 199.7 200.3 203.1 204 204 199 186.2 179.9 171.4 164.3 154.7 145.9 135.4 130.5 123.5 114.6 106.6 101 95.1 87.8 85.8 85.3 85.6 85.6 85.7 87.1 91 93.9 94.3 92.9 90.5 87.9 90.4 92.5 93.7 95.2 95.4 97.2 97.9 98.6 98 93.4 91.5 88.3 85.5 80.4 70.9 72.8 76.4 74.5 68.7 63.3 58.2 53.9 52.4 46.9 44.3 42.5 40 38.2 38.3 35
3.7 -2.6 -2.6 -2.6 -2 -1.7 -1.8 -1.8 -1.9 -2 -2 -2.6 -2.6 -1.9 -1.5 -0.9 -0.2 0.7 1.6 3.3 6.4 9.4 7.9 6.1 5.8 5.8 5.5 5.2 4 5.2 5.3 5.4 5.4 5.7 5.6 5.7 5.9 7 7.3 7.4 7.8 8.6 9.2 9.8 9.4 9 8.8 8.6 8.3 8.3 7.4 7.1 7 6.9 6.9 6.7 6.3 5.7 5.6 5.5 5.2 4.3 5.1 6.8 17.4 30.8 39.5 46.9 46.6 45.4 24.9 12.5 9.4 9.2 9.5 12 22.3 33.3 42.3 45.5 51.6 51.5 48.8 46.6 47.7 47.8 52.1 58.9 61.3 58 54.1 56.4 61.1 65.5 68.1 73.4 81.5 87.5 93.9 99.6 105.8 110.9 114.3 115.8 113.7 121.1 123.7 127.4 133.4 143.4 152.3 162.2 166.9 171.1 172.8 172.8 174.8 177.6 181.9 188.3 192 189.4 189.9 187.3 185.5 185.1 184.7 184 184 184 184.4 184.7 185.7 187.2 189.8 192 192.1 193 192.3 194.3 197.8 197.6 196.1 190.3 185 179.1 169.9 160.5 153 145.5 137.3 131.5 124.5 114.5 107 99.4 93.5 90.2 86.6 86.3 88.1 86.4 89 94.4 98.1 94.7 94.7 93.9 92.7 94.1 99.2 98.5 99.1 99.8 101.6 104.8 105.1 107.5 101.7 98.8 96.3 92.2 89.5 81.4 76.3 81.8 79.1 76.7 74.2 70.2 64.8 58.1 52.8 52.5 52.8 50.6 45 42.6 42.6 38.6
4 3.7 -2.6 -2.6 -2.6 -2.6 -2.6 -2.6 -2.6 -2.6 -2.6 -2.6 -2.6 -2.6 -2.6 -2.6 -1.3 -0.4 1.3 3 10.7 6.7 6.3 5.7 5.7 5.7 5.7 5.6 3.1 5.2 5.2 5.3 5.3 5.3 5.4 5.5 6.1 6.9 7.6 7.7 8 9.1 9.3 9.4 9.1 9 8.6 8.8 8.2 7.9 7.9 7.4 7 6.8 6.7 6.6 6.3 5.7 5.6 5.5 5.4 5 4.5 5.3 17.3 22.3 29.4 27.6 24.5 19.4 13.5 8.2 6.3 6.7 8 12.4 22.2 30.2 35.5 39.3 45.4 44.4 40.8 36.8 37.1 41.1 45.4 49.3 50.6 49.2 53.3 59.4 62.8 66.7 72.4 81.1 87.3 94 97.8 102.6 107.8 111.5 115.1 120.4 123.1 125.9 131.7 139.3 149 156.5 161.4 167.3 166.7 168.3 169.7 171.2 172.9 174.5 177 177.5 178.1 179.3 182.8 183.9 184.6 184.2 183.7 183.6 183.6 184 184.1 184.8 185.6 185.5 189.1 188.1 188.6 190.3 188.1 189.5 190 190.9 189 185.5 183.3 158.7 164.4 158 150.8 144.9 138.7 132.2 123.5 115.1 107 99.8 94.3 89.6 87.1 86.3 87.4 89.5 93.5 97 97.5 95.5 96.2 94.9 95 102.2 102 104.4 104.7 105.1 108.2 110.4 110.5 106.8 107.2 105.7 101 97.2 89.3 83 88.3 85.2 84.9 81.7 79.2 77.9 69.8 61.1 53.8 58.9 58.6 53.5 47.3 46.8 46.1 42.9
4.2 3.9 3.6 -2.6 -2.6 -2.6 -2.6 -2.6 -2.6 -2.6 -2.6 -2.6 -2.6 -2.6 -2.6 -2.6 -2.6 -0.9 1 6.6 7.6 5.8 5.7 5.6 5.6 5.5 5.4 5.5 4.8 5.2 5.4 5.4 5.4 5.4 5.5 5.9 6.5 6.9 7.2 7.5 7.9 8.9 9.2 8.1 7.5 7.2 7.2 7.4 7.5 7.3 7.1 6.8 6.8 6.9 6.7 6.5 6.1 5.4 5.6 5.8 5.5 5.1 4.5 6 10.5 14.4 16.7 16.8 13.8 9.2 5.6 5.4 6.3 6.2 8.3 13.9 15.2 21 29.3 36.3 40.8 37.6 32.3 33 40.3 41.2 42.7 45.5 47.6 52.6 58 63.9 70.6 74.2 80.4 89.1 94 98.5 103 107.5 111.7 116.8 119.9 124.1 129 133.3 138.5 148.7 158.3 163.3 166.6 169.4 169.7 168.5 168.8 169.8 171.3 172.6 174.1 175.9 177.3 178.4 179.8 181.6 183.3 184 183.6 183.7 184.2 185.2 184.9 186.2 185.3 184.6 184.9 185.1 186.1 185.1 183.7 183.6 182.4 185.8 185.9 183.7 173.9 161.5 163.8 155.7 149.4 144.5 138.1 130.3 120.9 113.6 106.8 99.5 91.9 88.6 87.8 87.5 89.3 91 94 94.8 97 96.7 94.4 96.5 101.1 103.1 107.3 110.4 109.4 109.7 112.3 113.3 113.6 113.8 114.3 111.9 104.8 99.7 93 93.7 91.4 91.3 88.2 86.6 86.2 83.1 72.9 57.9 61.2 64.8 62 55.7 50.7 51.8 50.2 48.4
