ncols 200
nrows 82
xllcorner 320000
yllcorner 495850
cellsize 50
283.4 269 265.2 271.1 270.6 278.3 280.1 282.7 287.7 302.2 300.9 304.4 304.3 299.4 302.5 306 309.4 320.8 337 348.5 362.1 378.9 403.6 425.8 471.8 505.6 520.4 536.7 551.2 553.4 554.3 559 563.6 566.4 569.3 570 569.7 567.1 565.5 561.5 559 556.9 554.3 547.5 538.4 530.1 522.1 514.2 509.1 502.4 488.8 478.3 461.7 439.1 413.2 392 372.8 353.7 334 319.8 308 293.5 273.6 266.9 263.9 242.1 240 223.1 207 200.8 196 191.4 189.7 191.4 188.4 188.4 188.7 187.2 188.5 189.8 192.1 200.9 217.8 236.9 257.2 274.4 297.3 326.7 351.2 373.2 387.6 402.5 413.9 425.6 437.8 449.5 469.9 481.5 494.2 500.5 504.2 507.9 514.4 524.9 535.4 549.3 565.8 581.4 598.9 617.4 631.9 641.9 652.7 662.7 669.6 673.3 677.9 681.4 686.9 688.2 680.6 672.3 665.4 656.5 652 639.1 599.6 579.5 562.5 559.5 543.4 514.2 500.6 502.5 517.2 529.8 542 564.2 590.6 629 671.6 700 722.5 741.2 753.1 763.1 758.5 735.2 709.5 696.4 682.8 653.8 622.7 557.6 513.6 490.5 481.8 487.4 489 493.7 498.3 522.8 537.5 552.7 569.3 563.6 526.8 501.6 466.2 427.9 401.7 385.4 381.3 397.9 412.3 431 448 473.5 497.1 519.1 548.4 574.7 595.6 618.2 617.4 602.5 576.4 539.6 502.2 478.5 440.6 403.3 359.4 348.1 335.4 317.8 315.9 322 319.8 320.2
285.5 274.2 273.3 281.1 280.5 287.8 289 291.5 302.3 323.8 331.1 323.7 312.4 305.5 309.8 314.1 319.2 325.4 337.5 350.1 364.7 383.6 405.3 437.1 468.4 490.9 512.4 551.2 563.6 576.1 571.2 573.3 578 582.8 585.7 589.6 589.7 586.2 582.4 577.8 572.5 568.4 563.9 558.3 550.5 541.5 530.7 521.2 513.6 506.2 493.1 480.4 467 451.1 423.4 397.1 370.1 346.5 328.5 316.6 305.9 291.2 270.3 249.5 242 235 235.5 216.6 199.3 194.5 193.9 189.8 188.8 188.6 187.9 187.7 186.5 187.9 188.9 190.2 194.8 204.1 222.4 242.2 262.4 282.7 309.2 338.1 367.9 382.9 401.2 413.2 425 432.7 439.8 452.2 468.5 486.9 500.1 505.6 507.6 510.6 518.5 529.8 539.2 551.1 564.9 584.6 598.4 613.2 626.7 638.7 647.9 655.9 663.3 669.2 670.1 674.3 681.4 684.3 675.9 667.9 660.3 652.8 652.9 636.3 594.2 570 550.9 537.8 523.3 505.8 492.5 494.2 510.2 520.7 533 554.9 585.6 621.9 666.4 694.9 717.9 734.4 746.3 749.6 723.6 701.3 684.6 669.1 649.7 645.9 608.8 551.2 517.4 488.3 478.9 481 479 488.8 495.3 512.7 534.3 551.3 570.2 549.4 522.9 497.1 460.5 422.3 396.7 380.3 372.5 384.5 396.9 411.3 435.9 454.3 473.3 509.1 538.8 567.7 593.4 610.6 610.1 595.4 566.9 541 498.5 466.4 433.6 388.6 365.6 351.8 334.4 321.2 320.1 328.5 321.6 331.9
284.5 278.4 285.2 285 286 290.9 295.2 304.6 310.2 332.3 333.8 329.5 319.7 312.1 316.6 328.5 335.2 339.4 346.2 354.8 371 383 405 426.8 457.7 475.8 496.5 522.3 548.4 565.4 573.6 579.6 588.5 594.2 600.8 604.6 609.6 609.4 606.2 603 590.1 582.4 578.6 571.8 560.1 547.6 535.7 523.6 513.2 502.9 493.4 481 460.3 438.3 416.8 395.9 366.6 345 321.7 310 299.7 283.2 262.3 237 228.1 237.6 214.9 205.2 195.9 191.7 190.1 188.7 187.8 187.2 186.4 186.3 186.4 189.7 191.7 194.1 202 212.2 228.7 247.8 270.4 292.6 317.4 342.9 368.1 388.6 405.5 420.7 431 439.9 448.9 459.4 469.2 486.2 498.9 509.4 510.2 514.6 520.4 529.1 539.3 552.1 565 583.7 599.8 616.3 626.9 637.8 646.8 654 658.1 659.7 662 668.4 670.5 675.5 670.4 663 653.4 645 652.2 632.3 589.4 560.7 540.8 522.9 509.3 493.4 482.5 487.9 499.1 509.8 524.3 547.8 578.2 614.3 651.4 688.1 713.7 730.3 740 727.4 696.1 670.4 652.1 623 601.2 588.1 558 535.3 509 484.2 469.1 471.3 470.1 478 483 506.3 523.5 550.4 563.9 551.1 516 498.6 463.4 422.3 390.8 373.8 362.5 370.3 384.4 400 421.6 439.8 465 497.7 532.8 561.9 591.1 611.4 601.9 584.2 558.4 531 493.8 454.2 423 391.6 370.4 358.2 339.5 329.5 326.4 330.6 333.8 336.7
282.9 284.9 294.7 297.6 292.4 294.8 301 309.8 317.1 329.1 332.4 328.2 319.5 316.2 318.8 336.8 346.4 352.9 355.7 363.1 372.1 384.1 399.3 418.3 441.7 465.4 486.5 508.1 531.2 552.1 567.8 577.8 590.5 599.6 608 618.5 622.8 624.4 618.5 612.9 602.8 590.1 584.8 577.1 564.5 548.7 537.5 523.4 509.6 499.1 487.1 469 445.9 424.7 407 381.5 357.1 337.9 318 296.7 284.2 281.4 254.6 227.1 211.7 206.2 201.8 196.1 194.8 189.4 189 187.9 187.2 186.2 185.3 186.6 189.7 194.2 200.5 205.1 211.7 220.8 235.3 253.7 276.8 298.6 322.5 347.8 366.8 388.2 408 422.8 434 445.2 457.4 466 473.4 482.8 491.8 503.3 511.2 517.9 524.9 533.9 543.5 554.6 570 586.2 601.3 613.3 622.4 634.5 644.2 652.8 652.7 646 648.9 654.1 656.4 652.2 653.7 648.7 639.7 632.1 633.7 628.4 583.1 551.2 530.4 512.8 494 480.5 472.7 478.7 494.3 505 519.1 542.2 572.8 611 650.6 682.1 706.6 724.6 736.2 712.4 670.8 645 620 588.3 565.7 548.3 529.7 521.5 495.7 476.1 463.5 459.3 462.5 473.5 470.7 491.1 515.4 542.1 559.1 549.2 510.2 482 443.8 410.2 383.8 367.8 360.4 363.3 375.1 393.6 409.7 432 459 494.9 531.7 558.5 583.5 598.1 590.9 566.8 547.2 525.8 494.3 449.8 423.5 401.1 378.8 362.4 349.2 333.8 340.4 343.5 344.8 342.4
283.3 288.2 303.7 310 308.7 307.5 306.2 310.7 317.1 324.1 332.5 328.5 319.4 317.8 318.3 325 336.8 351.1 364.4 369.9 376.4 385.7 397.1 413.6 434.7 459.5 481.8 503.6 521.2 544.2 559.9 573.4 585.2 599.4 611.1 624.8 636.1 637.1 636.4 618.5 606.1 594.6 590.6 576.4 562.1 546.4 533.8 520.5 505.3 492.1 481.9 459.1 435.8 416.4 396.8 373 351.5 333.3 309 284.9 268.2 254.1 238.8 217.5 203.3 198.5 193.4 190.9 189.6 187.8 187.4 187.5 186.7 184.7 186.7 190.2 198.8 204.7 212.1 215.9 222.2 229.5 242.2 260.1 284.9 306.3 329.6 349.5 372 389.7 406.5 427.5 440.4 451.9 462.5 471.7 478.5 487.1 496.5 505.8 514 522.6 530.4 539.7 547.5 556.3 571.3 585.5 597.7 609.3 618.9 629.8 632.5 635.6 629.6 633.8 632.7 636 637.5 635.7 637.9 633.6 626.5 616.5 614.7 604.3 570.6 539.9 520.7 501.6 485.1 474.1 460.3 473.2 485.2 499.1 516 539.4 569.7 606.3 645.9 678.7 704.6 724.7 734.9 715.1 666 630.1 598.6 567.5 544.9 524.8 512.4 499.6 483.6 463 460.6 460 456 458.5 458.8 476.9 510 527.8 543.8 547.1 510.4 464.4 428.5 398.4 377.5 363.4 355 359.8 374.2 386.4 404.7 426.7 456.9 493.5 528.5 556.9 576.2 584.5 571.5 549.8 531 511.5 487.8 448.6 421.7 402.6 381.3 363.4 352.7 346.6 355.9 353.4 345.8 341.6
286.8 293.8 312.1 328.3 325.6 323.6 323.4 323.9 323.6 325 326.6 328.3 322.9 319.7 320.4 326.8 337.6 347.9 357.3 365.8 373.8 382.2 392.9 405.5 427.6 454 476.7 495.3 511.1 527.9 549.6 565.5 580 595.8 607.9 618.5 630.4 637.2 636.7 621.9 605.1 597.6 587.3 575 558.5 541.2 527.1 514.9 499.1 484.3 472.4 449.7 430.1 414.7 397.5 368.1 348.3 327.6 302.1 276.5 260.1 246.6 227.7 211 200.8 194.6 189.3 187.7 186.3 186.5 186 185.1 184.6 186.1 189.8 199.5 212.6 218 222.3 225.6 231.8 238.1 245.9 269.3 294.3 317.4 340.3 358.6 383.5 395 409.7 431.6 450.7 456.8 470.2 478.4 484.3 493.6 502.4 510.2 520.6 528.3 535.6 543.9 550.8 560.6 569 582.2 592.4 603.7 611 615.2 617 608.4 607.1 606.4 606.5 613.2 621.4 631 627.6 615 602.3 598.9 591.6 580.2 555.9 528.7 509 492.5 478.2 467.6 453.5 458.1 472.8 492.5 511.8 538.4 569.4 607.6 646.6 678.9 706.9 724.8 733.8 715.3 685 640.1 585.6 545.3 520.8 505.4 493.2 489.5 473.5 452.6 452.3 461.2 443.3 446.5 448.5 473.8 501.8 518 541.1 545.1 522.8 472.9 419.2 392 368.2 356.9 350.2 358.1 371 382 401.9 423.7 454.8 490.4 528.7 556.1 569.5 573.7 554.6 538.2 519.3 505.6 474.8 447 426 414.2 386 369.1 352.2 365.4 364 357.4 352.4 342.6
289.9 295 313 336.2 330.8 329.1 333.3 338.2 343.4 339.6 337 336.2 332.5 328.1 324.9 323.8 336.2 353.5 356 360.7 367.1 377.8 388.6 400.7 415.3 440.4 465.2 484.5 500.3 515.9 537.8 554.9 574.3 586.9 601 612.6 618 622.8 621 611.2 596 592.8 585.1 569.6 553.3 535.9 519 507.2 491.1 477.8 463.3 438 417.4 408.8 387.1 360.2 342.5 325.1 299.5 271.1 257.5 246.7 224.1 207.6 198.3 193.4 189.2 186 185.9 186.1 185.9 184.5 184.5 191.1 198 212.1 226.5 228 230.7 229.2 233.2 241.4 255 281.5 308.4 329.6 351.8 369.5 388.8 403.3 415.9 429.4 447.8 460.3 469.8 479.4 488.5 497.4 512.4 519 527.6 535.9 540.3 548.7 555.6 561.9 569.2 578.1 587.3 595.6 592.3 593.1 584.1 578.2 573.2 582.9 597.2 603.6 621.1 621.9 587.7 581 576.7 573.3 569.8 561.5 540.7 515.9 496.7 480.4 466 451.6 441 454.5 474.6 494.5 514.1 541.5 573.1 611.7 648.2 681.2 706.7 723.2 710.2 689.9 656.9 631.1 574.7 536.4 506 491.7 487.6 479.2 470 447.9 439.4 438.2 432 434.3 439.9 463.9 495.4 511.1 531 533.4 504.8 442.6 404.5 375.7 358.4 350.2 345.8 359.9 367.9 382.2 400.2 423.4 453.1 490.8 528.1 552.2 565.6 553.7 544.7 525.9 511.5 493.7 472.4 451.1 431.2 415.6 389.5 375.9 373.3 373.4 369.6 361.1 354.1 349.7
291.5 295.8 306.5 321.9 329.6 332.5 341 356.1 354.9 356.2 350.8 345.5 341.6 338.3 333.8 329 332 341 347.2 353.8 361.7 373 385.1 399.6 413.8 432.1 452.8 474.4 488.6 503.3 524.6 542.6 558 575.7 589.6 595.2 601.3 604.1 600.6 594.4 585.8 583.3 581.1 562.2 546.1 530.6 514.5 502.7 486.9 472 457.8 422.6 404.6 386.2 379.4 348.8 335.9 316.5 291.1 261.8 247.5 236.3 216.2 202 193.9 189.7 186.9 184.5 185.3 183 183 184.4 187.8 199.8 210 222.5 232.6 231.1 231.9 231.8 235.3 244.2 268.8 299.6 321.6 341 360.2 377.8 392.6 412.8 427.1 438.4 450.8 463.2 473.3 481.8 489.8 500.2 510.5 522.9 536.7 541.9 545.1 551.4 556.7 562.9 569 574.5 578.7 568.6 559 552.8 540.8 539.1 527.1 523.6 539.3 564.4 570.2 587.7 553.6 542.2 536.9 536.9 532.8 527.9 515 495.8 481.4 468.3 453.9 440.6 438.1 455.8 472 490.1 513.8 540.8 576.6 613.1 648.3 680.6 703.4 695.6 676.8 656.1 626.6 608.9 580 538.4 494.6 477.2 469.8 466.4 459 446.3 433.3 423.8 422.1 422.6 426.1 450.5 480.7 504.1 516.7 520.2 479.5 421.4 391.6 367.6 351.9 345.9 344.1 357.4 366.3 381.7 400.9 423.3 454.4 495 530.3 547.9 555.3 544.4 532.8 514.1 501.7 488.2 471.8 451.8 427 409.4 392.3 375.9 389.5 375.8 367.2 361.1 359.2 347.3
298.7 299.9 309.9 320.6 334 341.3 351.3 383.9 370 368.4 360.7 352.8 346.9 342.7 339 337.6 339.7 337.8 342 349.5 357.5 367 380.2 394.9 414.7 429.6 446.3 462.3 478.4 491.3 513.9 529.5 542.1 563.4 572.5 580.7 585.3 591.8 587.7 582.9 576.4 575 575 556.2 539.1 524.2 510 500.9 480 466.5 434.5 406.7 389.6 369.6 352.3 337.9 328.3 313 282 256.3 238.1 224.3 208.3 196.1 189.7 186.9 184.7 183.2 181.8 185 189.4 192.4 191.9 207.6 225 229.5 236.9 234 231.6 232.4 238.4 254.6 283.3 310.1 327.6 347.1 365.8 382.1 397.4 417.1 434.8 449.4 462.9 473.9 482.3 488.3 496.9 508.6 514 524.7 534.5 544.4 546.5 548.4 551.6 554.3 551.8 545.2 534 526.5 518.5 511.5 502.8 496.1 490.6 481.6 481.8 498.8 543.4 542.2 506.5 497.7 495.9 491.4 493.2 486.8 483.2 469.8 464.8 458.6 445.7 435.6 434.1 450.5 473.1 486.4 512.8 542.9 580.1 617.4 651.4 679.9 682.7 653.9 631.1 603.9 578.5 556.1 539.9 515 485.2 461 450.6 445.2 444.9 434.6 425.7 411.4 411.4 411.4 411.8 438.6 468.5 482.8 497.1 499.2 448 409.2 381.2 363.5 347.9 339.1 344.4 350.8 363.1 383.2 402.4 422.3 457.9 490.2 519 536.9 536.7 529.5 518.5 507.5 493 482.4 459.6 445.9 422.4 404.4 391.7 395.3 388.5 376 369.5 362.8 357.6 345.5
312.2 314.3 316.1 334.4 339.5 353.1 369.3 400.8 383 372.9 365.1 358.1 352.3 347.2 343.9 344.4 342.1 340.3 341.1 346.2 353 363.6 378.3 395.5 417.1 432.2 442 453.4 468.8 482.2 494.8 512.6 523.2 540.6 548.8 555.6 562.6 563.7 567.1 564 563.3 577.9 566.1 552.9 534.2 515.4 501.2 487.9 473.4 456.1 429.2 393.4 375.8 356.2 342.1 332.5 323 311 280.5 253.2 234.6 220.5 202.8 192.6 187.6 185.2 183.2 181.3 183.7 188.5 201.8 199.6 191.6 211.7 231.8 242.4 241.1 237.8 231.6 232.1 241.2 271.4 296.2 317.6 333.2 349.5 370 388.6 412.6 430.5 446.5 454.7 463.7 476.2 486.1 496.9 501.3 513.6 521.5 528.5 535.2 540.9 543.4 541 537.8 531 519.7 506.9 495.1 486.9 482.3 476.6 471.5 466.1 457.6 449.6 450.6 461 489.9 477.8 470.1 462.4 456.9 455.6 454.7 455.7 448.5 448.1 451.2 447.2 434.4 427.6 431.1 445.5 463.9 485.7 513.3 545.1 586.6 622.7 658.1 682.7 679.4 654.9 611.3 575 549.6 528.2 510.2 491.2 471.5 452.8 437.6 429.2 428.2 418.7 411.4 411.4 411.4 411.4 411.4 422.8 449.2 477.5 485.8 478.3 438.3 402.3 374.3 359.9 342.2 329.6 340.7 348.8 362.6 384.4 400 426.6 450.7 480.9 501.4 515.3 523.6 513.6 504.1 494.8 477.1 463.5 450.5 438.3 421.1 402.7 400.7 394 381.7 373 367.9 364 362.7 359.3
323.8 329.5 330.5 339.2 361.7 372.3 379 395.2 389.5 377.2 367.9 361.1 355.5 350 346.4 344.6 342.2 341.5 341.5 343.1 348.4 359 373.1 389.2 409.4 431.3 442.7 451 460.9 471.3 482.1 493.5 502 513.3 525.1 530.6 534.5 537.3 540.6 541.9 543.6 555.8 556.8 547.7 528.6 508.4 492.2 475.2 456.5 439.1 419.6 381.7 361.7 345.7 333.5 327.2 321.1 313.9 279.2 250.3 229.9 213.9 198.5 190.8 186.6 184.8 184.5 181.3 184 188.2 198.1 196.6 192.9 209.2 228.5 244.4 250 238.7 230.5 234 250.2 279.1 313.1 333.7 343.3 357.7 375.5 396.3 417.9 442.1 450.5 458.7 464.3 472.7 484.5 495.7 502.1 515.2 519.9 531 536.4 536.8 533.2 525.2 515.9 504.5 490.5 480.6 470.8 464.4 456.4 450.3 445.1 441 432.6 426.3 426.3 433.4 444.5 442.7 434.3 429.2 425.1 425 429.6 428.1 422.6 436.5 439.4 433.5 418.4 422.6 436.7 447.9 466.5 489.6 518.8 552.5 595.6 633.8 666.2 682.6 654.3 627 590.3 558.7 537.6 518.8 493 471.8 451.1 436.5 428.6 419.5 414.2 411.4 411.4 411.4 411.4 411.4 411.4 411.4 441.7 467.6 469.6 469.6 434.1 398.2 368.9 352.3 339.9 325.1 337.7 347.3 364.9 382.1 399.3 421 449.3 467.5 492.5 510.5 509.1 501.4 493.8 483.3 466.1 448.5 434.6 421.8 405.9 409.4 406 393.8 380 379.5 371.8 366.9 368 368.4
333.7 341.6 345.2 343.6 364.7 381.3 384.1 383.1 384.7 376.5 368.1 362.6 357.1 352.2 348.3 345.9 343.7 343 342.3 342.7 344 349.7 370.5 384.6 407.8 428.7 441.5 447.1 459.8 465.6 472.7 480.4 487.7 496 504.9 509.5 515.8 517.2 521 523.6 522.3 534.9 541.5 533 517.8 498.2 480.7 464.9 445.3 426.8 400.2 372.9 353.5 333 322.3 320.9 322 296.9 273.4 237.8 221.8 210.4 197.5 192.1 189.5 188.4 187.6 183.9 181.6 199.8 193.6 187 195.9 205.7 223.9 245 262.2 235.8 227.5 241.1 263.2 288.7 329.6 347.7 353.9 373.1 389.4 403 419 431.9 447.2 458.2 460.5 469.3 482.5 496.6 506.5 515.2 519.8 528 532.5 527.7 522.5 505.4 495.5 483.5 472.3 461.6 452.1 441.2 433.5 423.3 417.5 414.7 412.7 410.2 410.6 411.1 413.2 411.9 405.7 401.1 399.5 398.2 400.6 403.1 403.8 412.6 427.9 418.1 409.5 424.6 442.4 453.2 468 497.7 526.7 563 604 642.7 676.2 686 639 610.9 581.3 560.1 544.5 525 505.2 484.9 455.1 431.2 418.7 414.6 411.4 411.4 411.4 411.4 411.4 411.4 411.4 411.4 422.1 442.2 452.9 458.4 434.9 396.9 364.8 344.3 335.1 324.3 335 349.9 364.2 377.8 398.5 423.8 448 466 488.8 497.1 492.6 485.6 480.1 470 451.6 434.3 421.9 405.3 405 410.5 407.2 402 385.4 381.1 374.8 376.2 384.2 376.4
342.7 351.5 359.3 358.5 360.8 376.2 387 382.3 380.7 374.3 368.2 362.9 358.2 354.4 349.6 347.1 345.5 345.3 345 344.5 344.2 345.3 361.2 381 393.2 411.2 431.1 437 450.8 454.3 459.4 470.9 476 479.1 485.7 493.9 495.5 496.2 501.8 502.7 498.7 509.7 521.4 513.3 503.1 487.9 471.5 456.3 436.5 418.4 395.4 366.2 339.6 316.9 308 300.8 292.6 272 252 227.9 210.9 205.4 198 195.7 191.3 188.9 188.5 184.8 174.8 199 188.6 187.4 188.4 200.9 218.2 239.4 258.2 226.7 224.3 246.4 274.1 309.6 329.5 346.3 358.5 377.9 401.5 419.3 427.6 438.9 444.4 448.6 459.6 468.4 481.3 490.8 506 517.9 517.7 522.1 517.6 517.3 502 489 480.9 467.7 457.3 447.2 435.7 424.3 413.7 406.4 401 400.2 398 394.7 391.4 389.8 389.5 388.1 382.4 383.4 380.5 381.2 384.4 385.6 395.2 401.7 406.8 404.4 408.9 422.6 439.1 452.1 474.1 502.7 534.9 570.7 613.4 653.3 685.2 696.4 648 605 579.3 560.1 548.6 537.4 530.7 516.1 473.6 445.9 419.9 411.4 411.4 411.4 411.4 411.4 411.4 411.4 411.4 411.4 411.4 418.3 435.5 441.5 432.9 405.5 369.3 343.2 328.6 318.9 329.9 350.1 360 367.9 390.4 411.4 429.4 466.4 483 480.9 482.2 462.1 463.5 451.1 441.3 424.5 413.9 404.3 414.1 413.2 407 399.7 388.1 385.4 379.9 383.8 395 382.3
361.6 371.9 379 376.6 376.8 376.8 377.9 380.3 379 373.5 368.1 363.3 359.7 355.5 351.7 348.3 347.7 348.5 348.1 346.8 345.6 345 353.6 371.3 384.1 394 408 419.1 433.9 439.8 443.2 462.2 461.8 462.8 464.4 467.7 471.9 475.3 477 480.9 482.5 487.9 495.2 496.5 490.8 487.4 463.2 444.5 425.4 409.9 391.5 358.9 327.5 305.9 288.9 286.8 278.5 264.1 239.3 221.8 208.4 203.3 203.3 199.4 193.3 189.8 188.9 184.9 178.4 177.9 180.9 185.6 187.5 197.7 212.5 234.4 248.5 217 226.2 248.9 276.7 296.3 323.5 337.1 367.6 386.9 397.5 410.5 419.8 428.8 434.8 442.9 454.6 466.2 480.3 490.2 503 515.5 514.2 506.2 503.4 497.2 484.2 474.2 462.9 454.3 445 434.6 419.8 406.8 402.3 397 391.2 388.8 384.4 381.8 379.4 378.5 377.3 376.7 377.4 377.7 378.9 379.6 380.3 381.6 383.4 387.2 394.5 394.3 408.4 423.7 437.5 457.8 486.7 512.4 544.8 585.6 627.8 668 697.3 707.2 655.8 607.3 582.9 568.9 556.9 546.6 559 538.8 492.2 453.6 428.5 411.7 411.4 411.4 411.4 411.4 411.4 411.4 411.4 411.4 411.4 416.9 432.1 432.6 436.7 412 370.8 344.8 327.7 315.3 324.2 349.6 347.8 351.9 370.1 396.1 427.1 452.2 458.2 472.9 461.5 450.9 447.5 441.8 434.1 419.8 410.9 409.7 418 415.8 401.2 393.6 389.3 388.3 387.1 389.5 395.9 374.8
379.2 398.6 393.5 398.3 399.2 388 388.9 382.9 377.9 372.9 368.7 366.1 363.2 357.8 354.2 351.3 348.9 348.8 347.9 346.5 345.6 346.6 350.4 361.2 372 381.9 391.9 402.2 414.2 424.4 428.3 437 444 447.5 450.7 453.3 456.9 459.1 462.8 465.5 470 477.8 489.5 486.3 478.7 470 459.9 438.8 420.6 406.3 386.5 353.7 321 295.2 275.1 264.2 254 242.2 232.3 220.5 211.1 208.1 209.7 202 196.7 190.9 189.2 184.9 179 174.3 175.8 181.8 189.9 204.9 211.9 222.6 233.9 212.1 230 250.4 266.4 286.8 307.2 336.3 368.7 391.1 405.5 413.3 419.5 425 435.3 446.3 459.4 469.6 481.2 489.1 493 499.1 501 491.2 485.6 477.8 468 457.5 448.3 441.3 432.6 420.5 408.8 401.1 399.7 388.9 380.5 375.5 375.5 375.5 375.1 376.4 376.3 376.7 377.7 378.8 380.6 381.9 382 381.3 383.1 385.2 389.1 397.8 410.5 428.6 445.9 466 494.1 526.7 560.7 600.5 645.7 681.7 706.5 704.9 657.7 617.4 587.9 576 568.3 562 574.4 556.2 515 467.8 443.6 424.6 418.1 411.4 411.4 411.4 411.4 411.4 411.4 411.4 411.4 414.9 426.2 425.8 435.9 403.1 375.1 350.1 326.4 313.7 311 327 329.7 335.3 358.6 387.6 413.9 433.4 447.4 447.6 446.2 441.2 441.5 435.9 429.6 416.2 408.2 415 416.2 413.1 400.9 395.7 390.2 398.3 396.5 396.2 386 376
392.2 396.3 398.2 400 401.7 398.7 392.7 385.2 378.3 373.2 369.5 365.3 359.6 356.7 353.8 351.1 348.6 346.9 346 346.4 345.7 347.5 349.8 354.8 362.8 371.2 380.7 389.5 399.4 409.7 417.4 424.9 431 436.7 440.2 444.2 447.5 450.3 453 454.5 458.8 466.6 477 463.7 466.5 465.1 449 432.9 419 411.1 383.1 344.7 315.2 287.8 269.5 255.6 250.2 246.1 235.7 227 218.6 215.4 212.5 203.8 197.8 193.1 188.5 184 178.2 174.2 174.4 182.7 191.4 214.8 220.7 218.5 216 210.2 232.5 254 263.3 280.4 312.7 357.8 386.5 403 416.5 414.8 418.5 427.5 439.2 454.8 467.3 472.9 483.3 491.3 496.1 494.5 480.3 476.6 463.4 460.3 459.2 445.9 435.5 425.8 418.9 410.6 399.9 390.3 382.3 376.4 375.5 375.5 375.5 375.5 381.7 380.6 379.8 379 379.1 380.7 383.8 386.6 384.6 385.3 384 387.2 393.1 404.2 420.9 436.9 455.6 479.9 507 534.9 576.3 614.7 654.1 695 714.6 709.9 680.6 641.2 599.5 585.7 577.5 578.7 590.6 572.8 541.3 488.6 462.7 439 425.6 414.5 411.4 411.4 411.4 411.4 411.4 411.4 407.7 404 410.3 422.6 424 415.2 382.2 355.4 328 311.9 306 309.7 313 324.1 349.5 370.6 390.2 407 431 430.8 433.9 431.1 430.1 422.9 419.4 408.3 415.4 422.5 423 414.1 407.1 404.5 407.6 404.2 397.8 396.1 388.8 386.3
394.6 396.7 398.2 400.1 402.2 405.1 393.4 384.7 377.7 373 371.2 366.1 362.2 357.2 353.1 349.4 347.4 346.1 346.5 346.8 346.9 347.8 349.6 350.5 355.3 362.5 370.4 379.7 388.1 395.2 404.5 412.8 418.7 425.3 429.2 434.9 438.6 441.8 444.4 446.2 449.3 451.3 452.6 451 454.8 452 440.5 420.4 407.8 399.1 372.9 344.3 314.9 289.2 271.4 260.8 254.8 249.8 241.2 230.9 222.3 219.3 213 206.5 199.8 195 189.2 183.2 176 174.6 179.1 184.2 194.5 213.8 220.1 221.5 206.7 210.6 227.3 242.2 259.5 277 312.8 362.9 385.1 404.7 412.2 414.8 416.2 427.2 438.5 450.2 461.4 470.9 484.1 497.1 497.1 477.6 462.3 456 448.4 450.7 447.5 432.5 422.7 411.3 404.2 396.1 384.1 375.5 375.5 375.5 375.5 375.5 375.5 395.3 401.2 398.9 393.5 387.5 388.9 390.5 394.5 397.7 394 393.3 393.6 395.7 400 410.8 428.7 444.7 461.5 488.9 516 549.8 588.3 629.4 674.4 712.2 726.1 720.2 699.4 644.8 611.2 597.1 590.3 588 595.9 579.6 546.1 507.3 476.7 451.5 434.9 423.5 411.4 411.4 411.4 411.4 411.4 414.5 411.1 399.7 400.9 410.6 413.3 416.6 399.4 369.4 341.7 321.2 306.2 300.8 302.5 309.2 326 338.6 359.9 391.5 391.4 410 417.8 417.7 413.2 410.1 404.4 413.2 414.7 428.2 424.5 415.8 411.3 413.6 415.8 409.7 401.7 395.6 395.6 391.4
401.1 407.6 406.5 408 401.4 395.9 389.8 383.2 378.6 374.5 374.8 369 363.9 359.2 354.7 350.2 348.4 346.8 346.5 346.5 347.1 347.5 347.6 347.9 349.7 354.6 362.3 370.4 376.3 383.8 393.9 400.6 406.4 414.6 420.2 426 429.4 432.8 435.9 438.1 440.8 445.9 443.5 443.3 445.7 446 441.3 413.2 400.2 390.4 372.8 348.8 320.2 296.3 273.9 268.9 262.8 256.3 247.7 236.1 227.7 222 217.2 215.6 208.9 202.1 196.4 186.6 176.1 178.5 181.7 185.4 201.1 209.8 212.7 213.2 203.5 214.5 224.7 240.9 261.4 280.7 307.3 347.8 367.8 387.1 398.7 407.8 414.4 430 442.4 451.3 459.9 470.8 469.2 475.5 474 456.2 444.5 436.3 434.8 435.4 430.7 418.4 406.3 398 388.5 380 375.5 375.5 375.5 375.5 375.5 379.6 384.3 404.5 417.7 410.3 407.7 407.1 405 407.6 410.3 412.4 411.8 407.2 405.9 404.7 409.5 419.5 434.5 450.8 470.7 497.7 527.8 575.4 612 641.4 687.6 727.5 737.3 736.8 707.9 648.2 624.9 609.4 602.8 597.8 602.5 588.3 565.6 523.3 493.2 477.1 457.7 439.8 427 415 411.4 411.4 418.1 430.2 415.1 385.9 382.3 381.6 393.2 412.1 413.8 403.4 360.3 331.2 315.2 304.3 297.4 298.7 302.7 310.6 325.5 337.3 348.2 372.8 390.6 400.5 393.3 392.6 394.1 408.4 415 430.6 422.9 421.3 418 414.7 413 408.2 404.1 399.4 395.9 392.6
414.7 415.1 411 405.6 411.4 403.9 392.2 389.5 383.6 378.1 376.9 373.9 365 359.7 355.3 351.3 348.7 347.1 346.3 344.9 345 345 345 344.3 344.8 348.2 354.8 362.5 366.4 371.9 381.4 388 392.2 399.2 410.3 417.6 419.3 425.1 429.4 430.3 430.8 435.7 431.9 433.6 430 424.6 421.4 397.7 396.2 389.7 378.4 350.3 325.2 303.9 286 276.2 269.4 261.9 254.2 243.2 231.7 222.8 218.4 218.1 215.6 211.3 206.9 193 172.1 180.1 182.8 192.4 204.7 210.8 207.6 198.7 205.4 218.6 230.1 245 263.7 278 297.7 321.8 343.5 369.9 392.3 394.9 409.8 420.2 428.3 439.9 440.4 443.4 446.4 450.2 446.1 430.7 426.6 410 406.1 419.5 414.1 400.8 393.5 386.2 377.6 375.5 375.5 375.5 375.5 375.5 375.5 382.9 386.9 405.7 414.4 419.1 422.2 428.2 427.2 428.9 429.1 428.6 428.3 425.3 423.1 421.9 426.5 436.8 448.9 463.7 485.7 511 547.3 606.1 634.7 671 706.8 737.1 747.8 741.5 699 659.7 636.1 625.1 624.4 614.1 614.5 618.6 590.7 543.6 521.1 495.8 477.6 467.4 457.5 440.1 427.8 431.1 431.5 436.6 405.1 373.9 358.3 364.6 374.5 389.4 391.6 399.7 356.7 339.4 326.1 312.9 297.1 284.5 281.1 284.9 290.2 301.9 321.1 343.2 358.4 371.3 376 373.4 392.9 400.3 413.8 424.5 424.4 426.3 422.6 411.7 410.8 415 412.2 405.1 395 399.6
430.2 425.4 427.1 416.4 414.4 410.8 402.2 399.4 397.3 387.4 382.9 378.9 370.1 361.7 356.3 351.3 347.8 346 344.8 343.1 342.1 341.6 341.5 339.4 339.5 344.6 348.1 354 358.4 362.7 368.7 373.4 378.1 384.2 397 405 406.4 422.9 425.8 422.4 420.9 419.3 419.9 420.1 412.8 396.2 387.8 381.4 374.5 382.7 371 337.2 320.2 304.2 292.8 282.6 274.7 267.1 259.6 250.5 236.8 223.1 216.7 215.4 220.2 217 211.1 202.1 168.1 178.4 182.7 195.8 198.4 200.7 195 192.9 208.5 221.5 228.5 241.7 260.4 275.7 293.5 313.6 344.4 369.9 376.5 379.9 385.6 397.3 404.6 413.6 422.2 431.2 433 429 413.2 413.7 397.8 392 394.7 397.3 396.3 390.9 385 378 375.5 375.5 375.5 375.5 375.5 375.5 378.5 395.2 402.7 413.7 421.8 429.6 438.5 446.6 447.3 449.7 450.1 448.7 448.3 442.5 444.6 446.4 451.2 457.1 465.8 480.6 499.3 526.8 565.9 603.4 642.8 685 726 745.4 755.1 753.2 713.1 681 652.7 647.3 652.6 644.7 628.7 621.2 591.9 571.6 537.6 518 507 509.6 490.6 470.3 450.8 445 438.8 445.4 398 368.1 339.8 344.7 353.3 360.7 357.1 345.3 337.8 344.3 332.1 326.1 301.6 266.5 257.5 264.5 270.6 279.2 298.3 318.9 331.6 345 352 364.7 382.9 395.6 410.3 413.6 430.5 422.8 416.2 402.1 408.2 415.5 413.8 403.7 397.6 395.3
440.1 435.5 430.4 425.1 422.7 412 402.5 404.3 402.9 395.5 386.7 383.3 376.4 363.6 358.1 352.8 347.4 343.5 342 340.8 339.3 338.3 337.5 336.2 335.3 338.6 339.9 343.3 349.7 354.4 357.7 360.6 364.8 369.6 377.8 384 387.7 413.7 419.8 414.9 407.8 400.5 397.9 389.8 385.4 375.5 372.5 358.3 342.3 341.3 332.5 320.3 313.4 303.4 297.3 288.9 280 271.4 263.7 256.4 242.8 230.3 219.9 213.6 212.4 208 205 200.2 166.9 178.2 180.5 195.3 188.2 194.4 185.2 191.3 205.2 220 230.9 244.2 260.9 277.8 299.3 318 336.2 351 364.8 371.5 379.7 387.7 401 410.5 419.4 420.9 415.5 396.9 392.3 386.3 378.9 381.2 387.1 389 389.2 384.3 376.3 375.5 375.5 375.5 375.5 375.5 375.5 375.5 386.8 406 415.8 427.2 436.7 460.1 469.1 469.6 469 471.6 471.6 469 468.2 462.1 467 468.2 470.5 474.5 484.1 499.6 518.8 554.3 600.4 624.4 654.8 694.4 731.7 750.6 761.2 766.2 745 713.7 680.9 677.2 680.3 659.8 635.7 613.6 605.6 590 560.4 548.4 545.4 536.4 509 485.2 460.8 439.1 435.8 443.3 405.7 368.1 332.1 319.4 334.3 333.1 328 319.4 323.5 331.9 336.8 335.6 304.1 269.7 241.2 241.6 248.4 260.7 278.1 294.8 309.4 322.6 344.7 351.2 365.1 375.8 399.6 414 419.7 417.4 411.6 401.4 405.6 411.6 405.9 398.8 395.5 391
441.7 437.7 432.2 424.9 418.4 411.1 399.6 396.9 405.2 398.6 387.8 383.5 377.6 365.2 359.4 353.6 348 342.4 339.3 338.1 337 336.1 335.1 334.2 333.2 332.1 333 335.4 339.5 344.3 347.5 349.6 354.1 357.5 363.3 367.7 369.9 398.3 411.6 403 395.6 380.2 373.9 368.7 364.1 360.8 356.8 344.2 328.3 324 318.4 315.3 312.3 302.9 296.8 293.7 287.6 274.4 265.5 261.4 248.4 236.5 225.4 216.3 205.7 198.2 191.9 187.6 167.8 177.5 179.9 179 178.8 179.8 182.2 192.6 201.8 221.7 236.5 249.2 269.3 282.3 307.1 326 340.7 351.2 359.5 365.1 369.1 381.3 391 392.4 396 397.1 380.4 374.9 372.1 367.7 367.7 372.4 379.9 383.5 380.6 376.4 375.5 375.5 375.5 375.5 375.5 375.5 375.5 386.9 398.8 414.5 430.4 442.1 458.2 501.9 499.2 500.5 497.3 493 493.2 489.7 485.8 478.6 485.5 486.5 487.9 494.1 502.8 518.1 540.6 568.4 595 628.6 668.8 707.9 736 755.8 766.6 773.7 768.3 741.9 718.5 713.4 702.7 678.8 654.8 630.3 626.9 610.6 604.8 600.9 589.9 570.2 522.4 490.4 458.4 431.7 425.1 435.5 422.5 397.8 362.1 307.3 305.4 307.5 305.4 300.9 307.4 323.6 343.1 338.2 309.3 285.6 256.6 221.5 227.3 241.2 255 274.1 284 305 330 329.3 346 363.1 394.8 410.3 416.6 415.1 406.8 397.9 409.4 400 392.1 388.7 393.7 389.4
449.7 442.1 435.6 426.6 420 411 400.1 395.3 400.3 401.8 388.5 382.9 377.4 365.7 359.5 353.7 348.2 342.5 338.4 336.2 335 334 333.2 332.2 330.7 329.3 329 329.6 331.1 332.7 333.8 336.3 340.7 343.6 344 348.8 350.5 372.1 400.4 387.5 375 365.9 356.2 351.9 352.8 347.4 336.2 327.9 320.1 316.8 311.8 307.5 307.7 296.5 295.4 295.2 289.1 278.7 269.5 262.8 250.9 239.7 230.5 222.6 209.7 194.1 184.4 171.3 164.1 174.1 175.7 173.8 175.3 177.2 183.8 193.9 207.6 239.9 240.8 252.1 266.4 286.5 311.1 330.5 345.7 350.3 353.4 354.3 359.2 371 373.9 382.5 382.6 371.9 364.5 360.4 356.9 357.6 360.8 366.8 373.9 380 376.3 375.5 375.5 375.5 375.5 375.5 375.5 376.6 397.9 408.5 419.6 434.5 448.4 465.4 490.4 518.5 519.1 518.7 511.5 511.8 506.6 500.6 501.3 495.6 501.3 503.8 506.2 512.9 523.1 538.2 565.8 589.7 610.7 638.9 689.7 720.9 740.8 758.4 772 778.6 775.4 763.9 743.2 732.2 720 701.8 681.3 663.2 658.1 656.5 655.8 633.6 601 556.3 512.9 473.1 447.3 420.4 411.8 417 423.1 410.8 376.1 326 283.7 286 284.3 282.6 289 311.2 326.8 319.9 297.2 281 262 241.4 218.5 215.3 240.3 250.8 264.1 297.8 302.7 308.6 324.6 344.7 376 394.2 408.4 395.2 393.4 394.4 400.4 384 382.5 387.1 391.9 386.8
451.7 448 438 426.3 419.2 412.4 401.8 393 388 396.8 388.6 381.3 374.4 365.4 359.2 353.5 348.1 342.5 338.9 335.4 334.3 333 331.8 329.8 328.2 326.3 324.3 324.3 324.8 324.5 321.5 321.3 324.5 324.9 325.2 330.6 335.8 345.8 370.3 369.1 359.8 351.3 343.2 342.5 341.4 337.4 330.6 327.7 319.5 310.9 303.9 296.7 297.6 289.3 292.1 293.1 288.3 279.7 273.5 262.2 251.4 241.5 232 226.5 215 198.9 177.7 168.4 163.2 171.9 172.2 172.1 173.2 176 185.3 197.6 214 235.9 240.6 258.6 269 292.5 323.7 329.7 337.1 344.2 343 348.8 352.4 356.9 369.7 375.8 363.9 356 355.5 352.1 350.7 352.8 357.3 359.5 368.4 375.5 375.5 375.5 375.5 375.5 375.5 375.5 375.5 388.4 416.3 426.6 441.8 460.1 481.6 505.8 519.4 530.9 528.2 528.6 525.2 520.7 520.6 516 514 511.4 516.3 522 526.9 532.8 542.2 563.8 586.3 605 625.3 670.5 707.7 729.5 747.1 762.1 776.9 780.7 779.3 770.4 753.9 737.6 729.4 699.3 680.3 671.7 658.2 662.1 644.5 614.4 582.5 538.3 498.1 445.2 422.9 407.4 400.4 407 415.3 393.4 350.3 313.4 286.3 275 265.1 262.5 271.9 292.4 317 292.3 276.3 261.4 242.9 232.5 215.9 202.6 218.8 237.9 254.7 272.3 281.2 292.1 303.9 320.9 353.3 364.9 375.9 383.2 378.9 384.4 382.2 375.4 381.8 383.6 385.4 377
455 446.1 437 425 415.6 405.8 398.2 388.8 382.3 378 380.6 378.1 370.8 364 358.3 352.8 346.7 342.1 338.7 335.4 333.6 332.4 331.2 329 326.2 323.5 321 319.1 319.1 315.4 311.6 309.2 310.2 310.8 311.7 317.5 322.3 329.4 342.3 346 340.9 338.9 335.1 332.9 329.2 327.4 325.5 321.6 312.7 302.8 292.3 283.2 281.6 283.4 290.9 290.4 285.9 280.2 270.7 257.3 252.3 239.7 234.6 228.6 218 199.9 178.1 163.9 162.5 170.3 170.2 170.2 172 179.2 191.1 205.1 223.2 239 239.2 254.2 269.3 290 304.4 316.4 331.8 337.8 338.2 340.6 343 345 349.9 350.7 349.3 348 347.9 349.3 349.2 351.3 354.5 362.8 375.4 375.5 375.5 375.5 375.5 375.5 375.5 375.5 375.5 399.5 425.4 429.2 447.7 480.9 518.6 531.1 537.2 541.3 536.9 541.7 541.4 534.8 530.5 527.6 526.3 527.6 528.2 539.7 546.9 555.7 570.9 587.9 605 622.4 649.8 688.1 715.8 736.2 752.2 769.5 781.8 787.3 785.1 775.8 758.1 726.9 701.7 678.1 668.5 660.1 649.4 645.9 624.2 595.4 557.8 508.8 461.4 425.6 403.6 391.5 393.9 400 396.5 360.7 307.1 289.1 273.6 272.1 252.1 248.4 254.7 269.2 277.4 277.9 257.3 237.7 221.8 218.6 205.9 198.8 201.7 216.1 232.9 250.4 263.7 273.6 283.6 298.9 322.8 335.8 355 367 369.7 374 367.5 375.5 381.6 382.9 382.7 371.5
446.3 441 430.4 423.6 408.6 396.5 388.4 383.1 379.4 373.4 369.6 367.9 363.5 359.6 355.1 350.2 345.9 341.7 338.3 335.7 333.6 332.6 331.3 328.4 324.4 320.7 317.1 315 313.1 307.7 301.9 298.3 298.5 300.6 303.4 308.6 311.9 316.4 320.5 326.3 328.9 332 331.6 326.5 322.9 321.5 319.9 315.1 305 296.5 285.7 274.6 269 274.3 289.1 292.5 283.2 274.8 265.9 257.2 248.6 237.2 233.3 227.6 216.3 203.3 172.9 160.3 163.7 167 167.6 169.1 173.6 183 197.6 214.4 241 236.8 233.6 255.7 269.5 279.5 294 313.9 328.5 338.2 335.3 335.8 336.9 338.5 338.5 340 344.5 344.6 348.4 350 349.5 350.4 354.6 360.8 369 375.5 375.5 375.5 375.5 375.5 375.5 375.5 375.5 387.4 415.9 422.4 446 480.6 521.6 549.6 554 549.4 557.7 554.7 549.4 545.3 539.6 539.7 540.4 543.6 545.6 557.2 567.8 581.3 592.9 604.9 618.7 636.4 670 699.7 722.8 741.9 757.5 775.8 787 790.9 788.9 777.6 763.7 726.8 689.4 666 659.2 642.9 642.1 627.4 599.6 575.6 545.8 471.6 428.2 403.5 382.8 378.5 389.3 380.6 355 309.4 290.8 276.1 263.8 256.4 246.3 243.6 243.4 249.2 260 257.1 248 225.6 210.7 205.5 196.2 195.3 193.9 204.4 216.6 233.9 247.2 255.9 264.1 277.7 300.4 327.9 330.6 351.3 372.7 368.7 372.2 373.4 376 382.5 382.3 370.7
447.1 428 420.3 413.6 402.8 391.5 383.4 376.8 372.8 368.6 363.3 359.9 357.2 353.6 350.8 348.1 345.1 341.8 338.9 336.5 334.1 333.2 331.3 328.2 323.7 318.6 315.2 312.5 308.7 301.3 293.4 290.4 290.8 292.1 294.1 298.1 302.8 308.6 312.5 318.2 321.4 324.5 329.7 324.7 318.5 312.2 309.3 306.7 294.4 285.2 274.9 263.2 257.4 266.6 275.2 282.4 283.8 277.4 266.2 248.1 239 234 231.3 225.6 210.5 199.7 176.8 159.2 162.8 164.9 166.2 169.5 179.1 191.1 210.1 228.4 245 222 228.5 242.2 259 277.5 300.5 318.8 333.6 329.4 331 334.4 335 337.6 341.7 344 344.2 343.5 348.3 349.8 349.7 350.9 354.3 361.3 366.6 375.5 375.5 375.5 375.5 375.5 375.5 375.5 378.9 392.6 411.5 431.3 450.4 484.4 533.9 557.1 560.7 559.9 569.3 562.6 559.2 555.7 551.5 553.9 555 559.6 563.7 572.4 584.4 595.2 607.9 616.7 627.5 643.2 678.4 706.2 726.7 745.9 763.9 782 791.5 794.5 789 775.2 754.9 721.4 693.7 661.5 641.1 628.6 625.5 613.8 584 568.4 506.5 450.4 406.4 381.1 370.2 370 378.9 363 320.2 299.4 285.4 272.2 266 260.8 242.4 242.1 241.6 240.7 242.3 238.6 233.7 213.7 201.4 198.9 190.6 191.1 187.4 194.1 207.3 223.2 233.6 237.9 243.8 263.4 290.7 311.8 325.3 345.7 368.3 372.6 361.2 366.8 373 376 376.4 370.3
425.8 420.7 413.1 406.1 397.1 387.9 380.4 375.4 368.9 363.9 360 356 352.2 348.8 347.7 346.6 343.9 341.5 340.1 337.6 335.4 333.7 332.1 328.2 322.8 317.5 312.1 309.7 305.2 297.5 292.1 290 287.2 287.9 288.3 292.2 296.5 303.7 306.8 309.3 313 317.5 323.2 321 313.4 303.7 299.2 297.8 283.2 273.1 267.1 256.4 253.9 260.6 267 275.2 283.7 275.4 254 239.7 230.8 227.4 227.6 221.4 204.2 191.7 172.6 158.3 160.7 164.3 166 176 189.8 204.5 217.3 230.8 243.3 215.8 223.1 237.9 259.1 280.8 309.1 328 328 333.6 338.7 340.2 340.9 344.9 347.8 346.5 344.4 348.6 350.2 352.5 350.2 351.3 358.1 362.4 369.7 375.5 375.5 375.5 375.5 375.5 375.5 375.5 387 408.7 428.6 448.8 472.8 500.1 534.4 557.5 568.3 570.1 575.7 574.6 569.8 568.4 564.5 566.6 568.4 573.5 579.3 585 593.8 603.3 613.8 622.4 633.9 654.6 684.3 708.3 728.1 746.9 767.8 783.7 792.9 795.4 789.4 774.6 753 724.7 688.9 646.6 624.7 615.8 606.8 600.6 575.2 547.3 490 441.6 393.8 366.3 351.8 356.9 365.9 342 314.3 294.1 281.5 271.1 263.7 259.8 239 235.7 233.7 232.3 227.4 221.7 214 201.8 198.5 198 191.8 190.2 184.9 186.9 198.9 210.1 220.1 223.5 231.4 252.3 270.8 299.7 317.1 330.9 350.3 366.1 347.4 361.4 361.8 367.1 370.8 366.9
416.5 415 408.4 401.5 393.9 386.8 382.3 377.6 372.2 366.3 360.7 357 354.2 350.6 348.4 344.7 342.3 341.1 338.9 337.8 336.7 335.9 333.2 329.7 323.8 317.6 313.6 309.7 305.6 298.9 293.9 289.8 286.3 283.8 282.3 285.8 290 295.8 299.8 300.9 303.6 312.5 325.8 319.4 306.8 294.9 291.2 289.5 274.2 264.1 256.6 248.4 249.7 256.9 257.7 270 270.1 271.3 255.2 240.8 232.2 219 214.3 204.3 194.4 182.4 168.3 157.5 161.8 164.7 170.6 185.8 204.3 211.4 217.7 232.6 218.9 210.7 218.8 233.5 253.6 279 317.1 314.1 324.9 338.9 343 344.7 347.6 351.6 353 350 345.4 349 352.2 350.5 350.3 354.3 362.1 368.5 375.5 375.5 375.5 375.5 375.5 375.5 379.4 391.7 407.4 427.9 453.3 476.8 515.5 536.2 556.1 557.2 561.1 569.6 576.9 586.3 581 575.6 574.5 577.9 582.1 588.7 593.8 598.4 598.9 607.3 616.4 626.7 639.5 665.8 689 709.2 728.4 746.2 767.1 783.6 791.5 794.6 789.8 775 752.2 718.7 668.8 628.5 603.6 595.1 585.9 578.4 564.2 518.4 486.2 453.5 384.1 358.9 346.1 345.4 351.9 332.8 306.6 287.3 274.8 268.9 269 260.4 243 236.7 236 231.4 232.5 222.8 206.4 203.4 191.5 193.4 193.1 188.7 188.6 182.3 188.8 194.7 206.1 211.8 223.4 241.7 258.4 281.1 295.8 311.8 341.4 355.6 341.3 345 349.1 360.4 362.2 363.5
413.9 415.2 408.8 403 396.7 390.2 384.6 379.6 374.7 369.6 365 361.3 357.5 353.9 351.6 349 345.9 343.5 341.9 339.9 338 335.8 332 327.6 322 316.5 312.1 307.9 303.5 299.4 295.2 290.5 286.5 283.6 281.6 283.2 284.5 287.5 292.9 292.1 292 299.5 307 310.3 299.5 284.9 277.9 273.1 267.5 256.2 248.6 240.9 242.3 244.1 252.2 254.4 262.5 265.1 253.9 247.6 235.8 220.3 209.3 202.6 202.3 186.4 164.7 157 160.7 166.9 178.4 191.7 206.7 213.8 229.4 226.2 197.4 204.7 210 231.2 252 280.4 298.3 319 332.1 339.2 347.2 348.2 353.1 356.4 358.9 351 345.4 345.7 347 349.3 354.5 362 371.2 375.5 375.5 375.5 375.5 375.5 375.5 375.5 405.5 417.7 433.6 456.8 482.5 514.8 531.2 549.7 561.2 563.1 566.3 576.7 583.9 595.5 590.1 584.9 587.3 590.5 596 602.5 607.6 610 610.2 608.6 619.3 629.5 647.9 667.6 690.3 709.4 726 743 762.9 778.5 787.9 791.2 787.5 771.6 743.8 699.3 653.3 614.4 587.8 579.8 575 561.2 545.1 516.4 486.2 434.7 377 352.9 344 339.6 345.5 328.6 304.9 287.4 276.7 272.7 271.6 272 247.6 235.7 236.7 233.7 232.7 226.9 221 208.3 196.5 188 188 190.7 179.7 177.8 177.4 184.8 192 201.2 218.9 240.8 247 263.4 277.8 306.6 327.2 342.4 338.8 323.4 332 344.7 347.5 342.3
423.2 419.2 412.3 408.8 405.3 396.2 390.7 384.4 378.9 373.8 369.7 365.5 361.7 358 355.1 352.8 349.8 347.1 344.7 342.1 338.5 334.6 329.7 324.9 319.8 314.8 310.3 306.4 301.9 298.3 295 290.2 286.4 283.1 279.8 279.3 279 278.4 279.3 279 279.9 284.6 293 297.7 292.7 279.7 268 266.1 259.9 249.4 241 235.5 237.8 244.2 241.7 241.8 247.2 256.3 255.9 254.7 238.9 230.8 218.1 207.9 202.7 182.1 161.7 155.8 162.7 170.7 183.5 192.2 204.5 227.7 234.1 205.7 193.4 204.3 219.2 238.8 264 291.4 310.5 326.1 332.4 338.8 343.6 350.6 353 355.4 354.9 347.1 346.6 350.1 352.3 356.1 362.6 368.9 376.5 375.5 375.5 375.5 375.5 375.5 381.1 397.7 419.8 439.2 461.1 483 506.5 526.4 544.3 562.6 568.2 570.9 573.6 591.2 595.4 599.5 594.7 594.6 603.5 605.6 613.3 618.6 621.7 623.8 623.4 618 617.1 633.5 648.9 667.8 689.9 707.8 721.7 737.4 755.8 773.2 782.7 786.8 775.7 747.5 706.4 671.5 633.4 599.9 572.9 566.1 567.9 552.5 525.9 510.1 469.5 425.4 375.3 355.5 343.8 339.7 333.8 333.2 328.9 305.7 289.3 283 279.7 271.8 254.1 247.2 234 233.4 237.2 235.7 224.8 213.3 212.9 202.3 183.5 179.4 183 174.9 174.9 177.8 182.8 196.3 221.6 230.3 236 253.9 267.1 292.6 307.1 327.3 324.3 306.2 322.2 335.4 331.4 320.2
439.5 438.9 433.2 423.6 414.6 406 399.2 393.4 385.8 379.9 375.2 370.5 366.2 362.7 359.5 356.4 353.7 350.9 347.9 344.1 339.5 335 330.8 324.6 320.9 316.4 312 307.8 302.4 298.3 293.7 289.6 285.9 282.6 278.9 273.5 271.6 273.7 271.6 268.6 270.3 274.4 278.6 286.3 287 275.3 262.6 255.8 248.9 241.8 233.7 232.3 235.9 242.3 232.1 238.2 239 248.8 258.1 253.7 237.5 228.1 218.8 201.7 182.4 167.5 158.4 157.6 166 174.7 183.8 195.8 208.3 220.3 204.7 189.6 194.1 203.2 217.9 240.4 278.4 311.4 315.7 326.6 334.1 340.6 346.3 354.1 357.8 353.3 351.3 350.5 353.2 357 360.7 364.2 378.8 379.4 381 376.6 379.5 384.3 382.2 389.1 402.8 420.4 440.8 466.9 489.8 505.7 515.4 527 542.4 555.9 571.3 577.6 583.4 594.1 602.2 605.3 602.4 606.2 617.8 625 631.9 635.6 638.8 642.7 638.9 629.2 627.8 633.8 650.2 667.5 687.2 705 719.7 733.2 750.5 767.3 778.6 781.3 754 710.1 673.1 649.9 617.7 582.6 556.4 553.9 554.7 542.1 525.7 520.6 470.5 430.2 388.1 359.2 348.5 346.3 347.1 346.3 334 315.9 297.7 292.9 287.7 250.2 256.3 261 236.4 235 239 235.5 228.8 226.9 219.1 212.8 201.3 189 175.2 173 172.6 172.1 177.7 189 209.4 219 230.1 242.2 256.1 281.1 293 297.5 311.5 288 310.7 322.2 312.1 286.6
471.3 454.4 447.7 441.2 425.5 416.6 407.9 399.8 394.8 388.1 382.8 377.7 371.7 367.8 364.1 359.8 356.2 353.8 350.1 345.5 340.6 335.9 331.7 326.5 322.1 316.8 312.3 306.8 301.5 296.4 291.8 287.5 283.6 282 280.6 272 265.3 264.6 263.8 261.5 261.9 266.5 271.1 283.7 282.4 268.4 257.2 248.6 242.4 237.6 230 230.1 233.4 231.9 227.3 227.8 238.5 255.9 267.1 258.2 233.6 219.2 195.6 173 165.6 160.9 156.3 161.7 169.8 179 190.1 198.7 206.3 198.4 189.3 181.8 189.6 200.9 216.2 242.4 291 317.2 327.5 331.1 336.4 343.7 352.7 358.2 360.7 352.4 346.4 350.4 356.6 365.6 370.2 372.6 378.9 386.3 386.9 384.7 391.5 396.4 398.1 407.1 426.6 445.2 473.4 501 506.4 519.1 524.6 538.4 548.4 558 577.2 584.2 591.1 605.4 613.9 615.8 613.3 617.4 630.7 640.8 646.4 652.2 658.8 658.7 653.1 642.9 637.7 639.6 651.8 668.3 683.2 702.6 717.3 732.4 747.9 762.9 775 779.3 758.8 715.1 661.2 631.5 597.1 564.4 545.7 544.6 544.6 542.3 535.5 522.8 479.5 440.8 398.5 372.4 360.5 357.7 358.3 359.1 345.5 320.9 312 306.6 269.8 263 263.3 255.3 247.5 242.8 237.6 235.6 233.3 230.6 225.6 221.6 215.6 198.4 180.1 175.4 171.9 170.3 171.5 180.3 194.2 212.2 225.5 236.9 239.8 253.3 264.1 276.2 272.1 268.6 295.1 307 289 257
486.1 469.1 457.6 451.1 435.6 428.2 417.5 413.3 411.8 400 394.1 388.5 381.8 377.4 372.2 365.8 360 355.4 352.5 349.3 343.8 337.2 332.9 327.9 322.6 316.1 311.3 305.6 299.2 293.8 289 284.3 280.7 279 277.4 269.8 262.9 257.9 257.9 256.1 254.7 256.7 259.2 269.5 276.4 254.8 244.9 241.4 239 234.1 228 228.2 227.8 224.8 224.3 233 247.2 268.3 273.6 266.8 225.9 194.1 172.1 164.1 161.6 155.6 155.1 165.6 176.8 190.9 197 202.2 203.6 191 181.8 180.6 187 195.2 214.5 252.9 287.8 325.3 326.4 328.2 345.5 354.7 359 360.1 356.5 348.8 347.2 355.6 364.9 373.6 374.2 377.6 381.1 390.8 393.3 395.2 403 410.6 416.5 424.3 447.2 462.9 477.9 505.3 517.4 525.1 534.5 548.2 558.7 574.3 586.2 595.7 603.7 613.4 622.7 623.6 626.9 632.1 643.9 655.8 664.4 671.7 676.6 673 664.9 654.9 649.2 647.8 650.1 664.1 676 696.2 714.6 732 747.1 760.9 772 777.3 771.9 743.2 682.5 645.5 606.4 561 544.6 544.6 544.6 548.8 539.9 525.4 500.1 468.4 422.3 394.9 379.5 374.4 372.6 370.9 349.8 338.4 331.2 322.7 309.4 288.2 274.6 267.2 260.9 247 242.2 238.5 241.9 237.2 233.1 229.5 224.6 208.4 196.7 188.6 180.2 172.7 169.5 171.9 184.9 199 218.6 226 235.4 243 254.1 254.8 246.2 244 266.9 290.1 256.4 231.4
463.5 469.3 473.8 458.2 445.7 441.1 432.7 423.6 419 410.8 406.7 399.4 390.5 384.1 378.5 371.6 365.4 360.1 356.3 353 347.6 339.7 334.1 328.3 320.5 313.3 308.9 303.3 296.2 290.7 286.5 281.1 278 276.6 273.7 267 261.1 257.1 255 252.9 251.9 252.2 253.2 254.3 251.6 243.5 240.3 238.9 235.3 232 227.1 223.9 222.7 221.9 228.3 242.3 255.9 276.4 272.4 247.2 209.7 182.3 167.3 159.3 155.3 154.8 162.4 172.8 186.8 201.9 200.2 201.1 198.7 194.5 179.9 178.4 184.8 190.4 216.8 239.7 274.5 286.9 305.4 331.2 346.6 355.1 360.8 358.6 354 346.2 350.7 365.6 374.4 376.4 375.7 379.2 387.8 394.9 401.9 407.8 416.8 429.1 437.3 443.7 457.6 476.2 498.3 521.1 528 534.5 554.2 559.6 580.2 588.7 596.8 607.2 614.3 621.1 628.4 635 638.5 646.2 659.3 669.7 678.3 687.9 693.1 684.6 673.6 661.8 656.6 653.8 646.2 647 662.9 683.4 706.8 727.6 745.6 760.4 770.7 775.5 776 739.7 687.5 635.2 600.3 562.7 544.6 544.6 544.6 545.8 542.1 537 514.7 481.3 441.5 417.1 397.2 386.6 387.3 379.2 360.3 353.3 349.4 346 327 311.5 288 278.7 271.6 260.4 258.7 256.9 250.5 251.2 243.1 239 231.6 225.8 213.6 206.5 195 178.3 169.1 168.7 172.7 185.8 205 212 232 242.3 247.7 237.2 221.6 216.4 234.2 250.5 222.3 194
463.8 466.6 469.1 459.4 452.3 446.9 441.5 434.5 421.9 417.1 411.5 401.9 395 386.5 381.1 375.7 370.4 366 361.8 356.5 350.2 343.3 335.4 328.2 319.6 312.2 305.8 299.6 292.4 288.2 284.3 280.2 276.7 273.7 270.9 265.2 260.2 256 253.7 251.8 250.3 249.6 248.9 247.4 243.8 239.8 237.8 233.7 230.3 226.9 224.9 221.9 219.8 218.6 229.8 247.2 261.2 273.4 263.8 232.5 199.5 175.3 157.9 151 155.5 164 170.8 183.7 196.1 207.9 198.6 196.9 196.9 189.1 174.6 175.5 182.4 189.4 200.5 224.2 236.6 268.1 298.1 336.2 353.2 349.7 346.4 343.6 345.4 344 353.3 365.9 374.6 376.2 376.8 383.2 392.5 403.5 411.4 422 434.1 444.5 456.8 469.6 479.6 500.1 518.8 529.1 536.1 552.5 560.1 570.2 581.7 595.1 607.3 615.6 616.8 625 632 641 650.3 661.8 673.1 684.8 693.6 702.1 705 686.1 660.9 647.6 640.7 628.7 624.2 619.4 628.1 648.4 672.9 709.9 739.5 760.1 769.9 775.4 773.9 737 693 648.3 594.5 563.2 544.2 544.6 559.8 564.1 550.8 533.9 515.6 494.2 457.9 440.7 426.3 410.9 412.3 389.5 388.2 367 362.3 355.9 342 334.4 300.7 292.3 285.3 285 283.1 273.6 262.2 258.8 252.2 248.8 246.5 244.3 233.1 222 211.9 187.5 174.8 168.3 165.8 174.9 185.3 199.3 215.2 235.9 242.8 216 199.8 190.8 191.3 213.2 190.9 169.6
441.5 447.2 449.3 444.9 443.8 441.6 439.1 432.7 423.1 423.8 413.3 403.3 397.9 391.5 384.1 379.3 374.8 370.4 365.3 359.2 352.4 343.9 335.9 326.5 316.5 309.3 303.4 295.6 289.6 285.9 282.1 278.8 275.8 272.8 268.7 265.1 261.4 259.6 255.4 251.6 249.3 247.9 248.4 247.1 242.7 241.3 238.6 236.3 232.9 225.2 222.2 219.7 217.8 216.8 221.3 235.5 260.1 251.1 230.7 211.5 185.5 163.8 145.9 155.2 162.8 171.2 177.8 184.5 194.9 198.3 195.4 194.9 193.3 176.5 168.8 171.8 175.8 185.8 196.1 209.5 233.2 266 291.9 299.7 321.7 323.5 324.2 330.8 335.2 346.5 350.7 356.2 371.4 373.2 375.7 386.1 399.9 412.3 422.2 434.7 450.3 463.3 481.8 496 508.6 518 532.1 539.1 545.2 559.2 571.9 584 597.1 608.7 618.5 621.3 624.4 630.1 642.1 651.8 661.7 676.8 686.8 697.1 706.7 716.6 708.7 672.1 641.9 619.7 607.4 601.3 595.6 597.7 604.1 622.4 649.4 690.6 734.6 756.2 768.4 776.6 779 752.3 720.8 653.3 593.7 573 555.4 560.1 575.2 579.5 563.3 539.3 520.7 501.9 490.8 470.8 459.8 441.4 428.8 399.4 394 375.4 370.8 361.5 340.1 327.4 306.5 295 298.3 302.4 297.8 286 273.4 268.4 260.2 260.9 260 252.2 243.1 231.7 219.9 198.3 188.9 179.6 172.4 159.9 171 176.8 195.1 218.6 225.2 193.8 180 168.7 164.5 179.2 161.4 151
413 423.3 429 433.4 439.3 439.4 438.3 434.5 423.1 417.4 413.6 404.1 398.1 392.6 388.5 384.1 379 373.8 368.7 361.2 352.2 343.9 332.7 322.7 312.7 306.9 300.5 292.4 288.4 284.6 280.7 277.8 275.6 274.3 271.9 267.9 264.5 262.6 258.9 255.9 255.4 253.8 251.8 248.9 246.4 244.2 243.5 239.4 234.5 228.6 217 216.7 215.5 213.8 213 223.8 254 238.4 220.8 194.1 170.9 151.3 151.8 160.1 167.4 179.8 184.9 189.6 191.1 190.7 190.8 188.9 182.7 170.5 168.2 170.2 172.4 182.6 197.1 210.7 232.8 247.9 257.9 269.6 287.6 308.4 319 323.9 339.2 348.2 352.8 358.4 367.8 370.5 377.2 386.2 408.4 427.3 427.9 440 456.1 474.8 486.5 505.1 524.1 531.4 534.6 541.1 551.5 562.1 577.7 588.9 604.5 616.8 623.8 626.1 630.5 641.7 653.2 665.3 676.6 690.9 703 711.8 722.2 727.9 701.2 653.7 623.7 597.4 580.3 575.3 575.3 576.1 585 604.4 637.4 689.8 728 753.3 767.6 778.3 785.7 766.2 723.1 669.1 607.4 584.5 575 581.4 595.8 602.8 586.3 556.9 537.7 515.4 493 478.4 459.1 442.1 432.8 425.4 402.1 383.7 371.1 356.9 335.4 319.5 309.8 303 311.3 309.8 307.5 300.8 289.9 276.9 267.5 267.5 263.4 254.3 245.1 235.6 223.9 212.1 206.7 193.7 176.1 152.4 153.2 160.5 176.4 197.6 196.2 171.3 160 147.3 140.4 146.4 141.2 135.3
399.5 409 417.2 428.8 438.8 438.6 435 429.5 423.3 417.3 413.2 407.3 401.2 397.6 394.3 389.5 384.2 378.9 371.2 362 350.4 339.4 328.2 317.2 308.5 302.1 296 290.9 287.3 283.7 280.7 278.1 277.2 276.8 274.5 270.7 267.4 265.7 263.9 261.9 260.3 257.9 255.4 253.2 250.3 247.4 244.2 240.3 234.5 229.8 216.7 214.2 213.5 212.7 212 213.5 223.8 227.1 209.1 178.1 155 147.1 157.6 165.4 178.7 185.3 189.6 194.2 197 191.1 190.6 190.3 187.1 168.4 167.5 169.3 172.8 185.6 201 213.3 230.1 235.6 243.3 258.7 280.6 303.7 312.8 329 343.2 353.4 353.8 362.9 366.5 370.7 380 389.9 401.7 425.8 439.3 448.9 464.6 477.4 494.3 518.9 535.3 544.8 548.4 552 556.1 564.7 578.9 599.3 608.8 619.3 624.5 627.6 640.5 652.2 664.2 678.2 692.9 705.1 716.6 726.9 735.7 732.6 689.3 643.5 610.4 582.7 564.3 555.8 554.1 556.5 566.4 594.7 636.7 684 728.8 751.4 766.3 778.7 789.5 757.1 720.8 672 624.1 600.8 595.8 604.6 619.7 616.5 597.4 570 553.5 512.8 512.9 491.9 471.8 449.4 464.5 452.5 406.9 386.4 373.4 350.4 324.8 306.8 302 295.4 307.2 315.2 316.9 311.7 307.5 295.6 282 274.2 267.3 261.6 243.9 240.1 236.3 228 222.3 210.6 183.6 163.4 144.3 141.8 154.6 161.2 165.9 153.4 132.9 123.6 119 122.8 123.3 120.2
387.7 395.9 407.3 420 433.8 431.2 429.3 429.4 425.9 421 416 409.7 405.9 405.7 402.5 395.4 392.7 385.1 374.5 360.9 346.9 332.6 322.3 312.4 304.6 297.7 293 288.5 285.5 282.9 280.8 279.7 280.4 279.2 277.6 274.1 270 269.3 269.9 269.5 267 264 261.3 258.2 254.1 249.7 244.1 239.6 235.3 227.9 216.4 211.2 212.2 211.5 210.3 210.1 212.7 208 190.5 165.8 143.5 154.6 164.2 172 176.2 187.4 197.1 207.4 199.8 193 189.1 184.1 181.7 164.2 164.7 167.7 174.8 192.5 201.5 205.9 213.7 222.5 232.9 250.4 275.6 296.2 314.2 327.6 340 349.6 350.8 353.5 364.2 370 384.1 396.3 411 429 444.3 452.5 466.4 484 503.9 523 532.7 546.3 558.9 560 563.4 570.9 582.2 596.9 612.4 624.3 628 636.4 651.9 666.4 677.4 690.9 703.8 717 727.7 737.9 745.7 725.5 675.1 635.3 598.1 567.6 550.8 542.5 538.9 543.3 557.3 592.9 630.9 679.8 715.1 739 757.2 771.7 786.4 743.7 706.8 672.8 637.9 624 626.5 630 645.4 637.2 618.8 594.3 571.8 541.9 529.6 504.4 477.9 460.7 469.5 456.2 411.3 387.5 367.3 341.4 312.5 295.8 287.4 293.1 297.4 314.1 321.8 322 316.6 311.4 305.4 279.2 271.8 264.3 247.1 245.6 243.7 232.4 238.8 214.5 194.4 178.6 160.2 141.7 123.5 132 135.8 125.4 116.5 108.6 103.8 104.3 104.4 96.6
380.6 388.4 398 406.5 414.6 420.9 426.2 430.6 430.4 428.3 419 413.1 410.8 407.3 403.1 396.5 388.8 378 363.8 349.4 339.8 326.3 316.6 308.5 301.3 295.2 290.7 287 285 283.2 282 283.4 285.1 282.7 281.9 280.4 274.8 274.4 275.1 275.4 275.6 271.8 267.5 262.6 257.5 252.3 246.5 239.3 233.3 226.3 215.8 208.4 208.2 209.4 207.8 204.5 199.5 188.7 178.6 143.8 149.8 158.6 167.4 176.1 184.6 195.4 202 203.3 198.3 197.5 189.5 174.2 168.6 162.6 162.9 165.9 175.9 183.5 194.2 200.4 207.2 219.9 236.1 259.2 286 306.9 313.3 329.7 344.1 346.4 344.6 349.1 355.2 361.1 383.6 397.5 416.6 430.8 442 457.9 473.1 492.6 508.2 522.7 535 550.5 561.5 562.7 570.5 582 595.4 609 622.6 631.8 636.4 648.9 658.4 672.9 685 698.5 710.2 722.7 734.7 745.5 752.7 726.4 670.1 627.6 591.4 560.2 540.4 528.6 525.5 532.8 553.4 585.8 621.3 668.7 703.1 726.7 746.9 764.8 782.9 767 732.8 703.2 665.6 659.9 656.7 662.9 673.2 660.1 635.4 602.6 571.8 552.4 533.6 500.1 477.4 471.4 472.7 451.9 400.9 374.6 353.6 329.9 303.2 287 285.3 291.6 294.6 305.3 310 318.4 311.2 313.6 312.7 281.6 266.5 258.3 242.4 242.5 242 238.7 244.5 231.2 212 195.4 178.6 161.6 141.6 121.5 115.6 110.8 105.3 100 98.6 93.1 88 83.4
378.3 384 392.1 403 410.1 416.5 424 429.4 433.1 425.8 418.3 416.9 417.3 414.7 407.1 395.9 382.1 367.7 352.7 341 331.4 321.4 313.2 306.4 299.1 293.5 288.9 287 286.5 284.6 286 287.3 287.3 285.8 285.9 286.7 283.7 284.2 284.4 283.5 282.4 278.7 273.9 268.5 261.4 256.1 249 241.5 233.1 222.4 212.8 204.6 203.8 206.3 213.4 204.4 193.5 171.7 155.4 145.6 152 159.6 167.2 180.9 193.4 204 212.4 210.5 208.3 205.2 195.1 182.4 168.3 160.1 162.6 165.2 171.9 176 182.6 192.2 200.7 217.6 239.3 265.8 285.6 300.2 314.3 329 338.6 340.6 344.9 345.5 350.9 354.3 371.8 394.1 405.7 419.3 436.5 446.5 463.5 490.4 506.5 521.3 539.6 553.1 561.4 570.4 576.7 594 606 621.6 631.9 637.1 647.1 658.8 665.3 676.8 689.5 700.9 713.2 725.4 737.8 750.4 759.6 733.3 698.5 627 580.8 548.4 529 518.4 515.1 525.4 548 577.1 611.6 657.1 690.7 716 738.7 758.8 781.9 795.4 762.9 735.8 704.9 696.3 695.6 686.8 686.7 657.9 637.3 605 569.1 558 530.3 498.2 481.8 470.5 463.7 425.2 392.9 374.4 358.1 328.8 295.2 286.7 284.2 287.7 290.1 296.3 298.5 299 296.9 305.8 304.9 276 261.2 242.8 234 238.2 229.6 236.9 246.2 245.8 234.7 221.5 196.1 175.5 157.4 136.5 111.4 98.3 97.5 92.3 88 84.3 80.6 76.8
379.2 382.3 392.1 402.4 408.6 421.1 428 428.5 428.3 425.4 414.7 409.6 407.7 399.3 392.2 382 369 357.6 347.9 338.2 328.6 318.1 310 304.6 297.3 292.1 290.8 290.2 288.4 287.9 288.8 289.8 290.6 290.1 290.5 290.6 290.7 293.5 294.5 294.1 291 286.7 279.4 273.3 266.5 260.4 252.2 243.4 235.1 222 210.4 203.1 199.5 195.9 201.1 199.9 187.2 163.7 143.5 143.7 154 160.1 168.1 182.7 203.4 212.3 214.6 213.1 209.5 201.3 191.1 185.3 164.2 158.2 161.8 166 169.9 173.5 179.6 185.8 198.2 221.7 242.2 266.1 280.2 296.3 304.2 336.3 332.5 335.1 328.7 335.9 345.9 346.8 358 379.7 393 410.2 427.9 440.6 458.2 489.2 507.4 526.5 544.4 562.3 564.8 571.6 583.5 598 612.5 626.7 638.2 641.7 650.8 659.5 667.5 677.3 689.1 701.9 714.2 726.2 737.7 750.1 763.1 766.4 699 620.3 578 543.2 519 507.7 505.8 517 539.7 565.4 601 640.4 676.3 705.7 731.5 756.6 776.1 792.3 800.4 774.7 745.9 738.6 719.7 699.1 680.5 655.6 629.5 608.2 579.5 547.9 527.2 499.4 486.4 467.9 446.4 417.5 391.1 374.5 346.6 312 291.7 289.7 287.6 280.5 279.6 281.9 272.2 259.2 271 292.3 306.3 262.7 241.2 228.6 233.9 232 226.1 231.9 244.3 258.8 252 235.1 208.8 189 171.3 148.2 123.2 108.4 89.8 86 82.4 79.1 75.8 73.1
381.3 385.1 388.5 393.4 396.6 402.6 412.3 421.7 424 418.6 411.9 406.8 401.4 393.4 386.4 379.1 367.7 355.8 348 339.7 327.8 316.6 309.9 304.3 298.6 295.9 293.8 290.6 290.4 291.6 294.3 298.7 300.1 298.2 298.5 300.5 301.8 305 305 301.9 297.5 291.4 286.4 280.9 272.4 264.5 253.7 243.4 234 222.8 210.5 196.4 198 192.5 190.9 188.7 176.3 155.1 139.2 149 156.5 163.4 174.6 195 213.1 214.2 219.4 216.1 206.5 196 188.7 180.6 160 157 162.4 169.5 170.3 171.3 174.1 180.7 197.5 221.5 242.9 260.4 276.7 282.3 298.2 317.1 323.7 315.6 320.4 328.3 337.8 342 351.9 368.4 389.7 404.5 421.2 436.7 454.7 479.7 501.6 520.6 547 555.7 562.3 569.7 584.4 598 613.6 626 636.1 641.7 649.1 658.1 665.2 676.5 687.6 699.5 711.7 723.4 737.7 749.7 763.9 749.7 693.8 608.4 572.2 537.8 512.3 501.2 501.2 511.4 537.5 559.6 588.6 625.5 668.2 699.6 723.8 746.6 767.5 785.9 794.9 793.9 778.3 750.4 721.2 693.2 670.1 647.4 621.9 594 568.6 541.9 518.8 506.7 478.7 464.7 444.8 412.5 382.9 362.2 331.4 308.7 297.3 293.4 287.6 280.4 271 266.8 253.4 243.3 244.9 262.2 291.8 240.6 225.5 218.6 229.3 233.6 225.7 230.4 240.5 253.4 258.6 251.1 229.4 193.7 172.2 149.5 127.3 114 97.9 81 77.7 76 75 78.8
384.3 386.4 388.9 391.6 393.4 395.9 403.7 412.4 418.1 415.8 411.7 407 401.9 394.3 387.7 378.3 369.7 360 348.7 338.2 325.7 315.4 309.5 304.3 302.1 300.3 295.9 293 293.7 295.5 300.6 308 309.5 306.6 306.1 308.4 310.6 314.9 312.9 304.2 299.2 297.2 294.5 289.6 279 268.1 257.2 246.4 236.3 225.9 211.4 190.6 190.5 187.1 191.2 195.7 179.3 140.3 145.8 155.1 160.4 170.1 184.2 205.9 217.9 220.9 222.3 214.7 200.1 187.9 183.1 169.1 154.9 157.6 162.6 171.5 172.1 171.5 171.4 181.7 199.8 227.8 246 260.7 262.6 275.5 290.2 303 303.2 305.9 312.2 319.3 327.6 337.9 347.5 365.3 388.1 401 417.5 430.8 445.7 469.6 494.6 512.7 533.4 543.3 553.7 563.2 579.4 590.8 609.1 621.9 631.1 637.9 645.5 650.8 661.6 673.6 685.4 695.6 707.3 717.8 733.1 747.4 760.3 742.5 692.5 607.7 568.8 533.3 504.6 501.2 501.2 507 536.9 555.9 577.8 613 656.9 689.5 715.2 737.2 760 776.5 785.3 783.9 775.7 747.5 713.9 688.3 660.5 639 613.4 590.7 565.9 542.2 520.4 503.3 478.5 464.2 446.4 412.1 383.7 365.6 338.3 313.5 306.7 301.5 295 283.3 271.4 260.7 245.8 238.7 236.2 230.1 250.8 224.6 212.7 210.6 224.4 227.8 223.5 228 229.4 234.7 252.1 249.8 227.6 191.2 161.7 138.7 129 116.9 100.4 85.6 75.9 76.5 82.8 78.7
387.4 389.1 389.3 390.3 392 395 399.7 407.6 412.4 413.3 412.8 410.6 405.3 396.8 388.3 379.1 372.5 364.2 351.8 342.7 326.5 315.3 309.7 306.8 307 304.4 299.2 297.3 297.7 301.1 307.6 311.4 315.5 312.2 310.7 312.2 318.5 320.2 314.6 303.5 301.2 303 304 297.9 282.9 271.6 262.5 251.3 237.1 222.6 206.6 167.2 172.3 183.5 187.7 187.1 159.5 139 151.8 159.4 165 178.9 197.4 215.3 226.2 226.3 218.5 207.8 194.4 183.1 175.9 161.5 153.1 156.3 162.2 173.9 174.9 168.9 167.8 183 212 232.8 241.8 245.8 254.1 268.2 283.9 292 292.6 299.7 305.2 312.1 323.2 336.8 345.2 367.2 383.5 400.8 413.5 424.8 442.4 461.8 487.3 510.7 523.1 535.4 543.4 554.4 569.8 586.5 599.5 613.1 622.8 630.3 637.4 641.8 653.4 667.4 678.7 687.9 700.7 712.9 725.6 739.2 755.2 709.3 710.6 596.4 558.8 525.7 502.9 501.2 501.2 509.4 537.8 552.5 583.6 604.6 639.2 671.1 702.4 724.9 747.4 766.4 774.1 771.1 761.3 736.8 704.1 679.5 654.9 630.8 608.2 587.2 558.5 538.6 522.4 500.7 484.9 466.6 440 413 391.7 367.4 341.4 325.7 320.8 309.8 300 287.1 274.4 263.7 247.8 232.6 225.4 220.3 217 213.9 201.5 203.7 210.9 214.1 223.6 224.6 233.8 225.7 234 247.6 212.2 171.8 148.8 133.4 126.5 102.2 81.7 86.8 83.5 80.3 78.3 77.6
388 390.5 390.9 390.2 391 394.1 400.4 406 410.5 414.6 417.1 416.3 410.2 401 387.6 376.5 370 363.2 350.3 336 324.3 316.1 311.8 312 312.1 310.4 304.7 301.2 302.2 306.2 311.7 315.3 317.4 317.6 316.4 319.9 328.9 321.1 308.8 304.2 302.4 304.6 309.8 304.4 283.9 275.3 268.5 256.6 239.1 221.5 205.5 184.6 167.2 151.5 170.6 166.9 142.4 144.2 151.7 158.8 170.5 184.1 202.8 214.7 227.1 229.3 222.8 207.1 193.6 179.8 168.1 155.3 150.1 155.6 158.4 164.8 170 167 166.2 180.9 205.2 219.3 229.7 238.7 256.1 269.2 270.5 278.9 285.5 292 299.9 308.1 321.8 340.5 348.9 368.6 382.5 394.3 406.4 417.5 439.4 455.5 481.5 506.8 513 523.3 532.7 547.8 560.8 572 582.8 602.8 615.5 618.3 625.3 630.9 639.9 655.3 669.5 678.9 692.3 705.2 716.9 732.6 746.4 739.8 640.3 597.9 562.5 529 507.7 501.2 501.2 514.3 537 559.6 584.6 606.1 626.4 654.5 678.3 705 729.3 751.9 761.1 756.6 749.7 731.9 702.8 675.6 648.2 627.6 605.8 580.8 560.6 537.8 528.9 509 493 474.1 443.8 423.8 396.3 375.3 352.5 342.8 335.6 319.5 309.2 298.3 285.7 270.5 250.7 233.8 220.6 213.5 208.4 205.9 200.5 198.5 201.1 210.3 228.1 221.2 229.6 217.1 208.9 216 190.8 164.1 149.3 133.8 110.1 109.6 102.3 100 94.4 88.7 81.8 74.4
387.6 390.2 391.2 388.9 388.7 393.9 401.1 409.3 417.3 420.6 421.2 420.6 414.8 404.8 391.6 378.4 366.4 357.5 345.5 334.4 325.1 317.8 316.9 317.1 317.3 314.9 309.3 307 307.8 311.2 320.8 325.3 323.1 319.6 323.3 326.4 332 317.5 307.9 303.3 304 311.2 314.7 303.5 285.1 284.1 274.5 258.3 235.9 219.1 204.9 189.6 173.3 162.2 141.1 139.2 134.5 144.3 152 162.7 170.7 185 199.7 212.7 213.3 218.2 216.9 199.3 187.8 173.9 157.7 153 148 151.3 153.6 158.5 162.4 160.2 164.5 174.7 190 204.9 220.7 236.2 252.1 261.8 263.1 271.4 280.3 286.8 295.7 307 321.7 348.1 354 367.5 379.4 389.4 400 415.3 436.6 450.7 473.8 492.9 502.4 512.5 524.1 539.6 552 562.2 577.9 592.1 601.3 604.8 610.3 617.4 628.1 641.4 654.5 669.2 681.2 696.6 710.4 728.5 743.8 697.8 642 595.1 560.5 529.8 507.4 501.2 501.2 515.4 542.5 570.9 583.4 606.6 622.2 631.8 655.1 683.6 705.6 726.9 735.2 740.6 736.5 724.3 705.7 672.8 647.3 621.2 607.6 588.8 563.7 545.9 531.4 515.4 496 476.8 454.4 434.9 407.7 382.6 363.8 350.5 344.2 326.7 317 301.3 293.8 271.9 252.5 236.9 224.2 213.3 205.6 201.8 199.4 198.3 198 212.4 227.2 221.4 215.2 205.3 189.6 180.9 170.4 162.8 155.4 137.8 117.1 123.3 116.2 110.2 104 99 89 80.1
386.7 387.9 388.7 388 388 392.1 397.2 409.5 424.2 431.9 429.2 425.6 419.1 409.6 397.9 382.8 367.1 355.7 345.2 335.1 327.3 324 327.7 328 326.3 322.4 317.2 314.5 313.9 316.4 325.7 331.9 324.3 320.9 323.4 325.7 323 314 307.6 304.3 305 311.8 313.4 301.7 281.3 276.4 259.8 249.9 232 219.1 205.5 186.5 174.1 160.2 151.6 144.7 134.1 141.4 153 160.5 168.3 180 191.1 203.2 202.4 205 198 190.7 179.9 160.5 153.5 151 147.6 149.8 149.9 155 153.8 157.2 163.6 173.6 191.1 207.4 222.8 242.6 253.4 253.9 254.1 265.6 275.9 283.2 291.6 305.5 321.7 345.4 355.5 366.9 374.2 384.9 398.5 415.1 433.6 447.3 464.3 476.8 491.2 505.8 519.3 533.4 542.8 556.2 572.3 581.7 587.4 592.9 599.2 607.4 620.1 629.3 638.4 655.3 671.5 686.6 703 722.8 738.8 709.7 651.3 595.1 560.2 529.4 511.4 501 501.2 518.1 544.7 571.4 572.3 590.7 607.7 605.9 628 646.3 668 687.2 708.9 723.6 721.3 717.9 704.7 671.9 645.9 624.6 609.5 588.2 564.1 551.7 536 512.9 503.8 483.6 464.8 446.2 419.6 397.9 379 360.3 346.5 339.1 319.9 306.1 293.3 274.8 254.8 238.8 228 217 209 204.3 199.6 197.6 196.9 205.9 216 214 208.4 200.1 187.5 169.4 162.2 160.4 157.9 139.6 139.1 137.4 127.6 118.9 110.7 102.9 94 86.5
386.6 386.7 387.3 387.4 388.3 390.3 399.1 416.8 432.8 438.8 434.6 425.6 421.7 413 404.1 389.6 373.8 360.3 347.9 339.7 334.3 336.2 343.4 348.6 341 332.3 326.1 321.5 319.8 321.7 325.2 330.7 327.9 327 329.5 329.5 325.8 318.2 307.8 309.4 308.2 314.8 314.5 288.7 274.3 263.6 247.4 241.2 234.1 216.5 200.7 184.8 170.6 155.8 149.3 147.5 137.4 134.2 145.5 157.1 172.6 174.2 170.4 170.6 175.3 183.9 182.2 177.1 166.9 152.1 148.4 147.2 145.8 147.5 147.4 147.5 148.6 155.4 161.8 174.7 195.9 212.4 230.3 247.8 251.9 251.7 247.8 259.2 271.8 280.3 289.8 304.9 322.9 339.1 349.4 359.6 370.9 379.8 397.9 420.4 430.9 446.6 459.2 472.7 488.6 500.9 517.3 531.2 536.9 549.9 562.1 573.3 577.6 582.2 587.3 594.4 605.8 615.5 629.4 645.5 663.5 681.7 699.1 716.5 732.4 720.5 658.8 602.7 566.4 537.8 519.3 504.2 501.4 517.5 549 559.3 557.9 565.2 584.8 589.6 595 612.6 628.1 650.5 677.5 698.6 706.3 711.2 702.2 674.5 645.7 619.3 601.4 582.4 562.1 552.3 519.5 497.1 493.9 480.1 468.8 446.8 420.6 400.3 387.3 368.5 353.2 347.2 327 314 296.5 276 259.6 241.1 232.6 221.6 214.2 205 199.5 196.9 195.6 202.3 205.2 207.1 206.7 195.9 174.7 161.1 167.7 162.1 157.5 156 152.3 144.9 138.8 130 119.5 109.6 103.2 89.6
386.8 386.9 387.3 387.4 388.2 389.3 401 425.2 430.3 432.5 429.3 422.2 420 417 405 395.1 383.7 370.8 358.1 348 343.2 346.7 351.2 352.2 350.4 341.9 337.6 334.2 332.2 330.5 329.2 331.6 339.1 343.3 346.5 337.3 329.1 314.7 308.3 306 310.4 309.6 301.9 281 267.9 253.6 242.8 232.1 220.3 205.6 195.1 185.5 170.9 153.8 149.4 145.8 138.7 130.6 146.9 168.7 181.9 173 168.9 163.4 163 170.5 161 157.1 149.2 152.2 146.2 144.6 144.8 145.3 145.1 145.2 147.1 155.2 160.1 174.6 192.9 207.2 236.9 244.7 241.4 238.6 243.6 254.3 271.4 281.3 290.3 304 321.9 336.3 345.9 355.7 368.7 378.7 395.7 411.8 427.2 441.8 456.9 469.7 485 496.9 512.5 522.6 529.5 541.1 555.1 562.9 568.7 572.3 578.5 585.7 596.5 608.3 623.3 637.9 658.4 680.2 697.8 715.4 732.6 724.7 659.9 608.5 574.8 546.2 524.4 506.7 500.4 508 536.2 534.1 531.7 546.4 555.7 564.9 565.9 581 600.4 614 647.8 670.2 690.3 697.2 690.3 669.1 642 612.5 595.1 574.2 563.5 545.7 515.4 505.9 491.2 476.3 460.3 440.2 417 402.1 389.5 375.4 354.1 349.4 329.3 311.9 298.6 279 262.7 246.1 230.3 217.5 217.3 206 198.3 195.6 194.6 199.1 201.7 199.2 203.5 177.8 174.8 174 171.9 169.3 168.9 164.2 160.8 154.4 149.4 139.2 128.1 118.2 111.8 100.1
388.1 389.2 388.7 387.9 388.1 391.3 401.7 417.1 426.9 424.9 421.5 418.3 418.1 416.3 406.6 397.8 389.3 379.3 368.9 362.1 354.3 355.8 359 360.7 358.8 353.8 353 349.2 351.1 344.5 345.5 341.6 338.2 338.9 336.6 332 321.1 314.3 306.9 299.8 300.9 299.3 285.9 273.7 263.6 251.4 238.1 225.3 215.4 205.4 198.6 190.3 177.2 159.9 157.6 151.9 140 135 150.8 164 173.1 172.7 175.7 161.1 153.1 151.8 152.3 142.6 142 143.9 143.9 143.7 143.8 144.3 144.2 144.5 148.1 153.1 157.5 165.7 175.7 195.1 214.1 223.5 225.7 232.2 241.8 254 272.5 284.4 292.1 304.7 318.9 332.9 342.4 354.4 365.6 376.5 392.4 406.2 421.8 435.2 451.7 468.2 482.1 493.8 507.7 516.4 528 539.5 549.2 557.1 560.2 563.5 570.5 579.9 590.1 603.4 619.9 637.4 658.9 680.1 700.1 717.6 734.9 713.6 657.6 620.3 583.2 554.4 530.4 509.5 500.3 500.6 514.4 511.7 504.2 509.7 517.8 532.6 534.6 550.7 573.7 579 619.3 646.6 671.2 685 675 657.1 632.1 605 587.1 564.3 555.7 526.6 495.5 494.7 479.8 463.1 447.2 429.1 420.4 399.5 393 375.8 356.5 334.5 319.8 306.6 299.5 289.6 269.2 251.7 236.4 222.7 217.1 212 199 194.5 194.3 199.6 198.3 192.2 182.5 176.9 178 172.8 171.3 170.1 167.9 164.1 161.1 158.9 155 147.1 138.9 130.1 120.2 108.2
392 391.9 390 388.5 388.4 393.6 401.5 414.5 419.1 418.9 416.5 414.8 414.2 409.2 402.8 398.1 390.8 383.9 377.4 373.3 374.1 376.3 377 376.6 372.3 367.1 366.3 358.5 355.1 352.9 357.3 349 339.8 330.6 323.3 319.6 317.1 313.1 307.1 301.4 293.3 287.6 276.7 271.5 263.5 251.6 238.5 229.2 221.8 212.9 206.2 194.9 180.8 166.2 166.6 161.3 145.7 136.7 156 169.7 177.6 175.6 168.5 167.6 154.7 140.6 140.5 140.8 141.2 141.6 142.1 142.9 143 143.4 144.4 145.6 147.9 153.4 157.3 160.4 167.7 187.7 205.3 211.8 218.8 233.2 246.6 257.7 275.2 284.8 292.2 302.7 316.9 329.9 340.6 351.9 364.5 375.2 390.6 404.6 419.1 432 450.8 466.7 482.9 491.9 501.9 517.3 531.5 538.9 544.2 548.6 552.8 557.3 564.7 572.9 586.7 600.7 619.6 637.6 660.6 681.9 703.5 723.2 736.8 713.2 671.6 626.2 592.8 560.2 533.1 510.9 491.6 489.4 492.9 485.3 482.1 483.6 486.3 496.8 513.4 526.4 557 560.7 598.3 629.7 654.6 668.8 659.5 646.6 624.3 596.8 573.8 558.7 544.6 523.9 497.1 488.9 467.8 457.5 445.9 433.6 421.4 404.3 381.3 375.1 351 330.5 318.6 306.6 294.3 286.9 267.6 259 240.6 225.4 211.7 207.1 196 194.3 193.9 194.3 189.5 185.1 182.3 178.8 178 171.4 170.6 168 168.3 166.5 165.4 164.8 161.9 153.2 144.9 136.9 124.2 111.4
399.7 395.8 393.1 389.1 389.2 392.8 400.7 407.3 410.3 413.3 413.7 410.5 408.5 404.4 398.7 394.2 390.1 386.1 382.6 385.7 391.2 397.4 394 386.4 382.1 376.5 372.5 367.3 366.2 367.8 362.6 355.8 341 329.7 321.6 321.5 318.5 317.5 310.8 297.4 296.8 284.4 269.3 268.2 262.2 248.9 238.8 230.4 221.9 215.2 207.9 198.1 177.1 167.4 163.4 167.9 129.3 144.4 164.3 181.2 186.5 182.2 170.2 161.1 148.3 140.3 140.6 140.6 140.9 141.2 141.4 142.2 143.3 144.5 145.1 146.1 149 153.8 156.8 158.7 162.5 171.7 187.1 204.1 216.2 233.3 247.6 260 273.6 279.2 288.7 301.2 315.6 329.3 340.8 350.5 362.2 374.5 385.6 403.5 415.6 430.5 451 467.3 483.7 492 502.3 519 529.4 534.6 537.7 541.4 546.1 552.1 560.9 571.4 585.7 601.2 617.7 638.9 663.2 685.4 707.5 726.4 737.6 719.5 677.8 635 600.1 565.2 531.4 507.4 488 467.1 473.6 469.9 464.1 462.3 468.5 480.4 496.1 510.9 536.2 548.2 582.6 608.6 627.7 644.1 645.8 634.2 607.7 584.8 566.8 552.2 538.3 515.3 495.3 486.6 478.5 463.4 450 429 420.2 400 370.9 366.1 350 336.4 317.7 307.2 296.7 287.1 272.8 259.6 249.1 226.8 212.1 200.2 194.6 193.5 191.1 189.4 186.4 184 182.5 178.8 175 172.5 170.6 171.6 170 169 173.2 172.4 164.2 154.3 146.9 138.9 124.5 106.9
402.9 399.9 397 391.9 391 394.2 403.1 404.6 406.5 409.5 407.3 404.7 400.2 397.6 393.1 389.4 388.5 387.1 386.2 390.6 398.5 404.1 403.4 395.7 391.6 388.9 383.3 368.7 363.9 365.3 359.6 353.1 340.4 328.2 328.9 329.9 318.6 311.7 307.3 294.2 282.6 272.6 261.8 267.7 259.5 245 237.8 229.7 223.2 218.8 210.8 198 173.6 163.4 154.1 160.5 130.2 151.2 163.6 183.1 184.5 176.5 157.7 149.3 139.9 139.5 140.4 140.5 140.5 141 141.5 142.5 144.1 145.5 146.3 147 149.4 151.3 153.8 157.9 161.3 166.4 181.3 199.1 214.1 227 239.5 251.5 262.3 271.5 287.5 302.1 315.5 326.3 339.5 349.1 362 373 385.2 397.8 413.5 427.4 453.2 469.7 483.6 491.4 507.1 518.5 524.9 528.3 529.9 533.7 539.1 547 557.6 568.3 586.1 602.1 618.9 641.9 667.9 691.9 711.7 728.7 741.5 721.9 685.3 646.1 603.6 566.9 528.2 500.4 477.9 460.2 457 453.2 451.4 452 457.1 468.3 481 494.2 504.6 531.8 560.5 583.4 603.3 620.3 627.9 614.3 591.2 572.3 549.4 542.8 521.9 499.9 488 485.8 475.2 462.8 456.2 426.6 417.2 403 367.6 352.4 343 333.5 324.8 304 292.4 281.5 275.5 259 240.6 222.9 212.3 201.8 194.9 193.9 195.5 195.2 186.1 185.4 184 181 179.9 177.9 174.3 175.8 168.8 168 171 173.1 164.6 158 148.9 138.4 123.3 106.7
403.6 401.8 399.3 394.9 392.6 395.6 400.8 401.9 402.9 401.8 398.1 396.2 392.5 390.1 387.5 385.2 385.5 385.3 388.3 404 397.1 402.8 406.3 399 396.5 389.5 383.6 367.4 359.5 355.5 351 346 336 332.7 334.7 328 317.8 310.6 301.6 291.2 280.5 266.2 253.5 265 259 249.2 235.4 231.2 227 220.8 213.9 195.2 168.4 153.4 139.2 131.3 136.5 157 152.1 154.7 152.9 151.5 145.6 139.5 139.6 139.3 139.5 139.9 140.3 140.8 142.1 143.8 144.7 146.4 147.8 149.4 150.1 151 153.8 158.9 163.9 169.6 182.7 197.7 211.1 222.9 236.6 250.1 260.9 275.1 289.1 300.3 311.6 324.6 336.3 347.3 357.7 369 381.5 395.2 408.3 424.8 449.6 464.8 479.3 488.9 502.1 512.7 517.8 519 521.6 524.7 533.6 543.2 554 569.6 586.5 606.4 624.2 647.4 673.9 695.7 714.5 731.5 731.5 704.1 672.2 638.8 600.2 565.5 519.6 491.8 467.9 451.7 443.1 443.5 443.7 445.2 449.8 458.8 475.2 489.9 500.3 498.4 539.7 556.1 579.7 599.9 611.7 595.3 572 553.7 536.3 526.5 512 488 471.6 467.9 460.2 462.7 450.5 426.5 410.3 393.1 360.7 357.2 347.2 328.9 315.4 294.5 284.4 269.5 265.1 244.4 232.8 228.7 223.7 213.7 199.5 196.9 201.9 196.4 193 193.8 190.5 186.8 180.8 180.3 176.4 169.7 167.3 167.1 169.1 165.6 164.4 157.1 146.8 136.3 123.3 105.2
403.4 401.8 400 396.4 393 393.6 394.1 394 393.2 391 389.2 387.8 384.9 382.3 380.2 380.2 380.3 377.5 380.3 387.9 395.7 396.4 398.8 394.9 393.1 392.2 381.7 370.2 356.7 355.9 347.3 339.8 336.6 334.5 332.4 324.7 318.2 308 302.7 291.8 274.5 257.3 246.9 256.5 257.2 247.6 238.1 234.9 231.2 223.2 213.8 186.2 159.2 137.5 130.5 144.8 157 163.7 157.8 150.2 143.2 140 139.2 141 139.1 139.2 139.3 140.1 141.1 141.9 143.4 144.8 145.7 148.4 150.4 151.7 152.3 153 154.5 159.6 165.4 172 183.5 197.3 210.6 223.2 237.5 251.4 263.3 277.4 290.8 302.3 312.6 323.9 334.7 344.2 354.2 366.2 380.2 395.2 408.9 422.3 440.1 456 469.5 483.8 499.3 504.9 509.3 510.6 512.4 517.9 529.5 541 554.1 568.7 588.2 609.7 631.7 653.8 676.7 695.3 715 718.4 698.5 671 650.2 615.9 580.7 537.5 511 474.9 452 444.3 438.5 436.4 437.9 439.2 443.5 450.8 461.1 488.6 494.5 507.8 523.7 540.4 562.5 577.7 587.4 574.2 550.7 529.4 522.4 508.6 494.5 473.9 454.1 443.6 435.1 435.1 419.6 408 399.9 381.9 357.6 345.3 340.1 332.6 304.6 282.4 271.8 263.1 251.2 242.2 243.5 238.8 231.7 220.4 208.6 204.5 204.3 203.7 202.3 199.8 197.2 191.9 185.6 178.2 171 167 165.3 163.7 164.4 162.4 162.1 154.1 145.8 135.7 122 106.6
403.2 401.4 399.4 395.8 392.2 391.1 391 388.9 387.1 383.5 380.6 378.8 374.5 371.4 370.2 371.8 370.1 367.1 373.4 380.1 384.8 386.9 383.3 380 381 377.1 365.6 360.3 348.1 340.1 336.2 336.8 337.9 337.7 336.3 332.6 323.6 308.9 295.4 288.9 263.9 245.2 242.9 247.5 249.6 254.5 249.3 245.9 234.2 221.9 201.8 168.6 143.2 122.6 147.5 164.5 171.7 174.6 172.4 164.2 151 140.5 139.6 138 138.7 139.2 141.7 144.8 145.9 145.2 146.9 148.6 150.2 150.6 152.9 153.6 154.3 155.2 156.7 160.4 165.4 174.9 188.3 201.4 212.9 226.3 239.5 252.8 264.8 279.8 292.9 303.4 311.8 321.1 331.1 340.9 353.6 364.3 376.5 390.6 405.4 420.4 435.4 448.2 459 470 484.4 493 494.8 499.2 498.9 513.5 526.6 539.6 552.3 568.2 589.2 613 636.7 658.4 676.4 691.9 699.4 681.4 661.7 639.5 615.9 590.4 565.1 527.4 489.4 462.5 444.3 436.8 434.7 432.9 433.5 435.3 438.2 444.4 454.5 477.8 486.7 500.6 513.9 526.4 548.6 560.6 556.4 547.1 532.5 508.4 503.7 491.4 478.5 455.7 442.9 431.9 429.4 417.7 401.2 393.6 401.4 374.8 344.7 339.5 324.4 325.2 296.1 274.8 264.5 251.7 250.9 249 244.5 240.3 229.6 223.5 220.7 216.8 215.3 212.4 208.1 202.4 199.2 194.6 187.9 178 171.5 166.4 162.7 161.9 163.3 160.7 156.2 145.8 137.5 125.6 113.1 97.4
403 400.4 398 394.5 390.6 388.7 386.7 382.6 378.5 375.3 372.2 368.4 362.7 358.8 358.9 360.7 357.9 358.9 365.8 376 383.4 386.4 381.3 372.2 364.8 359.2 349.8 346 342.2 331.5 331.6 337.4 342.5 339.1 341 338.4 327.3 313.4 293.7 274.8 249.3 237.5 234.7 241.6 255.9 253.3 253.4 247.5 232.6 216.9 188.4 150.7 128.6 134.6 156.4 174.7 184.2 185.4 183.2 169.7 155 144.7 144.8 137.2 138.4 139 143.7 147.6 146.4 148.9 151.4 153.1 154.3 153 154.7 155.8 157.2 158.6 160.4 162.3 167 178.7 192.9 204.7 220 231.6 243.1 255.3 268.3 281.7 293 302.8 309.7 318.1 326.3 337.3 350.9 361.7 374.8 387.8 401.5 416.4 430.1 442 450.5 460.4 470.5 477.4 480.7 482.5 495.3 509.8 520.5 533.5 548.7 569.1 594.2 615 640.6 662 679.6 693.9 677.3 651.4 629.4 607.4 587.9 563.8 540.9 511.1 473.7 446.3 434.5 429 428.5 430.2 430.8 433.8 437.1 442.2 452.1 465.8 479.7 490.5 503.8 518.8 536.6 537.8 540.8 526.3 509.4 496.7 495 480.9 461 440.8 427.9 425.8 421.3 408.3 399.1 375.6 372.6 358.7 337.7 319.6 300.5 300.4 283 262.2 258.1 258.8 259.6 253.8 246 237.9 230.3 229 226 220.6 221.3 215.8 210 204.4 199.7 195.2 190.4 180.6 173.1 168 161 159.8 161 156.4 148.2 140.4 130.6 117.6 107.7 97
401.1 398.6 395.9 392.9 388.6 385.2 380.3 375.3 370.2 366.7 361.7 354.5 347.7 345.3 348.3 349.6 346.5 352.4 357.3 365.6 374.3 385.5 382.7 374.2 357.6 348.3 343.3 338.1 334.6 328 315.7 313.5 320 320.4 318.7 314.6 308.1 294.5 282.2 264.1 240.2 230.7 232.1 241.9 250.3 254 251.6 244 231.8 213.4 182.5 145.4 120.9 149.8 173.3 196.3 197.7 188.6 178.7 166.2 156.8 148.5 144.2 137.2 138.2 138.8 140.7 143.9 147.4 151.3 154.8 158.5 160 159.4 157.3 159 160.5 162.1 165.7 170.1 176.5 187.2 198.7 210.9 224.8 239.7 248.9 259 272.1 280.8 288.8 300.6 308.8 317 324 335.8 346.8 359.3 373 386.5 399.1 412.7 424.9 434.6 443.8 452.7 458.1 461.6 465.3 473.2 488.5 501.5 514.6 527.7 544.3 566.8 590.4 619.2 643.4 663 679.6 690.6 661.6 630.8 604.6 582.5 563 542.6 516 491.9 463.8 441.5 430.9 421 422 426.4 429.2 431.3 435 439.6 445.7 458.5 470.8 480.5 491.2 513.4 512.5 516.5 512.9 500.3 486.2 483.4 483.1 469.4 443.2 428.7 416 415.8 409.7 392 387.2 367.3 352.5 339.6 326.3 307.4 290.8 279.7 263.3 259.7 260.1 258.8 262.5 250.1 245.5 235.2 233.1 232.4 229.7 221.4 223.6 217.3 210.5 208.3 200.7 195.7 191.6 181.7 172.5 161.4 160.5 157.3 156.4 147.1 139.8 132.7 120.4 117.1 101.8 85.3
398.5 395.1 392.4 388.8 385.4 380.7 374.9 369.3 362.2 355 348.8 340.9 334 330.1 333.5 340 338.4 346.2 349.4 352.7 364.2 372.4 374.9 371.7 355.2 346.8 333.7 333.1 328.5 321.2 315.1 304.4 301 299.4 293.1 291.5 281 274.2 259.9 253.3 232 230.5 242.7 257.9 267.2 270 263.5 257.2 243.1 218.5 177.9 136.2 132.1 168.6 188.6 200.9 198 189.2 183.2 176.8 167.6 157.3 146.6 138.4 137.8 139.5 144.1 150.3 155.1 158.8 163 166.6 166.6 165.2 162 162.2 161.4 166.6 170.1 176.2 184.1 194.3 205.1 222.1 234.6 247.2 254.5 266.5 272.5 281.1 288.6 297.9 307.1 317.9 325.3 335.3 344.7 356.7 370.1 383.9 395.6 408.2 418.3 426.5 434.8 438.6 441.7 448 452 466.8 479.8 495 509.1 523.8 543.4 564.9 590.7 619 641.1 659.6 674.1 679.5 644.7 617.2 588.6 565.8 543.8 523.7 500.6 480.1 456.4 432.8 422.2 415.3 421.2 429.1 429.9 432 433.9 438.3 443.1 452.6 462.4 468.1 481.4 495 491.6 495.8 495.9 484.5 470.4 466.8 468.7 452.4 426.7 419.8 405.2 404.9 397.8 381.4 373 358.3 347.5 326.3 308.6 298.7 278.4 267.9 268 263.3 259 259.9 254.9 246.2 241.7 239.1 238.5 238.2 232.5 222.1 222.2 218.2 212.1 208 198.6 195.3 190.8 182.3 171.5 159 155.2 152.6 146.6 140.4 131.1 118.9 115.6 107.5 91 82.3
394.1 390.5 386.9 383.8 379.6 375 368.2 361.7 354.5 346.7 338.6 331.9 324.9 318.1 319.3 321.8 325.8 331.8 333.5 340.8 350.9 354.4 363.1 357.4 347.6 336.1 328.7 331.5 325.6 322.3 314.6 301.5 289.8 285.9 277.3 273.3 261.6 245.7 230.9 227.8 229.1 226.4 247.1 267.5 279.4 283.9 272.8 264.2 247.5 209.9 168 126.7 140.9 166.5 195.5 203.1 199.2 196.3 192.5 186.7 175.6 160.4 146.3 138.8 137.6 145.3 153.6 162.2 167.1 168.4 173.8 178.5 173.6 171.2 166.7 165.8 166 166.4 170.6 178.6 186.2 197 210 225.1 236.7 246.7 255.4 266.2 273.5 281.9 289.1 297.4 306.4 317.5 326.1 337.3 346.3 356.2 368 380.2 392.3 403.6 411.6 416.3 422.9 425.2 428.9 433.9 449.3 461.5 473.5 487 503.5 524.6 546.4 569.3 595.7 617.1 637.7 655.7 669.4 672.7 631.4 602 582.3 557.6 533 510.1 487.7 466.2 446.5 427.8 417.6 414.3 418 426.4 430.1 432.1 433.6 437.3 440.3 445.6 452.8 457.7 472 479.6 478.6 484.2 480.4 465.6 456.9 454.6 450.9 437.1 412.5 406.1 396.1 389.2 379.5 364.3 356.8 351.2 345.2 323.5 298 283 275.1 271.6 263.8 261.4 256.6 255.1 250 244.6 241.4 240.2 241.2 237.2 231.1 225.2 215.4 217 212.4 204.1 199.3 194 187.8 180 168.8 156.8 148.5 144.1 138.4 131.8 124.5 115.2 109.4 101 91.5 78.4
389 384.5 380.7 376.3 372.2 367.6 360.6 355.7 347.3 338.7 330.2 323 315.9 311.1 309.5 311.3 316.6 321.1 326.2 334.2 344.9 347.5 348.1 338.5 333.4 329 324 326.5 331.5 324.5 310.9 298.3 290.5 284.3 277.3 268.7 253.7 232.3 222 228.6 236.4 214.2 235.1 267.9 284.8 284.3 276.1 272.2 254.2 201.1 152.3 120.1 139.6 170.7 198.7 202.1 207.1 198 191.3 182.1 172.4 160.4 145.8 137.4 140.1 156.3 170.8 176.7 178.2 179.4 180.6 175.1 169.5 170.5 167.2 166.8 169.3 172.4 175.2 178.6 188.7 195.9 208.5 226 235.5 244.2 254.7 262.6 274.5 282.3 290.3 298.4 306.1 314 326.5 339.5 347.7 357 365.9 375.3 384.4 394 404.6 407.4 411.3 414.9 418.5 428.3 443.2 455.4 469.2 483.4 498.7 522.6 548.2 572 597.8 618.2 635.2 652.9 666.9 663.4 620.1 592.5 580.3 561.6 534.2 504.3 481.7 461.1 441.8 424.3 414 413.1 415.1 420.5 424.5 429 430.4 432.4 434.7 439.3 443.3 448.9 454.5 456.3 466.6 472.3 463 447.3 444 445.6 432.7 416.9 399.4 391.9 386.3 375 364.5 345.7 345 334.5 328.4 306.7 282.5 279.1 276.1 266.7 259.2 258 252.5 248.9 244.7 243.7 242.7 242 241.5 234.6 226.2 222.2 213.8 216 208 204.4 198.4 191 184.6 173.1 165.8 155.8 147.6 141.4 136.6 126.2 115.3 110.8 105.4 98.6 85.5 72.8
383.9 377.5 372.7 368.9 364.2 358.4 353.1 348.1 338.2 331 324.9 318.1 311.2 304.7 300.3 304 307.9 317.1 315.1 319.9 324.5 331.2 325.3 324.6 326.4 320.8 323.7 324.8 326.5 324.6 310.1 296.1 291.5 291 279 262.5 239.5 222.3 216.5 228.2 214.3 201 228.2 272.9 287.8 287.8 281.4 268.6 246.5 180.1 137 116.9 145.2 173.2 193.9 203.8 205 202.3 193.9 179.1 169.4 158.1 145.8 137.6 145.2 173.6 177.7 189.5 186.1 178.8 181.6 166.4 161.6 162 162.7 165.3 171.1 178.2 182.2 185.6 192.2 203.8 210.6 225.6 232.8 244.3 248.7 262.2 273.6 283.1 292.4 299.1 306.9 316.4 328.5 338.5 347 356.3 365.8 375.7 381.5 389.2 397.4 402.1 402.4 410.3 417.3 424.7 437 449.4 467.6 484.2 504.2 528.9 553.1 575.2 598.4 618.6 636.8 654.2 666.1 661 611.7 577.1 566.3 570.4 541.2 509.4 483.7 462.7 441 423.5 414.6 412.6 413.2 416.5 421.8 425.5 426.1 426.1 425.6 427.4 425.3 425.6 431.6 436.3 449.9 453.2 442.3 428.7 436.1 428.6 416.3 400.9 382.6 379 371.6 365.9 349.2 329.8 329.3 322.5 304.9 282.6 283.3 279 267.9 263.6 255.4 252.6 248 246.3 244.5 244.3 244.7 242.9 238.4 233.9 229.5 222.9 216.9 209.6 208.9 203.8 197.3 185.6 177.3 170.1 163.9 160.7 147.9 139.5 131.9 120.1 120.1 111.6 101.8 90.6 83 73.1
376.9 370.4 365.1 361.1 356.1 351.3 345.2 337.6 331.2 324.7 318.8 314.1 306.9 299.4 294.6 296.2 297.4 300.1 301.8 303.7 306.4 309.2 310.5 313.3 317.3 320.1 331 336.4 327.4 320.2 306.5 293.9 281.8 279.4 271.7 246.5 225.4 215 201.6 203.2 199.3 187.1 187.9 213.7 239.5 268.9 268.6 255.6 217.5 163.9 128.3 120.2 153.3 187.8 207 211.5 214.7 201 188.2 182.2 175.8 163.2 148.7 138.5 142.8 170.8 175.9 189.7 173.7 168.5 165 155.6 154.5 154.7 157.2 161 168.8 180 187.8 194.3 199.5 206.3 215.4 224.1 237.8 248.2 257.2 266.6 273.5 281.1 290.7 300.4 309.3 321.2 329.8 337.6 347.3 354.5 364.1 374.2 380.1 386.2 390.9 393.7 401 408.9 416.8 425.5 436.1 449.4 466.4 482.4 507.9 534 557.5 579.1 601.8 622 639.5 653.8 667 650.5 604 572 560.6 560.6 542.7 519.2 498.7 474 448.3 425.3 412.8 412.9 412.7 414.7 419.2 421.8 421.2 419.6 414.8 412.7 411.4 405.5 409.9 419.5 431.9 432.5 424.2 412.6 424.4 411.1 403.6 379.3 370.7 363.6 362.1 346.7 340.8 323.7 311.3 302.1 282.3 281.7 279.7 272.3 264.3 257.9 251 247.6 245.3 245.3 245.9 244.7 244.8 244.1 240.9 234.9 228.9 223.5 218.2 211.3 208 200.1 190.3 186.9 175.8 169.2 167.2 157.1 144.2 134.7 126.8 124.6 121.4 112 98.4 86.7 78.5 72.5
370 363.6 357.7 353.8 350.9 341.8 335.6 329.2 323.2 317.4 311.9 307.2 304.1 296.6 291 288.4 287.6 288.5 290.9 294.3 298 300.2 302.1 306.5 309.6 317.9 323.4 317.9 309.9 303.3 297.1 287.3 272.9 262.8 256 231.1 213.7 198.2 189.8 189.9 178 168.2 171.3 186.4 206.7 223.2 236.8 235.4 195 148.3 120.5 127.3 157 190.1 212.2 220.4 217.7 199.9 192.7 192 183 167.6 148.6 136.5 143.8 150.8 153.6 158 155.6 153.8 150.6 150 149.5 151.1 153.7 156.5 165.5 179 190.2 199.3 206 213.6 219.3 231.3 242.9 252.6 262 272.7 279.8 287.4 294.8 296.5 302.5 321.7 331.5 339.1 346.8 353.1 361.5 369.4 374.7 378.2 385.5 397.1 404.9 411.6 418 427.6 438.4 452.6 470.7 487.8 513.8 538.2 563 583.8 604.7 622.6 639.4 654.2 668.6 673.8 634.2 586 565.5 562.5 551.7 529.8 509.4 485.8 456.4 433.2 417.4 413.3 412 412.9 416.1 416.5 414.2 411.2 407.1 401.6 401.8 397.5 397.2 405.9 412.9 415.1 403.6 401.6 400.8 401 387.5 362.5 359.6 352.3 341.7 329.4 322.8 312 298.3 282.4 277.6 278.6 272.1 265.9 257 251.6 248 245.2 244.5 245 245.3 247.2 248.1 246.3 242.3 233.6 227.8 221.5 216.4 209.8 201.6 197.7 189 185.4 175.1 168.8 164.3 154.1 143 135.1 131.6 129.8 126.6 104.3 87.9 84.9 77.8 70.9
362.9 355.6 350 345.7 340 333.6 326.7 321.2 314.9 310.2 305.1 301.2 297.9 291.3 288.6 283.1 281.3 280.7 281.6 287.5 291.2 295.1 296.8 306.2 307.3 307.5 309.1 310.6 312.4 308.3 307.7 287.4 268.2 252.5 228.4 209.7 187.3 175 173.2 164.2 153.9 149.9 155 170.2 188.7 222 234.7 225.9 170.6 128.7 111.6 136.5 161 183.2 202.2 212.7 206.1 195.7 198.8 194.6 188.3 168.2 148.7 132 149.8 152.4 150.3 149.2 146 145.4 145.4 146.8 147.6 149.9 152 154.6 161.7 173.5 185.3 198.5 208.8 217.3 228 238.9 249.2 259.7 272 279.7 287.1 294.3 301.6 309.7 318 320.3 324.9 335.2 342.8 349.3 353.9 360.8 366.9 377.8 388.9 398.8 407.7 415.2 421.9 431 441.4 454.6 473.1 492.9 519.5 545.1 568.6 586.5 606.6 623.1 638.1 651.6 666.2 678.4 658 615.2 593.3 572.3 550.1 538.1 514.3 494.7 465.2 439.5 420.1 414 412.6 411.7 412.9 411.7 408.8 405 399 394.2 392.6 389.9 388.5 390.1 395.2 395.7 379.4 384.1 377.6 388.6 371.5 346.5 344.6 335.8 329.2 317.9 305.8 293.1 282.5 282.3 274.6 269 264.9 257.1 252.8 248.4 245.4 244.2 244.5 245.6 249.2 248.8 249.8 247.6 240.2 233.1 226.1 221.2 215.6 209.5 203.6 194.1 187.7 181.5 180.1 175.4 164.9 156.2 142.8 134.9 134.6 126.3 112.2 97.7 87.6 82.1 77.4 70.4
355.6 348.3 342.3 336.8 332.5 324.6 319 313.5 308 304.7 301.6 296.9 291.7 287.4 285.3 282.3 277.8 278 278.4 280.8 286.1 289.2 295.1 301.4 304.2 305.9 312.1 318.2 315.4 304.4 290.9 279.1 260.9 239.8 212.8 195.4 176.8 158.7 153.9 145.2 141.9 134.4 140.4 154.5 182.1 192.8 215.7 204.9 157.5 112.9 123.7 147.6 168 177.9 187.6 189.7 186 190.2 199.5 196.5 193.5 174 142 133.4 154.9 152 149.5 148.8 144.8 144.7 145.1 145.9 148.1 150.1 151 153.6 160.2 172.1 185.4 200.6 210.6 220.5 232.9 246.6 257 269 279.6 286 293 299.8 307.5 315.6 324 330.7 336.6 341.2 345.7 351 358.5 365.8 375.9 384.2 392.2 398.6 406.2 417 428 437.8 448.6 463.2 481.3 503.3 526.9 551.3 572.2 591.2 605.2 620.5 634.3 646.3 660.6 674.4 667.9 641.1 607.5 574.6 555.1 551.1 527 499.6 468.8 441.5 421.6 416.1 415.9 414.2 409.6 406.4 402.9 399.1 392.6 387.2 383.6 381.4 378.7 376.6 377.8 370.9 364 362.9 362.1 367.4 350.2 329 331.7 325.9 314.1 301.8 292.3 279.2 280.2 276 266.7 261.8 257.4 251.3 249.7 246 243.6 244.1 246 247.8 251 251.8 252.7 248.7 239.8 234 226.2 221.5 215.7 209 202.8 198.6 191.2 187.9 182 176.7 167 156.2 142.7 138.4 125.1 115.4 103.6 93.3 86 80.8 75.9 71.5
348.6 341.2 335.5 329.8 323.8 317.2 312.2 306.9 305.3 301.6 298.3 293.3 287.3 283.7 281.3 279.1 277.5 277.1 277.6 279 281.5 287.5 294.2 300.3 307.2 304.1 300.9 305.4 300.9 291.7 273.5 263.9 246 217.1 201 180.5 160.3 139.1 139.5 135.8 126.9 120.3 124.3 135.7 150.5 156.6 165.5 171.4 135.1 106.8 135.5 149 162.6 167.5 164 167 170.2 171.2 178.2 191.1 184.5 157.3 134 133.2 143.3 143.9 143.8 144.5 144.6 145.2 145.8 146.2 147.5 149 149.8 153.8 161.8 175 189.2 199 211.8 225.7 241.5 254.2 267.1 278.9 285.5 292.9 300.4 306.5 314 320.9 327.4 333.2 338.9 345 350.6 357.6 364.5 373.4 381.9 390.4 397.9 404.6 413.6 423.2 433.7 444.2 457.4 470 488.1 513.1 537.4 558.4 577.6 593.9 604.5 614.6 626.7 639 649.3 657.2 651.4 640.1 605.9 578.7 553.2 554.2 534.5 507.8 476.2 445.7 426 422.9 420 415.9 410.6 403 395.7 393.9 388.6 382.1 376.6 373.5 370.6 366.1 362.5 355.5 348.9 347.3 345.1 344.8 329.4 315.3 307.4 310.3 301.2 290.4 279.7 278.4 275.8 266.4 260 256 250.2 248.2 246 243 243.9 245.1 246.8 249.3 252.5 257.5 256.3 251.3 244 233.8 228.7 222.3 216.2 210.8 206.5 199.7 196.4 190.4 182.4 171.5 156.7 150.2 145.8 133.6 120.9 114.5 102.8 91.9 83 77.3 76.4 75.8
340.1 332.7 328.1 322.7 317 312 306.3 302.2 299.8 296.5 294.1 289.2 284.3 280.8 278.9 277.4 276.3 277.6 278.8 280.9 283.4 289 290.4 292.6 301.6 296.6 298 288.7 278.3 265.3 251.2 233.5 219.7 198.9 184.6 164.4 141.7 131.1 129 123.7 115.8 110.5 108.6 113.7 121.6 128.8 139.3 143.5 121.3 111.3 132.1 139.6 140.7 138.8 149.2 154.2 152.6 141.6 152.8 162.5 159.8 138.6 124.8 133.9 137 141.5 147.4 146.4 144.7 145.9 146.1 147 148.1 149.3 150.2 154.2 165.5 176.9 189.2 204.5 216.7 234.8 250 262.6 276.1 283.9 291.6 299.5 307.1 313 319.3 325.5 332.3 338.2 342.7 348.3 355.2 362.6 371.8 381 389 395.9 404 411.8 420.5 431.3 443.7 456.5 470.3 486.4 505.8 529.4 549.1 567 582.6 596.7 604.5 604.2 609.4 618.4 630.8 631.2 620.2 606.6 585.7 566.7 541.9 540.8 519.4 511.2 484.7 459.6 431.1 427.3 421.5 416.6 411.1 404.8 396.6 385.4 381.3 375.1 370.5 367.9 364.7 357.6 352.5 343.3 337.2 335.5 327.4 324.1 318 303.7 296.7 293.6 290.4 281.1 278.6 272.7 265.7 260 256.1 248.4 245.5 243.9 242.1 243 243.7 244.5 248.5 251.3 254.8 256.7 256.9 249.7 243.9 236.6 227.7 218.3 216 209.3 205.8 206.4 198.3 188.4 178.5 168.3 158.4 147.3 139.7 130.1 118.9 108.3 99 88.9 81 78.3 77.8 75.6
330.4 324.2 318.3 313.8 309.5 305.1 300.6 297 294.8 292 289 286.6 282.3 279.6 276.5 275.7 277.9 280.5 281.9 279.5 279.5 282.1 282.5 279.1 280.6 278.7 279.3 271.9 258.3 244.1 227.9 208.2 198.3 184.8 170.8 149.8 131.9 123.7 115.4 115.3 107.9 105.6 103.7 107.3 113.3 120.6 128.4 124.9 109.3 110.7 122.6 127.6 127.4 130.4 132.8 137.2 136.3 137.2 153.2 163.1 141.8 129 125.4 131.6 134.1 141.3 149.4 146.6 144.9 145.8 146.9 148.2 149.5 150.7 152.2 158.5 170.4 182.2 193.4 209.8 228.6 245 257.3 270.7 281.9 289.7 298.3 306.3 314.7 320.5 326.8 332.3 338.1 343.5 348.9 355 362.7 369.2 378.9 388.6 396.4 403.3 410.4 418.3 427.2 439.4 453.2 469.9 486.9 505.7 525.1 544.3 563.1 577.4 591.3 605.3 611.1 595.5 594.1 591.4 596.4 594.7 589.4 579 558.9 542.4 530.1 530.1 514.5 494.4 477.5 451.7 437.8 427.8 421.8 416.3 410.2 403.4 396.4 389.9 383.6 377.1 371.3 358 358 353 341.6 334.6 326.8 325.9 313.9 314.6 304.4 296.9 289.2 284.2 281.2 280 274.5 266.5 261.9 256.7 249.4 245.6 242.6 241.9 241.2 240.2 242.6 245 248.3 252.5 256.7 258.5 255.2 250.8 243.6 233 225.1 226.2 220.4 208.1 206.7 205.9 192.9 187.2 180.7 164.1 154.8 148.2 140.4 123.7 111.7 101.2 94 87 81.1 80.6 78 77
322.5 316.7 311.3 307.4 303.5 299.1 294.7 293 291.5 290.3 288.3 284.4 284.4 277.7 273.5 274.6 280.4 282.4 285 282.4 276.9 278.4 279.9 274 264.8 260.5 253.9 249.1 237.6 220.9 205 196.8 190.4 178 156.5 136.3 127.6 116.7 108.4 104.4 102.9 102.4 103.1 103.7 103 111.7 115.9 109.9 99.2 108.2 116.3 120.5 121.4 118.3 114.2 123.1 117.8 125.4 147.3 140.3 123.6 121.4 125.4 129.8 133.9 141.9 146.3 144.5 144.6 145.6 147.4 149.5 151.7 153.8 155.9 164.7 174.7 187.1 201.9 220.3 238.9 251.8 266.4 277.5 287.7 295.6 304.6 313.7 321.2 327.6 332.1 338.3 343.9 350.2 356.4 363.1 370.6 378.3 386.5 396 403.8 410.8 417.7 424.9 434.4 449.8 468.3 485.4 503.9 520.5 539 557.4 575.2 589.7 602.7 615.2 614.1 589.2 574 573.1 574.6 572.8 564.7 557.3 540.8 522.5 513.4 508.1 496.7 479.5 472.7 455.6 438.8 428.2 421.3 415.4 409.9 402.7 394.6 387.5 381.9 376.6 371.3 364.1 356.2 331.1 339.4 327.2 317.5 314.3 306.4 300.1 291 286.8 282.1 281.3 280 272.5 266.3 261.5 255.2 250.6 244.7 243.3 240.7 238.7 237.8 238.7 241.9 245.8 250.4 255.1 259.5 260.1 258.9 249.5 239.5 236.5 232.7 220.1 215.4 209 205.1 194.8 190.2 178.9 165.7 157.7 153.6 143.8 131.2 118.5 108.1 99.8 93.6 87.5 82.9 80.5 78.1 75.9
315.7 310.1 304.9 301.7 297.4 293.5 291.7 289.4 288.1 287.5 285.6 282 281.7 275.4 269.7 269.4 270.7 277.1 277.1 282 281.1 274.3 272.3 270.9 260.6 247 240.2 231.6 219.6 205.6 196.3 189.5 180.9 166.5 149.2 128.7 120 111.1 104.7 101.9 101.9 101.9 98.5 97.1 99 102 102.9 99.6 101 105.8 109.7 113 115.3 110.5 107.2 110.9 110.4 113.2 123.3 116.3 117.1 117.7 123.7 127.2 133 144.3 147.2 144.1 144.4 145.7 148.3 151.9 155.1 159.9 166 172.2 180.5 193 206.7 223.9 240.6 264.2 278.1 284 293.7 300.9 311.5 322.6 327.9 333.4 338.1 344.2 350.6 357.8 364.4 371.6 379.4 387.7 395.1 403 410.8 418.4 425.2 434.5 446 464.2 482.8 500.8 518.3 535.5 553.7 572.5 589.9 604 611.9 614.8 594.2 573.8 558 556.1 557.6 564.3 556.6 542.7 525.3 506.6 500.3 495.4 486.7 469.2 466.2 459.8 437.7 427.2 418.2 411.8 406.2 398.9 391.9 385 379.5 373.9 368 360.9 354.1 344.3 324.5 309.4 311.2 304 297 289.6 282.5 281 282.3 281.1 273.9 267.1 263.1 257.8 250.9 245.5 242.8 237.8 236.2 235.8 234.3 236.9 241.3 245 250.5 257.8 263.2 259.4 255.3 244.5 240.1 233.3 232.1 221.4 212.4 205.4 199.2 196.3 186.8 173 163.4 153.2 142.6 135.9 120.5 111.7 108.5 104.6 96.8 89.9 84.8 81 77.7 74.8
309.3 304.2 299.7 295.9 292.1 289.7 288.7 285.7 282 280.2 279.9 279.1 275.5 271.1 267.8 266.1 267 268.3 270.8 275.4 289 283.3 267.2 257.2 245.5 234.7 224.9 215.3 203.9 197.7 188.4 176.1 165.5 154.8 142.8 114.9 111.9 107.2 100.5 100.3 100.6 100.4 98 96.7 96.7 98.4 99.3 97.4 99.4 103.1 106 109 107.7 103.9 104.9 108 107.3 108.1 111.9 109.3 110.1 116.8 121.6 126.1 133.9 147.8 148.6 143.3 144.4 146.2 149.5 155.4 162 168.1 173.4 178.9 188.3 200.7 214 229.5 244 274.8 281.8 291.3 300.7 311.4 322.5 330.6 335 340.3 345.5 350.9 356.8 364.7 372.7 379.9 388.1 397.1 405.5 412.8 420.1 427.6 434.8 445 459.1 478.3 496.2 513.7 530.6 548.5 566.9 583 600.8 613.6 607.1 591.9 574.5 561.2 545.8 543.8 542.7 547.6 543.7 530.5 513.3 496.1 484.2 488.8 478.5 458.8 453.5 449.6 437.2 423.8 414.4 410.5 404.9 399.1 391.1 382.8 376.9 371.1 364.8 357.4 347.7 338.3 326.9 310.5 299.4 292.3 288.6 281.3 277.8 279.4 281.7 278.2 268.7 265.7 258.5 250 243.9 240.1 238.3 236.8 230.2 230.9 230.9 235.4 238.6 244.2 250.9 257.8 261 254.4 248.3 244 243.2 239.1 225.8 219.6 209 202.5 197.8 191.9 180 165.3 150.3 142.8 135.5 121.3 116.8 115.2 110.2 104.3 100.7 93.7 83.4 79.4 76.2 72.9
303.6 299.1 294.5 290.9 288.6 286.7 285.2 282.8 278.2 276 275.9 274.3 271.9 271.9 264.9 265.9 265.6 264.8 265 265.8 272.4 273.8 269.6 254.7 239.7 225.2 213.9 208.2 200.5 193.3 180.9 164.6 150.8 141.2 123.2 100.5 98 98 98.3 99 100 100.1 98.1 97.2 97.5 97.6 97.6 97.8 97.3 100.6 104.6 105 103.8 102.7 102.5 103.6 104.8 106.1 107.9 107.3 113.3 116.8 120.4 125.3 135.1 144.4 143.8 143.1 144.9 147.9 153 162 169.5 175 179.6 188.4 198.5 211 224.7 236.7 253.2 269.5 283.8 296.1 307.2 320.7 331 335.7 340.4 346 351.1 357.4 366.5 373.2 380.8 390.5 401.5 409.6 419.1 428.2 432.1 439.1 448.9 459.7 473.4 489.8 507.2 523.5 540.7 558.3 577.6 592.9 604.9 607.5 595.4 574.7 558.7 543.6 531.4 528.6 523.7 526.8 519.9 510.9 500.3 483.2 459.8 461 464.2 446.7 441.5 435.9 431.9 422.6 415.3 410.3 409 399 391.3 382.5 373.9 367.6 361.8 353 343.7 331.9 322.5 309.8 296.9 288.1 276.4 273.5 275.2 279.3 276.1 269.9 264.2 257.5 250.1 243.4 241.4 236.5 235.6 231.8 225.8 226.8 228.6 233 235.3 244.1 251.1 258.2 257.9 252.5 247.2 249.4 244.9 233.8 223 218.3 207.9 197.6 195.2 187.4 169.2 151.9 143.2 132.1 124.5 124.5 119.5 114.9 111.6 110.7 103.9 92.8 83.6 79 73.9 71
298.2 294.8 291.3 288.4 285.8 283.9 282.7 280.2 277.7 275.2 270.8 269.7 268.5 265.1 260.8 260 263.3 258.3 255.4 253.2 252.8 262.7 259.7 246.3 233.7 219.1 214.5 209 199.5 185.5 170.7 154.7 137.5 120.4 103.6 96.2 96.7 97.2 97.9 98.9 99.5 98.4 99.2 98.6 97.4 96.5 96.5 97.1 96.6 96.5 101.4 103.8 103 101.1 99.5 100.3 101.6 103.6 105.6 111.3 115.3 119.2 123.5 131 137.4 140.3 142.2 143.3 146.8 150.9 158.5 167.6 174.6 180.1 185.5 195.3 206.8 220.2 234.1 243 257 272.3 286.6 299.5 312.3 326.5 334.4 337.8 344.7 351.2 359.2 368.8 378.6 383.8 394.4 406.2 414.7 422 429.5 436.4 444.4 452.7 463 474.5 487.7 502.3 517.3 533.4 550.6 568.6 586.3 599.4 605.5 602.2 583.7 561.1 540.8 527.2 512.4 504.8 502.6 499.1 495.4 486.6 476.3 463.1 444 433 432.3 428.1 435.8 419.9 419 422.4 415 408.7 407.9 402 393.5 384.3 373.2 366.7 358.3 350.2 339.1 327.9 316 307.1 295.1 286.7 282.5 275.1 272.2 272.8 269.3 265.2 257.7 251.2 245 240.6 235.6 233 230.3 229.2 222.4 223.1 223.7 226.9 235.2 244.8 249.7 255.1 252.8 253.1 252.4 249.1 240.1 227.7 221 212.2 196.3 190.6 181.2 162.6 153.7 144.8 136 133.4 132.2 130.4 123 118.2 114.9 105 96.6 91.5 84.7 80.1 72.3 71.8
292.5 290.8 289.2 286.6 284.1 282.8 280.6 278.2 276.3 274.1 269.1 267.2 265.6 264 259.6 256.8 257.3 250.5 241.7 237.5 238.2 241.8 243.7 232.4 222.9 221.2 217 217.1 217.1 183.8 163.4 146.1 129.1 107.6 96.5 95.8 96.3 97.7 97.2 97.2 97.6 97.7 97.6 97 95.4 95.5 95.6 96.4 96.1 95.7 99.5 102.4 102.5 99 99.5 100.6 104.8 105.1 107.8 112.8 117.7 123.9 128.6 137.7 143.8 145.1 145 147.3 151.8 155.8 163.9 172.5 180 185.8 194.2 205.7 216.8 228.4 241 252.6 265.8 276.3 290.1 301.1 315 330.2 334.3 341.6 350.1 355.1 361.7 374.4 382.4 395.7 415.9 418.3 429.2 435.7 442 449.6 459.1 467.5 476.9 487.7 500.6 514.1 528.2 543.6 560.3 575.9 591.5 601.7 603.3 594.8 572.5 556.6 530.4 509.1 493.1 487.4 486.5 480.9 475.6 468.2 456.2 438.7 426.3 417.3 417.2 414 414 408.9 411.3 418 412.6 405.7 398.6 396 392 381.7 372 361.2 358.8 347.3 336.4 321.7 313.6 303.6 292.2 286.9 278 272.8 267.9 266.7 265.1 258 251.3 246.9 239.7 235.3 231.9 228 227.5 224.6 217.8 216.7 218.8 226.3 234.8 242.5 245.3 249.7 256.9 260.8 252.8 243.6 231.8 221.2 214.6 203.9 192.7 176.7 166.1 157.3 150.2 145.9 138.9 141.3 141 137.6 131.1 120.9 110.8 102.6 96.2 91.3 85.8 78.2 75.8 75.5
288 288.9 287.6 286.2 283.7 281.7 280.2 276.6 273.5 271.6 267.8 266.3 265.2 259.4 254.5 248.7 250.3 243.3 235.3 226.4 221 218.8 218.3 217.8 221.9 219.3 210.6 195.5 195.4 176.6 155.6 137.4 113.3 95.6 94.7 95.3 95.5 96.4 96.1 96.3 96.9 92.6 93.9 94.8 94.6 95.3 96.1 94.8 94.7 96.4 99.2 102.4 98 98.8 100.1 101.3 103.5 105.6 110.7 116.8 123.4 129.6 133.7 138.8 144.1 145.6 147.3 151.2 156.3 161.3 168.2 177.3 186.2 195.9 206.7 217.7 226.5 238.8 246.8 256.9 271.1 282.9 293.1 305.2 316.9 328.1 338.8 348.8 353.6 358.4 367.2 378.3 391.9 410.5 418.8 431.5 442.8 449 456.5 465.5 474.5 482.2 490.3 500.4 512.7 526.3 540.4 556.2 571.8 582.6 590.9 598.5 594.3 580.6 559.7 545 515.1 488.2 475.6 471 471.9 468 457.9 451 436.9 425.9 412.1 405.7 402.5 400.6 402.7 400.7 402.1 410.9 407.5 401.6 391.2 392.8 389.2 381.3 367.2 354.7 355.7 345.3 333.8 319 309.5 302 290.6 282.5 274.1 270.3 265.4 256 256.7 249.4 246.6 240.3 235.8 233.8 227.4 223.1 220.9 217 210.7 210.9 217.3 225.1 233.3 238.9 244.9 255.2 264.2 258.3 244.7 231.6 224.5 221 211.6 199.6 188.7 176.7 159.9 151 148.7 153 150.2 149.9 147.6 142.1 131.1 118.3 108.5 100.3 94.5 90.9 83.7 80.8 78.5 76.6
283.4 287.6 290.6 289.1 285.5 283.4 280.3 276.2 273.8 269.5 266 265.4 262 257.5 250 241.3 238.9 233.3 227 219.9 211.9 209.9 210.8 210.3 206.8 199.2 193.1 185.6 176.7 162.6 145.1 127.5 103.1 93 93.7 94 94.4 94.6 95.4 95.4 92.9 93.3 94.7 96.9 99.4 100.1 101.7 101.3 101.6 97.9 98.8 99 98.6 100.5 102.2 102.2 103 105.6 113.9 123 130.2 135.2 138.1 140.8 144.6 147.8 152.6 157.1 161.4 167.2 175.7 182 192.1 204.6 215.4 225 235.3 246.2 256 268.6 279.9 288.8 298.7 311.7 323.5 334.2 343.8 354.5 357.2 364.3 378.6 391.7 399.5 413.7 429 446.6 458.6 461.7 472.7 481.6 490.9 497.8 505.1 514.7 526.8 539.9 553.9 568.8 580.7 586 587.2 586.7 582 568.6 546 524.3 496.4 476.1 462.8 454.8 455.3 455 446.5 434.2 422.3 412.1 397.5 394.5 390.6 387.8 396.1 394.4 398.2 403 403.9 393.7 387.6 387.6 384.8 377.3 358.4 351.2 350.5 341 328.5 314.2 309.4 301.7 290.7 279.2 276.1 269.5 262.7 253.5 250.3 235.6 228.3 236.1 232.1 227.1 223.8 219.8 213 208.5 207 213.4 216.7 226.7 227.8 231.4 240.9 257.7 262 245.4 234.9 229.8 223.6 212.6 207.6 194.6 181.3 165.4 156.7 160 167.3 165 161.4 158.1 154.1 143.6 130.1 116.3 105.1 96.7 93.5 89.2 84.9 82.2 80.1 76.7
282.5 288.8 292.5 294.7 287.9 284.1 280.7 276.5 273.5 271 267.6 263.5 259.9 255.2 247 240.7 235.6 225.1 222.4 215.3 204.4 199.6 203.4 201.7 197 195.6 189.3 178.6 163.6 145.1 131.5 112.8 96.2 89.5 89.9 92.3 94.7 93.4 90.8 92.3 95.1 97.7 98.8 99.5 100 100.6 100.4 100 100.1 101.4 102.7 102 102 100.9 103.6 104.5 105.3 107.3 120.3 133.1 138 138.7 141.4 145.5 147.8 153.4 160 163.7 168 174.9 179.5 189.2 200.4 214.1 225.8 236.9 247.1 255.6 264.1 278.9 288 293.4 302.5 317.9 333.1 340.9 350.7 356.7 365.1 378.2 388.1 399.5 408.5 420.6 448.9 456.9 461.3 476.1 487 498.2 506.1 512.6 520.3 529.4 541.6 554.5 567.3 580.5 588.8 593 592.1 585.6 574 559.6 542 517 489 466.7 454 444.8 443.6 440.7 431.6 420.1 411.7 399.2 386.8 385.6 382.3 377.3 380.3 385.5 391.4 393.6 391.4 385.4 373.4 375.3 371.3 364.5 347.4 344.2 340 333.9 322.2 307.1 305.4 298.7 288.7 280.7 274.3 265 258.3 254.8 248.8 225.4 237.5 231.6 227.3 221.6 217.4 212.5 206.2 203.3 211 212.1 216.7 221.6 219.5 224.7 241.6 253.8 251.2 237.2 230.5 224.6 211.4 199.4 193.1 186.8 174.9 168.8 171.6 175.4 179.2 177.9 171.4 167 161.7 145.8 127.6 111.7 100.1 94 93.4 89.2 86.5 84.2 81.6 78.4
283.6 288.6 289.2 288 287.2 283.1 280.3 279.8 277.1 272.8 267.6 263.8 255.7 250.2 242.9 237.5 240.6 231.9 221 213 188.6 185.7 185.9 188.3 185.1 186.9 181 171.1 153.9 134.3 112.8 95.8 86 89.5 94.2 90.1 89.4 90 93.5 94.8 97.1 97.2 97.8 98.9 99.4 99.4 99 99.7 101.6 103.4 104.8 105 104.8 104 105.4 106.9 108.1 111 119.9 128.9 135 139.5 143.5 147.7 152.6 159.6 164.2 168.3 173 180.4 193 205.7 220.3 232.3 240.1 246.4 255.8 262.9 273.8 287.4 297.6 300.8 307.2 320.4 335.3 347.8 354.5 362.6 372 384.4 396.3 409.2 418.8 432 459.1 466.2 472.1 488.9 502.4 513.9 522.6 528.4 536.1 545.7 556.1 569 580.1 590.1 594.9 594.2 594.5 589.6 573.6 549.9 529.2 504.9 486.6 457.6 443.5 436.5 432.7 428.5 421.6 415.5 405.9 391.4 380.4 377.5 376.2 369.1 369.9 384.4 379.6 376 379.3 369.6 361 358.7 358.4 348.4 339.4 337.4 330.8 323.3 318.4 302.6 299.5 290.3 282.8 279.4 271.9 263.5 256 251.2 230.3 239.6 229.5 225 224 223.8 217.6 205.5 201.4 202.8 204.8 206.3 210.6 209.5 212.6 222.5 236.9 247.8 242.3 232.1 226.5 209.4 199.6 198.7 184.9 178 175.6 178.8 186.5 186.9 186.3 184.6 181.1 176.4 160.2 141 122.8 106.2 95.2 93.5 92.6 89.7 87.5 85.2 81.6 77.6
282.3 283.7 284.5 283.8 281.6 281.1 282.5 282.7 284.1 277.5 266.6 262.1 251.2 244.1 237.2 234 239.9 239.1 215.9 193.3 185.1 175.3 174.1 168.7 166 176.2 162.9 150.5 134.3 113.4 92.6 86.2 90 97.8 105.4 103 95.6 94.7 95.2 94.6 96.2 96.6 98.4 99.1 98.9 99.1 99.4 100.6 103.2 105.7 108.2 109 109.4 108 108.7 109.4 110.8 114.9 122.5 130.4 136.9 142.3 146.5 151.3 156.7 161.6 168.6 174.8 181.1 192.7 211.7 220.6 230 237.1 242.5 250.6 259.5 271.2 281.5 291.2 301 308.2 315.9 323.8 334.5 346.8 357.2 368.4 382.9 394.1 406.8 415.4 426.7 447.1 459.9 478 471 501.7 518.7 529.9 537.4 544.2 550.7 559.1 570.5 581.8 591.5 596.9 598.7 596.7 588.7 579.1 565.3 550 518 492.5 476.1 451.9 438.7 431.2 427.3 423.2 417.5 412.4 401.9 385.9 377.5 372.4 368.4 364 362 365.3 362 357.9 360.9 355.4 350.9 347.2 347.7 337.4 331.3 335 324.9 314.2 306.4 294.8 294.1 284 282.6 275.8 268.6 262.7 255.5 237.7 238.6 236.3 231 222.2 216.4 216.9 219.7 206.3 199.2 199.4 197.9 199.8 201.4 202.1 209.2 219.9 231.7 237.3 230.9 226.1 212.2 202.3 195.1 188.7 187.8 187.2 190.5 197.6 195.5 192.1 193.1 190.3 185.2 169.6 153.1 134.7 117.5 101.8 93.8 92 93 90.7 88.5 85.4 81.3 77.1
