ncols 200
nrows 95
xllcorner 330000
yllcorner 481800
cellsize 50
167.2 164.7 160.2 157.3 158.3 158.1 156.8 165.1 165.6 159.8 155.6 151.5 150 157.1 163.9 160.5 147.5 130.6 111 93.4 82.9 71.4 64 57 56.6 56.9 53 52.6 52.5 52.2 53.9 59.8 71.2 85.6 93.5 96.8 95.5 89.4 82.4 78.2 77.2 75.7 71.5 70 68.6 65.6 64 62.9 62.6 65.6 70.4 72.3 66.8 64.3 69.1 66.2 65.4 62.5 52.1 45.5 40.6 46.3 37.7 30 18.7 19.1 22.2 18 17.3 16.8 19 29 44 53 57 60.7 64.3 63.3 58.4 53.4 49 44.5 39.9 33 27.3 21.4 8.4 2.9 5.7 5.7 6.1 6.8 8.8 12.5 12.7 18.8 32.1 39.5 46.7 59.2 73.9 88.7 104.5 114.5 120.8 127.7 121.9 111.5 110 105.3 98.9 94.9 94.2 94.9 96.6 91.3 78.3 79.4 86.1 90.4 94.6 97.3 100.3 101.5 102 102.4 104.2 101.7 92.8 83.1 75.8 77.6 73.6 62.8 49.4 45.2 47.7 52.7 49.4 46.3 44.9 44.2 47.2 43.8 41 40.1 38.1 38.5 43.5 46.1 45.6 46.6 46.7 46.2 44.8 41.6 43.3 45.3 47.1 49.7 53.8 57.4 59.6 62 66 73.8 81.4 92.2 109.8 124.4 140.3 159.1 180.1 201.3 217.2 232.4 227.3 220.8 221.2 221.8 218.3 216.8 211.6 205.7 204 202.8 200.1 197.7 196 195.2 194.7 192.3 191.3 188.5 187.2 188.5 187.2 184.1 180.4 177.3
167.4 166.4 161 156.5 156.1 152.8 158.8 165 162.5 155 152.1 152.2 155.2 167.1 170.2 160.6 143.3 126.6 110.1 92.9 81.3 72.9 64.9 59.5 55.7 55.5 51.9 51.9 51.9 51.9 53.8 58.8 72.1 83.3 93.7 99.8 99.2 94.8 89.2 87.4 83.1 77.5 74.9 70 67.6 66.5 65.8 63.6 66.9 71 72.9 73.8 67.4 65.8 72 70.6 64.9 62.3 49.1 42.8 38.7 46.2 29.7 23.1 16.9 18.8 18.9 15.6 14 15 18.3 27.5 40.9 47.6 51 59.5 62 60.8 56.9 51.5 46.8 42.3 38.9 36.5 30.9 29 14.6 5.3 5.8 5.5 6.1 6.9 10.4 13.7 14.3 15.9 27.8 35.1 42.3 54.7 68.2 80.5 91.9 100.4 110.8 117.4 109.4 101.8 102.6 97.4 91.1 93.9 96.7 98.6 95 85.3 74.8 80.4 86.1 91.5 93.3 96.6 99.7 99.6 100.7 102.4 97.7 87.6 79.9 73.8 66.9 65.8 62.7 55.5 43.7 42.7 43.7 45.8 46.7 43.9 43.6 43 42.8 41.6 39.1 38.1 38.1 42.7 44 45.6 45.4 45.9 45.8 45.7 41.6 43.2 45.4 46.6 49.8 53.7 56.5 61.2 61.6 62.5 65.6 71.8 80.1 92.5 109.1 124.9 144.9 161.5 180.1 206.2 223 229.8 218.9 219.2 219.2 217.4 216.9 213.7 208.8 205.5 203.9 201.8 199.8 197.1 194.5 194.3 192.2 192.2 190.1 190.4 188.5 187.2 186 185.1 181.8 176.5
167.5 168.4 162.5 153.5 153.3 147.6 156.8 155.1 153.1 148.9 150.4 152.9 163.9 169.3 164.5 153.3 138.3 123.9 109 94 83.5 73.7 64.4 59.3 57 54.2 51.6 51.2 50.9 51.5 52 55.3 67.2 79.6 93.6 98 99.2 96 98.7 97.7 91.7 85.4 75.9 71.6 71.1 68 66.3 64.3 66.4 69.4 70.6 71.5 66.7 66.5 72 70.9 67.8 63 48 38.3 37.2 36.4 27.6 21.9 16.5 18.3 15.7 11.8 11.8 14.8 18.5 25.7 36.4 42 48.9 56.5 57.5 57.2 54.8 49.7 46.1 42.1 39.7 36.2 30.8 28 18.8 5.3 4.1 5.3 5.9 8.7 10.5 9.7 13 14.4 22.5 32 40.7 54 66.3 75.8 79.9 83.7 93.8 101 96.1 95.1 92.2 86 85.2 91.9 95.6 93.7 86.6 78.4 71.5 79.9 86.8 91.8 93.9 94.7 96.5 97.5 100.4 95.7 81.7 76.2 71.8 64.6 57.8 53.2 46.1 41.8 37 37.5 37.5 40.1 43.1 42.4 42.1 41.9 41.6 40.3 38.1 38.1 40.5 43.2 44.3 45.2 45.3 45.2 44.3 43.5 41.8 45.5 46.6 47 49.5 53.8 59 63.5 63 65.7 69.7 74.6 84.4 92 106.5 119.8 135.9 155.1 181.5 203.6 226.6 218.7 215.2 212.1 213.9 217.9 215.7 211.3 206.5 206.3 204.1 201.3 198.9 195.8 194.3 192.2 192.2 192.2 191.5 190.4 188.4 187.4 185.4 185.2 179.6 174.8
162.2 163 156.5 148.1 150.1 143.9 148.5 147.1 145 146.8 146.6 155.9 165.3 165.6 158 148.2 134.8 121.8 109 94.6 81.1 72 65.2 61.7 56.8 53.1 51.1 50.7 50.8 49.7 51.3 53.6 59.8 73.8 91 96.2 100 101.9 104.9 102.4 99 92.7 83.1 79.7 77.3 72.3 68.6 65.7 65.8 65.7 66.1 67 63.6 65.9 71.5 69.7 67.2 63.6 46.9 38.5 35.1 33.5 23.7 19.1 15.1 15.3 12.4 10.1 13 15 17.8 24.1 32.8 39 47.5 52.6 53.5 54.1 54.2 50.4 47.6 43.7 37.2 31.4 27.9 27.2 21.6 6.4 -2.7 4.9 5.8 7.4 9.2 8.3 9.8 14.5 18.4 27.9 39.8 55.6 67.1 76.6 78.9 85.6 92.1 90.8 89.2 85.6 82.2 78.2 79.2 85.5 86.8 82.3 77.1 68 77.2 82.2 85.5 88.4 89 93.2 95 96.7 91 81.7 73.6 64.9 55.6 47.5 44.9 44.5 42.6 36.8 38.8 40.5 40.4 38.8 40.8 40.6 40.9 41 38.1 38.1 38.1 43.4 45.4 43.1 44.8 44.9 44.8 44.8 44.4 42.1 43.5 45.2 46.7 46.4 48.1 55.5 60.2 62.8 64.3 69.1 74.3 77.6 82.6 88.5 97.7 111.1 130 152.3 172.2 194.6 220.4 214.5 212.6 211.1 214.8 216.6 211 209 206.3 206.3 203.6 199 196.6 193.4 192.2 192.2 192.2 192.2 191.8 190.1 189.2 186 185.1 182.3 178.5 173.4
151.5 149.9 145.3 141.1 140.9 136.4 144 140.1 140.4 142.5 149.7 161.7 162.8 161 152.5 142.4 130.3 118.5 105.8 91.9 78.8 71.4 70 63.9 56 52.9 50.5 50.3 50.2 50.2 50.8 56.8 62.6 71.2 86 96.3 103.7 105.9 110.6 109.1 104 97.1 89.1 85 82.7 76.9 73 70 65.3 63.7 62.7 63.2 60.3 62.5 69.7 64.5 67.8 58.3 48.7 36.4 26.5 26.5 18.5 20.8 16.1 12.4 11.4 10.3 12.2 14.1 16.4 21.7 28.8 37.6 46.2 49.1 51.1 52.9 53.6 50.3 48.2 43.6 35 29.1 24.4 23.6 20.5 10.8 -2.7 5.2 5.5 5.8 6.7 7.4 9.9 13.8 17.2 26 41.7 57 68.7 77.9 90.7 96.1 95.3 85.8 80.5 76.9 73.7 71.7 73.4 78.6 77.4 72.3 67.5 74.4 82.9 83.4 83.6 83.4 83.3 89.5 93.8 92.8 85.8 73.1 63.8 55.5 45.5 42.2 42.9 42.4 36.8 39 40.6 40.4 41.5 38.1 38.8 38.1 40.6 38.1 38.1 38.1 42.1 46.5 43.9 44 44.7 44.9 44.5 44.4 42.9 41.1 44.4 45 45.9 46.8 47.5 49.6 56.4 60.1 65.1 72 74.3 75.9 79 84.6 92.6 107.8 130.2 151.9 169.4 188.2 212.8 204.5 202.9 204.5 203.9 204.2 205.7 209.1 209 206.8 203.3 198.9 194.7 192.2 192.2 192.2 192.2 192.2 192.4 191.1 188.2 185.1 183.7 180.9 179.1 175.1
134.6 137.3 134.6 132.3 137 132.3 137.2 138.6 138.7 143.6 154.3 158.9 156 153.4 145.5 135.8 125.2 114.2 101.9 88.7 78.2 72.8 68.9 61.2 57.4 53.1 50.4 49.8 49.9 49.4 52.4 59.9 64.2 71 83.5 96.1 103.1 108.4 113.6 114.8 108.3 98.5 90.7 87.4 85.3 80 75.2 71.2 66.8 65.3 63.7 61.5 57.9 57.8 63.5 59.2 59.1 53 44.9 37.2 27.2 21.2 22.1 19.1 14.9 11.1 10.9 10.3 11 13.6 14.4 18.3 25.5 36 44.8 48.5 51.4 53.9 52.7 47.5 45.4 41.1 33.8 27.5 23 20.6 18.6 10.4 -2.7 4.8 5.1 5.4 5.8 6.5 8 11.1 19 28.7 42.9 57.6 71.1 86.2 100.9 100 91.6 81.6 73.7 73.7 70.6 70.4 69.8 71.9 70.7 67.1 67.8 78.5 84.4 81.8 80 78.7 80.3 87.4 92.2 89 79.4 68.1 55.2 44.8 41.4 40.3 39.5 36.8 39.4 40.9 42.7 45.2 44.7 41.9 39.4 39.8 38.1 43.1 42.8 41.2 43.2 44.1 44 44.4 44.9 44.6 44.4 43.5 41.8 42.2 44.1 44.8 47.2 48.7 49.8 50.7 54.6 58.2 65.2 69.5 70.1 72.8 75.5 80.4 91.1 108.2 129.5 149.7 166.5 182.8 197.1 196.7 196.5 198.7 198 199.8 205.5 209.7 209.4 209.4 208.3 200.7 195.6 192.2 192.2 192.2 192.2 192.2 193.2 191.3 188.7 184.7 182 180 181.2 179
122.1 123.3 124.7 125 125.7 129.3 135.1 136.5 139.8 146.1 153.8 151.6 150.7 146.6 140.5 130.4 119 108.7 97.2 84.5 76.5 70.7 66.3 62 59.2 53.7 50.9 49.5 49.1 49.3 55.8 61.7 63.1 67.8 84.8 93.5 100.9 111.8 116.8 117 110.6 101.3 93.2 88.9 86.3 82.7 79.1 74 68.7 66.9 64.8 60.8 52.7 52.3 55 51.2 47.7 43.5 38.4 36.4 31.6 26.7 23.7 22.7 15.3 12.8 10.5 10.1 11.7 14.2 14.1 19.5 26.7 35.2 41.7 46.1 49.6 53.7 51.1 42.9 40.4 36.5 32.6 26.8 21 15.3 12.2 -2.7 -2.7 4.7 4.7 5 5.3 5.5 6.1 10.3 22.2 35.7 50.3 62.1 76.6 86.2 97.9 90.6 81.5 76.5 74.7 76.5 69.9 68.4 68.2 68.8 68.7 64.6 72 80.8 82.2 77.2 74.9 74.2 78.9 82.1 81.9 80.3 70.2 54.9 42.2 41.9 38.4 35.9 35.9 41 41.6 43.3 42.9 42.8 43.9 44.5 45.5 42.6 38.4 43.2 43.5 43 44.3 44.5 43.9 44.2 44.4 44.5 43.8 42.5 41.3 43.1 44 44.9 46.5 48.2 49.1 49.7 52.3 58.1 64.3 66.2 65.8 67.6 74.2 81.9 92.4 108.6 127.2 145.6 161 174.7 186 190.3 193.5 195.1 197.2 201.6 207.5 209.7 209.2 209.8 209.8 209 198.8 192.2 192.2 192.2 192.2 192.6 193.8 191.8 189.2 185.3 183.3 183.8 183.2 174.5
109.5 113.9 114.3 112.2 119.5 127.9 132.2 138.3 143.7 146.6 148 146.1 144.9 141.3 134.9 124.3 112.6 103 92.9 83.6 78.4 70.6 65.8 63.7 60.2 54.6 51 49.1 49.1 51 57.5 60.7 61.8 64.2 76.7 87.1 102 112.6 117.4 114.9 111.7 106.9 98.9 91.4 87.5 86.2 83.3 76.7 70.6 67.4 65 58.8 46.1 44.7 45.8 46 40.4 41.2 41.7 44.3 40.5 33.5 28.2 24.5 21.5 14.3 9.9 10.1 12.4 13.9 15.7 24.3 29.2 34.6 40 43.3 45.6 49.2 46.8 39 33.8 32.8 31.1 26.6 18.5 10.8 7.3 -2.7 4.7 4.8 4.7 4.7 5 5.4 5.6 10 29.8 41.5 52.1 65.4 77.8 77.3 79.5 80.3 86.6 86.1 76.7 72.5 68.1 65.7 67.9 68.9 67.9 59.4 70.5 79.7 78 71.2 69 68.8 71 72.7 71 62.5 47.2 46.7 42.1 38 35.9 38.6 42.9 45 47.7 52.7 51.6 48.8 49.6 49.4 48.4 43.9 42.3 40.7 40.4 41.4 41.6 43.2 43.9 43.9 44 44.1 43.4 41.7 42.2 43.1 43.5 44.3 45.2 46.8 47.7 49.5 52.2 60.2 64.3 65 64.4 67.6 77.5 86.7 96.1 109.8 124.7 140.5 155.4 169.9 180.6 185.5 191.9 195.8 200.2 205.3 209.2 210.4 209.3 208.7 208.9 209.9 201.1 192.4 192.2 192.8 197.1 196.4 196.1 195.3 192.6 188.6 186.5 180.7 176.2 172.8
95.3 98.8 100.6 106.4 118.1 130.7 138.4 141.9 144.9 143.1 142.8 141.3 138.7 135.9 129 118.6 109.7 100.4 90.9 84.4 77.7 70.4 67.2 65.6 63.4 56.5 51.5 49.1 48.8 50.8 55.8 60 62.4 65.5 73.6 86.9 99.1 108.8 114.3 115.3 116.2 110.7 103.2 94.9 89.5 86.9 83.3 75.9 71.9 68.1 63.1 54.4 41.4 39.3 39.9 39.9 35.1 41.6 47 51.5 47.7 37.7 33.2 25.7 23.9 17.3 11.4 10.5 15.7 14.2 16.9 24 28.5 33 38.1 38 39.1 42.4 41.2 36.6 34.3 31 28.7 23.9 14 8.7 5.9 -2.7 4.8 4.8 4.8 4.8 4.8 5.4 5.2 11.8 32.6 40.5 53.2 65.9 72.2 71.4 80.4 89.3 95.7 84 73.6 70.2 66.2 63.2 64.1 67.3 66.7 58.7 70.4 74 69.5 64.8 62.7 61.1 63 62.8 53.2 44.1 49.8 43.1 37.9 35.9 42.2 43.4 47.9 51.4 57 58.9 57.9 57.3 58.4 55.4 51.2 46.1 44.1 42.2 42.4 40.9 40.5 42 43.5 43.7 43.6 43.6 43.3 41.5 42.2 42.9 43.5 44.2 44.8 46 48.1 51.9 56.8 61.4 62.7 64.1 65.6 70.2 84.9 93.7 102.8 113.5 126.5 139.6 152.3 166.3 176 187.1 193.3 198.3 203.8 209.1 211.8 210.7 209.4 207.9 207.7 205 197.2 192.4 194.2 194.1 198.5 197.5 197.2 200 198.5 191.4 185.9 176.7 175.3 177.3
79.8 84.8 93.6 106.4 124.2 138.1 146.3 144.7 141.6 135.4 136.7 134.6 132.4 129.1 123.4 115 107.2 99.2 90.9 81.6 78.3 72.2 69.5 67.5 64.4 57.5 53.2 49.6 47.2 50.5 53.8 59.3 63.7 69.7 80.4 89.7 94.7 103.5 114.4 118.5 116.8 110.7 104.7 95.4 89.4 86.2 81.3 75 71.5 66.5 60.2 51.2 39.4 38.4 36.5 34.2 33.4 35.4 45.8 51.3 50.1 41.8 42.2 33.7 25.8 18.3 12.9 10 12.7 14.3 16.3 22.6 27.9 31.2 33.7 30.2 28.7 31 33.4 31.3 32.1 28.8 22.9 16.5 9.4 6.8 -2.7 -2.7 4.9 4.9 4.9 4.8 4.9 4.9 5.4 15.2 32.4 42.3 55.7 66.1 71.9 82.9 87.8 92.2 91.2 78.2 76.7 71.5 65.4 57.7 58.1 65.1 65.6 57.6 69.6 69.7 65.1 60.9 58.2 55.1 50.4 44.4 50.4 51.1 47.3 39.1 35.4 41.1 48.6 54.2 56.7 60.2 63.6 66.3 67.5 68.3 67.9 63.8 56.3 47.5 45.9 46.2 43.9 41.4 40.9 41.1 42.5 43.5 43.3 43.1 42.9 41.4 41.6 41.9 42.7 43.6 44.7 47.1 53.2 57.8 59.3 60.4 60.8 62.4 68.1 75.5 86.9 98.2 108.8 119.3 130.4 140.3 151.6 164.1 176.7 190.6 197.1 201.4 207.3 212.2 214.2 212.1 210.5 208.2 204.8 202.5 199.5 196.7 196.8 199.1 198.5 199.3 202.2 203.6 199.1 193.6 186.3 175.3 178.3 179.6
65.2 75.9 90 109.7 131.4 143.9 147.6 142.1 133.2 129.5 131.3 131.3 128.6 123 116.8 110.3 105.5 98.9 90.6 81.6 78.8 75.3 73.8 72.7 68.6 60.7 54.8 50.4 48.5 51 53.6 59.4 68.9 75.5 90.5 98.2 96.1 105.7 115 118.1 118.4 112.6 102.5 94.2 88.2 84.9 80.7 73.2 70.9 65.1 57.5 46.9 37.9 34.9 31.4 30.9 30.9 32.4 42.3 49.1 48.7 45.3 42.9 35.4 30.4 21.4 12.5 8.9 13.3 14.1 18 23.4 27.6 29.7 30.2 25 21.3 20.7 22.7 22.3 22.6 19.3 17 10.5 7.6 6.9 -2.7 4.7 4.7 4.8 4.9 4.9 4.9 5.1 5.5 18.2 32.7 47.9 57.7 68.3 78.2 87.3 90.2 92.4 85.5 80.2 78.9 71.9 62.2 56.2 56.2 62.6 61.4 55.4 64.7 65.8 61.4 57.7 54.4 48.5 41.6 45.2 48.5 48.4 43.2 36.6 37 47.5 57.1 62.8 65.7 68.8 72.2 75.1 76.3 77.4 73.9 66.1 57.6 49.8 50.2 51 50.3 42.3 41 40.8 42.2 43.1 42.9 42.7 41.6 41.3 41.5 41.6 42.3 43.2 44.5 50.2 55.3 56.4 56.4 56.9 59.2 64.2 75.4 83.5 91.5 102.3 114.7 124.6 135.4 144 152.5 164.5 177.9 193.6 204.1 209.5 214.4 215.5 217.2 215.2 210.6 206.1 203.4 202.4 202 202.1 203.5 203 202.3 206.2 209 206.1 200.8 194.2 181.4 176.9 180.8 180.2
58.2 67.7 85.6 110.4 132.2 139.9 141.3 135.8 128.9 129 126.3 122.7 122.1 118.6 112.5 110.3 105.7 99.8 91.7 82.8 78.3 78.4 76.7 74.4 70.3 62.2 56.7 52.8 49.1 48.4 52.1 62.1 72.5 80.8 97.8 99.6 97.8 111.2 120 119.6 118.1 110.7 103.6 93.7 86.3 81.5 78.3 70 68.4 63.8 56.6 44.3 35.4 33.4 31 27.6 26.6 32.2 41.6 49.1 47.8 47.4 44.7 38.7 34.2 23.2 12.6 9.6 12.4 13.9 17.9 21.8 26.3 29.8 30.9 23.6 20.5 19.8 17.2 14.1 11.7 9.5 9.5 9.4 7.3 -2.7 -2.7 4.8 4.6 4.5 4.8 5 5 5.2 8.2 19.3 34.1 48 61.6 74 82.5 91.7 97 97.3 90.2 82.1 78.2 70.3 62.6 55.7 53.5 58.6 54.5 55.1 62.9 61.7 56.3 51.3 43 41.2 48.1 47.6 43.3 40.9 36.2 37.2 44.8 59 66.7 71.8 73.8 77.6 81.8 84.7 85.2 82.1 74.5 68.1 61.5 54.4 54.3 54.3 49.3 42.4 41.1 41.2 41.7 42.2 41.7 41.2 41.3 41.3 41.5 41.6 41.6 42.7 47.1 53 55.2 55.9 56.1 56.3 60.1 68.9 79.3 86.5 95.6 107.8 119.6 130.3 140.8 149.5 156.8 167.2 181 198.1 209.1 216.3 223 222.2 219.8 210.2 208.2 205.4 205.7 205 204.7 206.3 207.2 207.8 209.3 212.2 210.9 204.3 201.3 188.4 178.3 178.8 181.1 180.1
53.1 60.3 84 108.8 127.4 132.7 131.8 129.8 125.6 128.6 122 122 120.5 119 115.3 111.9 108.3 99.9 93 82.9 79.6 79.5 77.6 77.2 73.9 66.2 60.2 55.7 52.8 47 55 66.1 77 81 98.7 96.5 105.2 118.7 123.5 121.1 119.3 113.6 106.2 94 84.2 76.3 72.7 67.6 66.5 63.3 54.2 41.3 32.7 31.7 29.9 28.6 26.9 33 39.6 46.4 48.6 49 44.8 39.7 34.7 23.9 14.2 9.5 12.8 14.9 18 16.9 21.5 27.8 24.8 19.7 17.8 16.5 13.7 10.4 8 7.7 8.1 8.4 7.4 -2.7 4.8 4.7 4.7 4.8 5 5.2 5.2 5.3 10.2 20 35.4 46.6 65.9 79.5 86.2 93.8 99.6 99.7 91.7 81 75.7 69 63.8 56 49 53.8 44.4 52.9 55.5 51.5 46.2 41 41.4 41.5 42.5 42.1 41.4 34.3 34.6 44.7 61.1 70.6 77.6 79.1 82.5 88.9 94.3 94.7 90.2 84.3 77.9 71.7 64.4 58.1 56 51.9 45 42.6 43.8 40.7 41.2 42.2 40.9 41 41.1 41.2 41.4 41.5 41.5 42.2 47.6 54.3 55.3 55.6 55.8 57.4 62.2 70.9 78.9 88.5 100.3 112.2 124.1 135.4 146.1 155.2 162.6 172.3 186.8 201 212.5 224.6 229.3 222.9 213.7 208 207.4 209.3 208.5 207.8 207.7 212.1 216.6 217.6 214.9 210.4 205.5 191 195.6 184.8 176.6 178.7 180.9 179.5
45 54.5 82.5 106.3 120.1 125.3 126.2 126.2 124.3 121.5 120.6 121.5 121.2 122 116.9 113.6 105.3 95.8 93.2 88.4 84.2 81.2 80.2 78.1 74.6 67.3 62.2 56.8 52.3 45.8 56.8 63.6 70.6 78 93.7 95.1 108.2 120.3 124.2 124.8 122 112.9 103.3 92.6 82.5 74.2 69.7 66.9 64.9 61.5 50.9 36.8 31.4 31.2 29.7 27.3 29.4 34.4 39.4 44.2 47.5 50.6 44.8 37.5 33.5 25.1 17.2 7.7 11.6 17.1 17.7 13.9 16.6 18.7 13.3 12.5 15 14.2 11.9 9.9 8.4 7.5 7.3 7.5 -2.7 -2.7 4.7 4.8 5 5.1 5.3 5.4 5.4 5.5 6.7 19.4 31.8 47.8 69.1 82.2 89.8 96.6 99.2 101.1 95 83 74.1 66.9 63.1 59.9 50.9 45.9 42 49 46.9 42.2 41.1 39.4 40.2 39.6 36.5 35.9 33.4 39.6 45.8 64.2 73.6 80.2 85.2 88.1 92.3 100.4 103.1 100 93.5 86.8 77.1 69.3 62.4 57.6 53.8 49.1 44.9 43.3 42.4 40.8 40.9 40.9 40.7 40.8 40.9 41 41.2 41.4 41.2 42 47 53.6 54.4 54.7 56.8 59.1 64.3 70.1 78.2 89.4 103.3 116.2 129.3 141.5 152.2 161.3 168.7 181.1 195.6 208.1 215.7 220.5 223.2 221.8 212.9 211.6 211.2 211.8 209.2 209.1 214.8 223.3 222.7 216.9 209 202.5 197 187.8 188.5 178.7 176.1 179.2 180.3 178.8
40.3 51.4 80.5 103.8 113.3 118.1 120.4 122.9 120.5 118.1 116.1 122.4 125.6 123.5 119.7 117.8 112.2 103.5 95.9 92.1 88.8 83.2 83.1 80.8 74.7 67.9 60.4 56.5 55.1 46.4 53.3 58 64.6 72 92 92.6 107.6 121.8 127 123.7 117.7 110 101.4 90.5 80.3 73.3 68.1 65.7 63.3 57.9 46.4 34.1 30.5 29.9 27.9 26.8 29.5 33.8 40.6 43.3 44.7 44.4 40.9 38 36.2 28 18.5 8.9 10.3 16.5 15.7 10.1 10.2 11.1 9.2 10.8 15.7 14.1 11.5 9.7 8.4 7.4 7 6.5 -2.7 4.8 4.7 4.8 5.1 5.2 5.4 5.7 5.5 5.8 6.6 17.2 30.1 48.2 68.3 82.4 89.8 97.5 98.7 99.7 96.5 89.2 74.6 66.9 62.5 57.1 49.5 43.5 42.3 43.1 39.8 40.7 38.2 36.9 35.1 32.8 32.9 37.5 44.3 54.8 67.2 75.9 82.8 90.3 95.7 99.2 104.3 109.1 108.2 102.6 94.9 85.9 76.2 67.2 61.8 57.1 53.9 48.6 44.5 43.8 42.4 41.1 40.7 40.8 40.5 40.6 40.7 40.8 41 41.1 41 41.7 45.9 50.5 52.7 54.3 57 61.5 67.9 70.6 77.5 90.4 105.1 120.1 134 147.5 158.1 170.9 179.4 189.1 199.9 211.8 218.7 218.3 218.9 218.4 215.7 213 214.8 212.4 209.4 215 218.5 219.2 216.9 208.6 199.7 191.4 183.5 182.6 179.7 175.7 176.6 179.1 180 178.9
35.6 48.9 75.9 97 103.7 110.5 116.7 117.9 117.7 116.4 116.4 123.8 126.8 121.4 120.9 120.9 110.8 101.4 98.2 94.2 90.7 86.5 85.6 82.7 75.4 66.3 60.7 57.5 52.8 45.3 48.3 50.9 61.3 68.3 79.4 87.1 107.6 118.2 122.6 119.9 112.1 107.7 99 88 79.2 71.9 66.1 63.4 61 52.3 37.5 32.6 30.4 29.1 27 26.9 28.1 32.2 40.9 44 43.3 47.5 46.1 42.2 35.8 26 18.8 7.6 9.8 10.7 9.7 8.4 7.6 7.9 7.5 10.8 14.6 13.8 11 8.9 7.7 7 6.6 -2.7 -2.7 4.8 4.6 4.9 5.1 5.4 5.5 5.5 5.6 5.9 6.3 16.1 27.1 47.2 67.7 83.6 89.6 93.5 97.2 98.9 97.9 90.2 79.6 72.6 63.1 55.6 48 41.9 40.6 37.2 38.2 37.1 34.4 31.6 32.2 42.2 46.7 53.7 63.6 71.3 78.8 87.8 94 102.7 110.6 111.3 114.8 117.3 117.7 109.5 98.6 85.7 75.2 67.3 61.3 54.5 48.5 45.7 44.6 43.4 42 41.1 41.2 40.2 40.7 40.6 40.7 40.9 40.6 40.8 40.8 41.3 45.5 48.8 51.3 54.2 57.9 64.8 72.4 72.9 78.2 93.2 108.8 124.8 139.9 152.2 167.4 180.3 189.2 195.4 201.5 212.5 219.1 219.2 216.4 217 216.1 216.9 213.4 210.9 211.1 211.9 211.9 212.4 209.3 199.6 189.2 181.4 180.2 176.6 175.4 174.8 176.7 179.1 179.9 178.9
32.2 45.5 67 85.8 94.5 100.6 108.3 115.7 114.5 110.3 116.1 126.6 128.8 127 122 119.7 110.8 103.5 102.1 91.7 87.4 84.7 82.3 79.5 74.8 67 61.4 55.1 50.1 44.6 44.3 46.6 55.7 61 71.3 82 99.3 110.2 119.4 118 113.9 104.8 96.1 87.3 79.5 72.4 66.4 63.5 59.6 49.2 36.4 33.5 30.2 28.2 26.7 26.7 26.9 29.5 39.7 45.7 47.2 47.9 48.7 39.7 31.9 26.9 21.4 9.5 9.6 12.6 9 7.1 6.9 7.1 6.5 9.1 11 11.6 9.8 7.6 6.7 6.6 6.1 -2.7 4.9 4.9 4.8 4.7 4.9 5.2 5.5 5.5 5.6 5.9 9.6 17.3 33.3 53 75.6 87.4 89.1 92.1 97.1 99.1 98.5 89.9 78.9 68.7 60.4 51.1 42.7 40.2 34.8 33.5 32.9 32.1 30.8 39.2 46.4 57.4 64.5 70.3 75.8 82.7 93.8 97.1 106.5 116.9 120.7 120.3 125.3 126 127.7 116.5 101.4 84.8 76.1 72.1 60.7 50.4 49 46.6 46 42.9 41.7 41.1 41.1 41.2 41.2 40.8 40.9 40.7 40.8 41 40.7 41.3 43.6 47.3 50 55.8 62.3 68.1 75.1 77 84.8 98.3 114 131.1 145.2 156.6 171.8 184.6 197.9 203.4 205.3 213.1 218.2 219.2 216.9 213.9 213 215.1 212.4 208.5 207.7 204.9 205.1 202.5 194.8 186.3 179.6 177.4 176.3 175.7 176.1 175.7 177.4 178.5 178.9 178.6
24.8 43 59.9 72.7 81 92.9 106.1 111.8 110.4 108.2 114.9 127 128.8 128.2 122.5 121.7 109.8 105.6 98.5 91.8 90.3 87.3 85.8 80.8 76.4 66.6 60.3 55.2 49.7 46.9 44.5 44.1 48.5 54.7 65.3 76.7 93.4 109.3 114 110.7 109.8 103.2 96.1 88.3 80.7 73.5 67.4 64 58.4 49.4 37.6 33.7 30.2 28.7 27.1 26.2 26.7 28.2 37 45.2 49.2 48 43.7 37.3 32 27.9 23.4 10.4 11.7 15.3 9.2 5.2 5.4 5.3 5.7 6.6 8 8.4 7.1 5.9 5.9 5.8 -2.7 -2.7 4.9 4.8 4.8 4.8 4.8 5.1 5.4 5.4 5.7 5.9 14 24.1 42.7 64.1 82.6 90.2 95.9 101.9 104.9 101.5 95.3 85.9 71.9 62.1 55 43.4 40 33.9 32.9 30.3 29.9 31.9 38.8 50.7 61.5 68.4 75.7 80.7 88.4 98.2 106.3 106 121.3 129.6 129.9 128.9 137.4 137.1 132.3 118.3 99.7 85.2 75.3 71 61 57.5 52.4 52.5 49.4 43.2 41.6 41.1 41.1 41.2 41.3 41.5 40.8 40.7 41.1 41.5 41 41.2 41.7 48 53.2 58.4 64.8 69.9 78.2 82.1 92.9 106.2 120.5 136.2 146.6 158.8 170.8 182.5 200.6 207.1 209.8 211.8 212.3 215.7 214 210.7 212.1 212.2 207.9 208 208.4 199.1 195.8 190.7 186.2 179.8 179.8 177.5 176.6 175.9 176.4 176.9 178 178.6 179.5 178.6
22.2 39 50.7 61.7 70.3 82.2 94.5 102.9 106.5 110.1 118.9 125.1 129.6 129.9 123.9 120.5 113.5 107.7 100.4 93.6 90.6 89.3 87.2 81.7 74.8 65.4 61.6 59 54.2 48.7 44.7 42.7 44.9 50.2 57.4 68.7 89.9 103.2 108.3 109.4 108.7 102.1 98 90 82.1 73.9 67.8 63.9 58.3 50.3 37.5 34.1 30.9 29 28.1 27.1 27.1 29.4 37.8 47.8 52.2 52.5 47.1 41.1 33.5 30.9 23.1 12 9.3 14.3 5.9 5.1 4.7 5.1 5.2 5.4 5.7 5.9 5.8 5.8 5.7 -2.7 -2.7 4.9 4.9 4.9 4.8 4.8 4.8 5 5.2 5.4 5.7 11 14.1 30.1 51.1 72.9 87.4 98 106 109.5 116.5 103 92.7 81.1 68.4 58.6 47 40.6 33.4 32.7 29.9 31.2 31.7 36.5 48.5 61.3 73.3 79 88.9 96 102.2 114 118.1 117.4 134.7 142.4 140.7 137 144.7 137.3 129.3 107.1 92 78 73.7 71 65.9 59.4 57 55.3 50.7 44.1 41.7 41.1 41.1 41.3 41.5 41.9 41.9 41.2 41.3 41.5 41.4 41.1 41.8 47.7 53.7 59.9 66.9 71.8 81.8 88.8 99.2 111.9 128.1 142.8 152.9 159.6 167.9 178.1 191.8 211.1 213.6 209.4 207.9 207.1 206.1 208.8 209.9 206.5 204.7 204.9 202.5 194.6 187.3 186 182.8 181.2 181.1 178.8 177 176.4 178.6 181 179.6 179.3 181 180.7
23.1 33.4 42.6 49.1 58.4 67.3 80.2 96.9 107.3 112.4 119 126.2 126.3 126.9 126.5 120.6 115.4 109.1 100.5 94 88.6 87.8 85.7 79.6 74.2 68.6 66.4 60.8 54.5 47.7 44 41.8 44.6 49 51.1 58.4 79.3 96.4 102.6 106.4 106 102.4 100 93.4 84.8 75.7 68.2 64.6 62.1 54.2 36.7 34.7 31 29.6 28.2 27.3 27.4 29.6 39.3 51.8 57.5 59.5 53.7 46.2 37.1 32.1 21.5 15.6 6.2 9.2 5.6 4.9 4.5 4.7 4.8 4.9 5.1 5.3 5.6 5.4 5.5 -2.7 -2.7 4.8 4.9 4.9 4.9 4.8 4.9 5 5.2 5.4 6.3 12.5 17.5 34.3 57.3 83.3 96.4 108.8 114.5 113.5 117.4 104.8 96.4 84.4 65.3 53.5 47.1 39.4 32.8 27.6 29.8 31.4 31.8 38.2 55.9 72.8 84.8 92.1 102.7 111.3 120.1 123.3 117.4 125.4 139.3 148.5 146.3 144.6 145.6 136.4 116.8 101.8 88.5 86.7 79.5 78.9 72.2 66.6 61.4 57.8 53.6 46.3 42.2 41.7 41.8 41.9 42.3 44.1 44 42.3 41.6 41.5 41.8 41.7 41.7 43.3 50.9 58.6 68 73.4 81 93.2 105.1 117 134.2 151.6 160.6 157.3 163 176.6 202.5 217.4 214.6 202.9 199.2 202.9 205.2 203.3 202.5 202.4 201.1 196.7 195.9 190.8 188.6 185.9 185 186.2 184.9 181.9 178 177.6 182.2 182.7 181.6 180.6 181.9 182.4
22.5 29.7 36.2 43.1 48.1 56.3 71 89.8 105.8 113.2 114.4 120.5 126.1 124.6 125 117.2 114.5 107.3 100 95.4 88.3 86.5 83.5 78.9 74.5 71.7 66.3 58.7 54.3 49.3 45.4 41.3 45.5 48.9 50.8 53.4 70.2 89.1 99.5 104.7 111.4 104.4 100.5 95.7 88.9 79 69.3 65.5 65.4 51.2 36.5 35.2 31.6 29.9 28.3 27.1 26.6 27.7 36.5 53.3 62.9 60.9 56.2 49.8 40.9 33.2 22.4 16.7 6.9 6.3 5.6 4.7 4.6 4.6 4.6 4.7 4.9 5.3 5.4 5.4 -2.7 -2.7 5.2 5.1 4.9 4.9 4.9 4.9 4.9 5 5.2 5.4 6.6 11.6 26.5 38.8 63.2 89.8 105.5 119.6 121 114 110.7 103.2 97.2 82.3 65.6 51.1 42.1 33.2 30.4 28.3 30 31.1 32.5 40.5 59.1 77.9 89.3 102.7 115.7 125.3 125.6 122.6 119.5 128.9 141.8 145.9 142.4 141.9 141.5 128 109.5 99.4 94.6 89.9 83.3 79.2 75.9 72.1 66.6 64.5 58.1 49.4 46.1 43.1 42.7 43 43.8 46 50 43.5 41.7 42 42.5 42.3 42.3 43.1 48.5 56.9 65.4 71.4 82.4 98.2 113.4 125.2 142.2 153.4 156.6 149.2 155.7 178.3 206.5 209.7 199.5 194.4 198.9 201.9 201.8 199 199.8 197.7 193.5 192.1 191.3 191.5 188.7 185.6 189.2 188.3 187.3 184.4 179.1 179.7 183.8 183.8 182.8 182 183.1 184.4
23.1 24 31 37.7 43.1 48.1 59 78.1 96.7 110.1 111.3 118.4 122.8 121.6 122.8 112.5 110.7 101.8 98.1 95.8 88.6 83.9 82.6 80.5 73.7 70 65.1 61.3 59 53.2 44.8 40.3 45.9 49.9 50.6 52.5 66 88.4 100.4 105.9 109.7 106.9 102.6 99.9 95.3 84.5 71 64.8 64.2 49.9 37.7 34.2 31.2 29.7 28.3 27.1 25.9 26.4 34.1 50.8 58.7 59 56.3 51.3 45.6 35.8 25.4 13 6.4 5.6 5.1 4.7 4.9 4.9 4.8 4.6 5 5.5 5.7 -2.7 -2.7 5.2 5.3 5.1 4.8 5 4.9 5 4.9 5.2 5.6 5.3 7.4 18.3 32.1 42.5 69.4 95.9 114.8 123.5 115.2 109.4 107.7 102.7 96.1 83.3 66.3 54.2 41.2 32 29 29.1 30.1 30.8 34.2 43.3 62.9 80.3 92.9 113 122.6 125.6 131.3 118.5 115.6 125 137.2 141.5 137.6 137.7 131.8 117.2 103.8 95.7 90.1 87.6 86.9 80.5 77.6 76.3 74.3 67 62.4 60.2 57.4 49.3 46.2 45.2 45 52.1 55.6 43.2 42.3 42.7 42.8 42.7 41.8 42.6 46.8 54.4 64.7 74.7 84.3 100.3 115.6 127 142.9 146.1 142.2 138 146.4 169 190.6 190.4 189 197.8 199.7 199.7 197.3 197.7 195.5 192.3 190.3 191.5 188.9 187.4 185.7 186.8 187.8 190.7 187.9 186 181.1 183.2 186.4 185.6 184.2 183.3 184.7 186.1
25.7 23.3 26.6 32.7 36.7 36.7 46.8 66.7 88.9 104.5 105 112.6 118 119.7 118.3 109.3 107 101.8 96.9 91.8 88.9 84.1 82 79.5 73.4 69.3 65 60.5 58.7 50.4 42.5 40.2 46.6 50.9 52.1 54.2 62 89 97.6 101.3 106.4 112.2 107.9 104.7 100.3 90.5 74.8 66.2 57.8 46.8 36.1 33.3 31.5 30.3 28.7 27.1 25.7 25.6 31.3 45.3 56.1 60.3 58.8 53 47.4 35.5 22.1 9.9 5.5 4.9 4.7 4.6 4.5 4.6 4.4 5.2 5.3 5.6 -2.7 -2.7 5.2 5.2 5.2 4.8 4.8 4.9 5 5 4.9 5.3 6.4 6.1 14.2 26.8 35 46.7 74.1 100.2 118.3 118.1 110.8 110.7 107.4 103.1 93.9 83.1 69.3 52.7 39.2 31.1 28.8 29.2 31.4 33.1 36.6 47.1 69.4 82.5 101 116.7 126 136.7 131.5 117 110.1 118.3 128.9 131.8 131.7 123.3 119.7 112.6 99.4 91.3 91 90.5 84.9 84.1 81.3 79.5 76.1 68.9 69.6 70.9 64.6 55.3 51.2 48.7 49.1 55.5 56.3 45.8 46.2 45 43.9 43.4 44.5 44.7 46.7 54.6 66.9 76.8 84.1 97.7 112.3 123 131.9 132.2 129.9 127.8 139.9 156.7 168.9 177.4 195.1 199.7 198.5 196.5 194.5 194.1 191.4 191.3 191.4 187.9 184.4 185.4 185.8 186.5 186.8 185.8 185.2 185.5 184.2 186 188.5 188.1 186 185 186.4 188.8
27.4 24.8 20.7 24.9 29.1 29.7 35.6 55.3 72.3 87.9 95.3 104.6 112.5 112.9 113.5 107.6 104.2 102.4 97.7 92.4 88.2 84 79.5 77.2 74.4 68.5 63.7 59.5 55.2 49.7 42.5 40.3 46.7 49.8 52.1 56.3 60.2 81.3 93.9 99.1 107.1 110.1 113.3 107.7 101.9 90.8 77.3 67.4 56.9 43.7 36.3 33.1 31.8 30.9 29.3 27.6 26 25.1 29.8 40.7 51.6 59.5 58.9 54.7 45.1 31.7 19.3 11.2 5.1 4.9 4.7 4.5 4.4 4.6 4.5 -2.7 -2.7 -2.7 -2.7 5 4.8 4.8 5.2 5 4.9 4.9 5.2 5.2 5.1 5.3 8.8 15.4 24.4 34.1 41 53.6 78 99.6 114.7 114 113.7 116.9 116.4 108.1 98.5 86.5 69.7 51.9 39.2 32.4 28.5 29.6 31.9 34.4 36.5 47.3 60.2 77.4 100.7 117.3 135.1 139.4 119.9 109.3 101.7 109.7 119.7 122.9 114 117.9 119.1 110.1 95.8 95.2 92.3 90.9 89.3 87.3 84.9 84.2 81.2 81.4 81.2 79.1 71.4 60.7 57.4 55.6 56.8 55.8 55.4 47.5 46.2 45.7 44.8 45.4 46.3 45.2 44.6 51.5 70.3 78 84.4 95.6 106.2 116 123.1 123.2 117.8 117.2 132.9 147.8 156.4 175.6 193.1 195.7 198.8 194.8 193 193.1 193.7 190.9 188.1 186.9 184.5 187.2 186.6 187.4 185.8 186.2 184.7 183.9 184 187.9 189.6 188.5 186.8 186.7 189.1 190.5
30.9 26.7 22.7 21.7 23.4 26.5 32.8 45.6 56.6 68.8 78.9 86.1 95.9 107.2 108.5 107.7 104.5 100.3 98.6 93.6 88.4 85.6 80 76.9 74 69 62.8 57.9 55.6 52.1 43.2 39.7 45.9 48.4 54.3 57.2 67.3 84.1 95.2 98.7 105.7 117.8 118.1 112 103.9 91.7 78.3 67.1 55.4 39.7 34 31.9 32.4 30.9 29.9 28.3 26.2 24 28 36.8 46.9 55.4 58.1 55.3 42.9 29.4 17.2 8.1 4.9 4.9 4.6 4.5 4.7 4.9 -2.7 -2.7 5.1 4.9 4.8 4.8 4.6 4.5 4.7 7.5 5 5.1 5.3 5.3 5.1 7 16.4 28.1 35.4 43.4 48.6 55.6 77.3 97.1 110.9 114.3 119.2 129.4 121.4 109.3 98.7 85.1 72.2 54.8 39.2 34.6 29.1 27.3 31.4 33.1 36.2 47.4 59.4 78.8 105.7 128 139.3 139.7 112.2 94.8 97.4 105.1 106.2 104.7 112.2 115 114.4 105.7 98.9 96.9 96 91 90.8 88.9 90.6 89.5 90.7 92.9 90.6 86.3 76.6 65.2 59 61.6 58 56.9 56.1 50 46.2 45.3 45.1 47.9 48.1 46.5 44.9 50.5 62.9 72.9 84.5 95.5 104.8 112.1 118.1 115.7 109.5 109.9 125.1 136.9 154 177.5 195.6 195.5 197.2 193.2 192.7 196.5 196.5 194.4 190.1 185.8 181.4 186.1 185.3 185.7 188.1 188.1 185.6 184.1 184.7 188.9 189.8 187.6 186.3 188.5 191.2 192.4
33.2 33.8 28.3 22.7 21.1 22.3 28.5 36.5 41.5 47.1 53.7 62.2 78.5 97.5 99.8 99 99.5 98.8 97.2 91.1 86.8 82.7 78.9 75.6 71.4 67.3 61.2 57.3 54.6 53.5 44.7 38.6 43.1 50.2 57.5 57.7 74.3 89.2 92.3 96.3 110.3 121.3 121.5 115.7 102.7 91 77.5 63.8 52.5 37.2 32.8 31.7 32.4 30.8 30.7 29.2 26.8 24.2 27.6 33.1 43.1 52 55.5 52.1 41.3 30.1 16.2 6.8 4 4.7 4.4 4.8 5 -2.7 -2.7 5.1 4.8 4.7 4.6 4.6 4.6 4.8 5.3 4.9 5.3 5.3 5.8 5.6 5.2 12.9 25.3 35.6 43.9 50.7 54.3 58.2 77.3 94.8 106.7 112.6 119 129.4 121.9 109.7 102.2 90.7 72.8 57.8 39.2 32.5 29.2 26.6 30.3 31.6 37.4 46.4 56.4 81.6 112.1 128.9 132.1 127.9 102.7 89.3 101 98.7 100.7 107.8 111.2 112.3 109.5 106.2 105.9 104.2 103.7 95.7 94.7 95.9 94.4 99.6 100.7 99.6 96.1 91.8 83.3 69.3 64.3 64.1 58.6 57.6 53.8 51.6 49.8 46 46.4 47.4 50.6 48.6 47.6 48.4 60.2 70.1 82.5 94.7 101.9 108.6 112.6 108 103.8 105.1 115.5 129.8 148.8 180.2 194.9 194.7 197.2 193.4 196 197.1 200.1 193.4 185.4 181 182.9 183.1 182.3 186.9 192.1 190.8 187 185.2 186.9 189.8 189.3 188.3 187.7 189.1 192.7 194
36.8 36.1 34.9 30.8 22.3 20.6 26.3 29.9 35.3 39.1 42.5 50.4 64.1 76.7 84.7 83.4 88.1 93 92.8 88.1 87.9 81.5 77.5 75.2 71.2 62 60.1 56.1 53.6 52.5 44.9 37 40.7 55.5 60 59.7 77.9 89.8 91.9 97.7 110.9 118.8 123.4 114.4 101.9 90.6 76.5 61.4 46.2 34.1 31.8 31.6 32.2 32.5 32.9 31.2 27.1 24.7 24.4 27.9 38 46.7 50.4 51 44.9 31.8 16.3 5.8 4.4 5 4.9 5.7 -2.7 -2.7 4.7 4.6 4.6 4.6 4.6 4.6 4.8 5.1 5.4 7.9 5.7 5.7 6.5 5.8 9.1 17.5 29.1 41.3 50.5 55.4 56.2 63.3 80.1 93.3 103.9 111.1 117.6 125.2 121.4 112.5 104.8 94.7 77.3 60.8 46.5 33.7 29.8 28.2 26.6 29.4 37.8 46.5 56.8 90.6 116.3 123.4 133.1 118 95.7 89.5 95.2 99.9 107.6 112.4 115 112 112.7 107.7 111.1 114.2 104.3 108.7 108.7 102.7 103.1 112.3 108.8 106.1 102.7 98.5 90.5 75.5 64.8 62.8 62.4 57.9 53.8 52.9 51.4 47.5 47.2 48.6 51.9 51.9 52 49.3 57.1 70 77.8 90 97.7 103 100.6 93.9 96.4 101.1 110.3 122.5 138.8 166 190 187.1 195.1 197.4 196.6 195.9 190.1 191.3 179.8 180.3 182.6 181 185.5 189.7 194 191.8 186.8 185.3 187.1 190.1 188.4 188 187.7 190 194 195.5
41.8 41.2 36.2 33.4 28.6 21.8 18.9 27.6 38 42.5 43.8 42 49.8 58.3 71 77.5 73.5 84.2 84.9 87.1 88.5 81.8 77.3 74.6 72.7 62.3 58.5 54.8 51.4 48.7 43.1 36.8 39 60.8 59.5 59.9 80 91.9 92 99.3 108 115.2 121.3 109.5 100.1 88.8 70.8 54.4 37.9 32.4 32 31.6 32.6 33.5 34.1 33.2 27.2 22.9 21.8 22 29.1 38.2 45.9 48.7 43.9 31.8 14.5 5.9 5.6 5.1 4.7 5.5 -2.7 5.1 4.5 4.7 4.5 4.6 4.7 4.7 4.9 5.3 8.4 7.9 6.4 6.3 8.4 6.9 15.3 23.1 34.8 46.5 54.2 56.2 57.9 69.8 86.2 97 105.5 114 121.1 127.4 123.9 114.1 107.4 98.8 81.1 64.4 49.6 35.9 31 28.6 27.5 28.5 38.2 46.3 63.7 99 112.1 111.7 121.6 110.4 89.7 90 100.8 109 118.4 118.5 115.1 115.2 115.9 118 122.8 118.6 117.7 116 104.7 106.1 116.2 119.8 115.8 110.8 107.2 105.1 94.5 75.9 66 65.1 63 60.2 58.9 56.8 56 53.7 51.1 52.3 51.4 53.1 53.9 54.4 57.1 62.2 67.3 74.6 81.4 84.8 83.4 84.4 90.6 97.3 106.4 121.8 139 162.2 181.3 192.5 202 197.7 192.8 189.3 185.5 180.8 178.4 179.1 182.1 185.4 185.8 189.5 189.7 190.7 187.8 186.1 190.7 189 188.9 189.4 188.8 189.5 195 196.4
47.2 45.4 41 35.5 33.4 28.4 22.7 18.6 30.4 39.1 42.3 35.9 37 43.6 54.6 58 61 73.3 80.3 85.8 87.2 82.1 77.5 75.9 71.7 65.9 58.4 55.4 49.9 46.3 38.5 35.6 41.8 53.7 54.4 63.8 80 87.1 89.9 96.1 104.1 107.3 110.8 105 96.6 85 65.4 49.1 35.5 36.4 32.6 30.9 33.2 34.3 35.3 32.7 27.5 17.9 19 19.1 24.7 30.7 40.4 43.6 40.1 28.6 13.4 5.9 5.9 5.3 5.1 -2.7 -2.7 5.4 5.5 5.5 4.8 5.1 4.9 5.3 5.3 6.1 9.6 13.3 9.9 7.1 7.1 8.6 16.4 23.3 39.8 49.9 54.2 54.9 60.8 75.4 89.8 102.3 110.6 119.9 127.6 131 123.9 114.6 108.8 101.4 85.3 69.5 52.7 38.8 30.3 26.3 26.7 29.1 40.8 51.1 66.9 90.8 101.6 112.8 114 109 89 91.2 109.1 116.6 122.3 118.5 114.8 114.8 119.5 125.2 129.6 127.1 121.4 108 112.4 123.5 127.3 126.2 122.1 117.6 114.5 107.8 94.8 80.7 71.7 66.3 65.3 64.1 60.6 59.1 58 56.9 56.5 51.6 52.2 54.5 55.1 54.8 58.3 60.7 64.2 67.7 69.8 69.3 73.4 78.7 88 96.3 102.6 120.2 140.8 161.1 175.5 194.8 196.6 193.5 189.2 190.1 190.4 178.6 177.5 179.8 184.6 184.2 185.1 189 187.9 187.8 189.9 189.5 189.2 190.6 190.9 192 189.3 189.8 195.4 198.8
52.6 49.4 45.4 39.8 38.7 35.1 28.9 21.9 26.7 35.1 39.4 31.8 27.7 32 37.5 47.5 60.6 72.5 81.8 86.7 85.1 81.1 77.9 75.3 71.6 65.5 58.9 56.8 49.3 47.6 41.4 36.4 41.5 46.1 49.4 65.9 78.9 81 86.5 93.3 98.2 99.2 101.9 99.1 87.7 74.5 60 43.8 38.5 39.8 33 28.3 31.7 34.5 34.1 30.8 26.4 20.9 15.7 19.3 23.3 26.5 32.1 35.1 31.1 22.9 12.2 6.4 4.9 6.3 6.4 -2.7 5.4 5 5.7 6.9 5.4 5.1 4.9 5.2 6 6.2 8.5 8.2 7 6.9 8.8 12.7 21.2 29 41.3 49.7 52 58 66.5 78.6 93.2 105.9 119 130.3 135.4 133.2 124.2 116.9 110.5 103.6 90.2 74.1 57.3 40.7 30.1 25.2 27.3 31 42 52.4 66.5 80.2 90.3 106.7 109.8 99.7 87.7 101 116.2 120.8 121.7 121.3 120.9 121.3 127.5 132.7 138.7 133.2 120.9 123.9 126.9 133.4 133.1 131 126.9 119 115.6 109.2 92.9 84.3 76.9 72.1 68 66.8 63.3 60.7 58.9 58.8 62.2 52.5 54.7 56 56 56 57.9 61 62.5 64.1 65.3 66.8 70.6 76 84 94.6 98.9 115.3 138.6 157.4 166.2 182.3 183.3 180.7 187.4 183 183.5 176.8 182.3 185 183.3 185.3 185.7 186.3 186.3 189.8 190 189.5 191.6 191.6 191.5 190.6 189.6 192.3 196.3 199.3
58.3 52.8 49.3 42.7 41.3 41.5 33.9 25.3 19.4 30.1 30.7 27.4 21.5 25.8 35.2 46.8 58.9 72.8 82 86.5 83.1 78.8 77.7 74.6 71.2 64.4 57 55.3 51 49.9 43.5 34.7 39.5 42.1 45.4 58.7 68.9 67.3 83.7 89.7 91.1 94.3 99.1 94.6 81.4 67.3 54 42.7 42.3 41 34.3 26.3 28 32.3 32 29.5 25.4 20.9 15.4 16.7 21.2 24.1 25.5 25.1 20.3 11.7 -2.7 -2.7 6.1 6.5 -2.7 5.5 5.3 5 5.6 5.7 5 4.8 5.2 5.5 5.6 6 6.5 6.7 6.8 7.5 11.4 13.1 22.4 33.2 42.1 46.1 53.6 64.5 73.4 84.3 98.4 115.6 130.6 136.6 138.8 135.4 128.4 122.5 116 106.5 92.8 77.3 61.6 45.1 31.9 25.2 28.3 34.4 41.7 56.5 68.5 74.4 83.7 95.9 106.1 95.4 88 108.9 126.4 128.9 127.4 126.7 127.1 132.7 134.3 140.8 146.7 135.8 132.9 134.4 134.2 139.8 135.5 134.6 126.9 120.2 113.9 103.7 93.2 87.1 79.8 75.2 70.1 68.6 66 62.7 59.9 59 62.5 54.1 56.1 59.2 58.8 58.6 56.6 59.3 57.4 58 66.5 67.6 69.1 77 82.9 89.4 94.7 106.9 128.3 147.3 160.1 169.4 169.9 169 175.3 174.9 171.2 179.1 185.5 185 182.9 189.6 185.9 186.8 192.1 191.7 191.6 194.4 192.7 192.1 191.7 190.4 191.2 192.6 196.7 198.7
60.8 56.7 51.2 47 43 40.5 35.5 29.6 23.4 16.6 16 15.4 13.2 24.6 32.6 43 56.7 70.3 81.7 82.9 80.3 77.1 78.2 73.9 72.6 65.4 57.9 55.2 52.2 49.6 44.4 35.8 37.8 37.3 41.8 47 55.5 63.6 78.5 81.4 86.9 91.5 93.2 85.6 70.2 57.9 49.7 41.8 44.3 42.2 36.2 29.3 23.9 29 30.2 27.3 22.8 19.4 15.6 13.8 19 22.3 25.9 19.2 14.7 6.3 -2.7 6.2 3.6 5.1 5 4.8 5.2 4.8 5.8 4.5 4.5 4.9 5 5.6 6.1 6 6.6 7.3 7.7 9.4 11.6 17.2 25 33 39.6 48.2 60.1 73.6 83.9 92.8 109.2 126.7 141.5 150 145.5 139.3 131.6 124.9 119.8 110.6 94.9 79.2 64.2 51.2 36.9 23.7 28.3 33.6 44.7 62.4 62 69.4 77.3 84.4 92.2 89.1 92.5 119.2 135.6 135.2 133.8 135.6 136.9 137 144.9 152.3 150.9 143.2 143 145.9 143.4 141.9 141 135 127.8 120.8 114.4 105.6 97 90.6 83.2 78.5 71.9 71.5 66.5 62.6 62 60.7 59.8 54.7 58 61.6 61.2 62 60.6 56.9 56.8 58.8 63.8 67.5 70.5 75.1 81.6 87 89.4 100.9 118.2 138.9 151.9 152.5 156.7 156.9 161.4 159 174.8 187.4 183.3 183.4 183.2 183.8 187.9 192.8 194.3 193.1 197.5 198.2 194.4 192.7 191.7 191.7 192.5 193.3 196.6 200.6
65.5 60.1 53.6 48.8 44.1 42.9 37.8 35.3 32.7 24.9 20.6 18.3 15.1 18.8 27.7 35.5 51.6 65.5 78.2 80.7 78.4 75.6 74.6 72.9 69.8 63.9 64 59.9 54.4 49.3 45.4 40.8 35.6 34.7 36.2 41.1 47.6 60.6 71.1 67.8 72.6 79.9 79.6 68.6 60.1 53.6 45.9 41.6 45.8 44.6 37.6 29.4 23.9 27 28.5 25 21.7 19.2 15.4 10.5 14.1 17.5 22.4 18.3 7 -2.7 -2.7 5.7 5.7 5.5 4.9 4.9 4.8 5 5.4 4.4 4.6 4.4 4.8 5.3 6 6.4 10 11.4 10.5 11.8 14.8 21.5 32 37.8 45.8 56.4 69.3 86.2 95.1 103.1 119.7 140.3 150.1 155.9 150.4 143.8 136.3 130 123.1 112.6 98 81.3 66.8 54.8 37.9 26.8 27.1 33.3 43.5 51.4 56.5 62 68.2 74.8 82.4 84.6 102.1 129.6 143.7 146.9 141.5 141 140.1 144.6 151.3 149.6 149 154.8 157.7 155.8 150 146.8 142.3 135.1 128.3 122.2 115.8 107.3 98.7 95 88.1 80.8 75.3 70.8 69.9 65.5 65.3 60.2 58.4 56.1 61.2 63 62 64.2 61.4 59.1 58.8 61.9 66.3 69.4 72.5 75.5 75.9 81.8 83.8 92.4 102.2 116.8 127.4 136.2 144.4 136.2 137.5 167.9 189.5 193.7 190.2 188.1 186.8 187.8 192.1 192.9 193.9 197.3 200.1 199.5 195.6 194.7 194 193.6 194.2 194.9 197.5 201.2
67.7 61.9 54.6 50.3 46.9 46.6 40.1 38.2 34 27.6 22.1 20.6 16 15.5 23 32.8 48.5 64 74.3 76.6 73.5 74.3 71.6 69.9 68.4 66 64.3 60.4 55.6 51.1 50.9 44.5 35.6 30.1 31.3 35.1 38.6 49 53.3 51.8 56.7 65.2 64.9 58.1 51.5 44.8 40.2 40.5 47.9 48.5 41.7 36.1 30.3 24.5 25.5 23.9 21.6 19.5 14.4 9.7 9.5 12.2 17.9 11.6 -2.7 -2.7 -2.7 5 5.1 5.4 4.8 4.8 4.8 4.5 4.2 4.3 4.3 4.4 4.5 5.1 5.8 6.9 10.1 12.8 14.4 16.6 21.6 28.8 38.7 46.2 55.4 64.1 80.2 96.5 105.7 116 132.3 148.7 154.3 154 150.8 145.6 138.9 130.4 125.4 115.9 100.7 85.1 70.1 56.2 38.9 24.8 25.8 34.6 39.9 48.7 54 57.8 66.1 67.1 73 81.7 109.4 137.3 148.1 148 139.8 145.5 146.5 149.4 149.5 153.8 166.1 170.1 168.5 162.9 155.1 150.8 144.3 135.9 131.5 125 117.2 106.7 102.2 96.8 91.5 85.9 78.4 74.8 71.6 67.1 65.4 62.4 58 56.2 60.8 61.8 62.5 65 62.9 60.4 60.1 64.2 66.8 69.5 74.1 76.5 76.9 76.7 79.8 87.1 96 105 116 125.7 124.7 123.6 153.9 182 199.1 204.3 201.7 191.4 187.7 188.7 188.7 192.2 193.5 197.3 198 197.9 197.1 198.3 195.9 195.8 196.5 198.3 200.7 204
68.7 64.1 56.7 49.9 49.7 47.9 41.6 41.1 34.9 27.2 21.6 21.2 16 11.9 18.4 27.8 43.4 59.5 69.8 69.3 69 69.4 66.5 67.9 69.1 67.4 64.7 62.4 56.6 55.2 54 47 39.9 31.2 26.9 30.2 32.7 37.7 38.8 41.1 48.7 55.4 53.7 48.1 41.1 34.4 34.9 43.8 51.8 54.4 47.8 43.2 39.3 30.4 23.1 20.7 20.4 18.2 12.7 8.8 7.8 8.7 13.5 -2.7 -2.7 5.3 5.5 5.4 4.9 5 4.6 4.8 4.8 4.5 4.6 4.5 4.2 4.3 4.5 5.2 6.3 8 10.8 15 17.7 23 29.8 38.7 48 56.6 65.2 71.9 89.9 104.4 113.3 123.3 138.2 148.5 151.9 152.5 149.3 144.9 141 137.8 134.9 122.4 105.3 85.3 70.5 54.1 37.3 21.7 25.4 34.7 37.8 43.4 47 53.5 52 58 69 85.7 116.4 138.1 138.6 138.6 151.5 150.5 145.1 147.9 154.2 170.7 177.3 176 171.9 168.4 162.6 155.2 146.2 139.6 134.6 127.2 118.4 108.9 103.7 100.5 94.6 88.9 80.7 76.5 74.3 69.4 66 62.6 58.8 55.9 59.7 59.8 61 65.9 64.8 63.8 61.9 64.7 67 68.5 72.5 75.5 75.9 76.3 79.1 83.5 91.5 100 108.1 112.7 107.5 124.3 163.2 200 207.9 205 194.6 187.8 188.6 188.8 188.9 191.7 192.7 196.7 197 197.8 198.3 198.4 198.1 198 200.1 201.4 203.2 206.9
68.6 64 58.6 53.4 53.9 49.9 44.2 44.2 36.5 27.9 27 20 16.5 11.8 13.6 21.8 35.2 50 59.6 64.9 65.5 65.7 64.1 64.8 66.6 67.1 68.2 62.5 61.2 58.7 53.2 48.6 43.7 37 27.8 21.9 25.2 28.7 23.3 30 46.7 56 43.8 33.4 30.6 33 34.5 45.3 55.5 58.5 55.7 50.4 43.5 37 27.3 19.5 14.1 11.3 6.9 7.5 6.2 6.8 -2.7 -2.7 5.4 5.3 5.3 5.5 5.4 4.9 4.5 4.6 4.4 4.4 4.6 4.7 5 4.4 5 8.2 9.8 11.4 16.2 23.8 26.1 30.2 38.5 46.3 54.9 65.1 72.6 81.8 96.8 109.4 115.2 122 135.9 146.1 148.9 148.4 147.2 149 147.2 145.5 144.4 130.6 110.1 87.1 70.4 53.7 36 21.8 24.6 33.4 35.1 37.2 44.8 45 50.7 62.9 75.1 91.4 114.8 126.1 131.6 142.1 152.7 143.1 145.9 155.3 171.3 175.3 181.1 171.4 174.3 171.1 162.4 156.2 149.3 143.6 138.3 131.1 119.5 111.1 105.8 101.7 96.3 92 84.6 78.9 78.7 75.2 67.5 64 58.5 57.3 57.8 59 59.7 65.1 66.7 65 63.7 65.3 69.5 70.8 73.7 76.5 79.1 76.9 79 81 88 93.3 99.3 100.7 101.6 121.8 152.4 191.5 195.2 192.2 188.9 191.1 188.7 188.8 189.9 190.9 193.5 195.8 197.4 198.4 199.3 200.4 200.4 201.5 204 203.6 204.4 206.7
67.8 63.2 58.4 59.1 55.5 51 46.3 45.6 37.4 29.1 28 21.3 17.6 14.7 13 17.6 28.5 39.2 50.5 57.4 61.3 59.9 59.7 64.1 66.3 67.7 69.6 68.6 66.9 61.4 55.9 51.2 46.4 42.6 33.8 26.9 19.4 17.6 18.5 27.9 42.3 46.8 31.8 21.4 24.7 30.1 34.4 46.7 58.7 63.1 59.9 54.1 47.4 40.2 32.7 24.5 12.8 5.8 5.7 5.6 5.7 -2.7 -2.7 5.6 5.1 5.5 5.8 6 5.5 4.9 4.4 4.3 4.2 4.5 4.5 4.5 4.4 4.6 5.2 7.6 12.2 21.6 28.8 30.4 33.2 36.4 47 56.9 64 73 83.7 90.7 98.6 108 110.9 116.8 129.2 138.5 141.3 142.2 144.9 147.5 149.4 151.2 148.2 137.9 110.9 85.8 69.8 53.6 32.8 22.6 22.5 32.5 31.3 34.7 37.9 46.7 55.8 66.7 76.9 90.7 109.9 123.1 132.9 139.3 141.4 142.9 149.4 168.5 173.7 177.3 175 168.4 172.2 167.5 164 158 150.8 145.5 141.2 132.9 119.5 113.9 109.6 105.5 98 93.3 87 82.4 79.6 72.5 65.8 63.1 59.1 58.2 59 59 62.3 68.4 65.9 65.2 64.3 66.7 68.9 72.1 76 78.3 78.6 77.6 78.8 79.5 82 86.5 91.7 96.1 96.8 111.6 133.9 170.1 178.1 188.1 196.9 191 190.1 189.5 189.5 190.2 193.9 197.7 200.5 201 201.8 202 202.2 204.6 205.8 204.3 203.7 203.8
69.6 64 60.7 59.9 56.3 52 46.8 46.1 37.1 29 27.2 23.3 19.2 17.5 12.6 17.2 23.1 30.9 40.5 47.6 53.1 54.4 56.5 60.2 63.6 68 69.6 69.9 69 63.3 57.3 52.8 48.5 44.3 41.4 36.9 29.6 19.8 15.2 18.2 30.1 29.2 22.1 13.4 15.9 24.5 31.9 45.8 57.4 63.3 60 53.6 48.2 43.6 36.9 27.6 14.2 5.7 6 -2.7 -2.7 -2.7 5.7 6 6.4 6.5 6 7.7 5.9 5.2 4.8 4.4 4.3 4.5 4.3 4.4 4.6 4.7 5.1 8 19.2 28.9 31.9 34.6 35.3 43.6 56.9 62.4 71.9 82.7 92.4 92.9 93 99.4 102 111.9 125 130.1 134.1 138.1 144.3 151.5 153.3 150.1 145.9 136.8 107.1 84.2 65.6 42.6 26.6 19.5 17.6 31 29.3 34.9 41.2 51.3 58.8 67.6 81.3 93.7 113.4 123.7 129 128.8 133.5 144.4 160.2 174.1 173.2 170.5 173.3 165.9 168 162.8 162.8 161 154.7 147.1 139.7 130.2 121.3 116 113 107.4 97.5 94.1 87.3 81.5 76.8 69.9 63.7 61 61.9 61.5 61.4 62.6 67.6 67.3 65.8 65.2 65.6 70 68.5 69.4 74.5 77.5 77.1 76.2 78.5 79 79.9 82 85.6 89.5 92 102.8 123.3 149.5 170.5 187.9 191.3 191.8 200.4 195 192.1 192.2 194.1 201.1 203.9 204.6 205.4 205 203.7 205.4 205.5 205.5 204.7 203.7
74.4 68.1 64.1 61.3 57.3 53.7 48.3 46.3 36 30.2 26.6 25.6 18.9 16.2 10.6 15.2 19.4 25 33.8 38.8 43.5 50.2 55.2 63.3 67.2 68.5 68.1 70.3 67.8 61.9 55 51 46.9 47.1 48.1 42.5 33.2 22 15.6 14.2 22.1 21.6 14.3 9.8 10.9 18.2 28.6 42.7 50.3 53.3 53.1 50.3 46.6 42.7 38.1 29.2 11.2 5.3 5.9 -2.7 5.8 6.1 6 5.9 7.6 6.8 6.9 9 6.2 5.3 5 4.7 4.5 4.4 4.4 4.8 4.8 4.9 5.5 11 21.2 30.4 31.1 34.2 40.5 50.1 62 71.4 79.3 89.2 92.7 87 81.3 87.7 91.4 107.4 118.3 121.7 127.2 134.3 143.9 146.7 146.6 140.5 137.2 120.4 93.6 78.8 55.5 33.5 23.3 19.4 16.2 29.3 30.7 39 43.8 55.1 64.3 75.7 87.3 98.7 115.3 121.3 125.3 123.8 139.1 156.9 172.3 170.8 168.4 174.2 171.7 162.5 158.8 160.1 159 162 153.1 144.3 139.1 131.2 124.7 119.5 114.8 106.4 101.6 97.5 89.5 79.2 73.6 69.5 64.7 63.3 64.1 66.1 65.3 66.8 70 72.8 70.9 66.2 66.6 70.8 68.1 69.6 72.4 74.2 74.9 76.9 76.8 77.9 78.5 81.9 87.7 87.1 88.4 95.4 114.7 140.5 166.1 176.1 190.7 199.9 205.6 203 199.6 198.8 200.3 202.9 206.5 208.4 209.1 208.6 204.2 204.9 206.9 207.2 207.6 206
80.2 74.5 67.8 64.1 59.1 55.2 51.4 46.1 35.5 30.8 26.6 28.6 27.4 17.4 12.8 9.2 13.7 18.9 27.9 31.3 35.6 44 54.7 61.9 65.2 64.4 66.1 67.3 67.4 59.6 53.7 52 49.2 53 54.6 46.2 36.3 30 20.1 13.5 12.8 16 12 7.1 6.5 9.7 22 34.1 38.9 42.1 44.2 45 43.9 40.6 37.2 29.4 6.7 5.4 5.9 -2.7 -2.7 5.6 6.5 6.5 7.6 7.5 7.9 8.6 7.9 5.9 5 4.7 4.6 4.6 4.6 5.3 5.3 5.3 5.9 11.7 20.7 25.9 27 34.7 45.2 57 68 76.3 85.8 91.8 89 79.6 74.3 74.7 81 99 110.5 113.3 119.6 127.1 132.2 131.2 128.1 125.7 114.7 99.3 84.4 69.3 45.4 30.7 22.2 19.4 16.2 28.1 36.9 47.4 53.6 62.8 71 81.1 91.6 100.6 110.7 118.5 120.6 129.2 148 162.5 164.8 164.4 165.9 171 166.5 157 150.3 159.9 155.4 154.8 152.4 147.6 140.6 132.9 126.8 122.8 116 110.3 106 100.4 90 77.7 73.5 71.5 69.8 68.9 67.9 69 70.8 70.6 73.3 75.1 74 68.6 66.8 67.2 67.8 69.1 70.9 72.7 73.4 73.4 76 77 77.8 78.4 82.4 84.7 86.2 90.4 105 124.5 146.4 172.1 196.7 204.1 214.4 212.4 203.4 203.8 204.8 211.2 213.5 213.2 215.6 213.4 204.1 204.7 207.2 208.8 209.1 206.1
82.8 82.3 72.4 66.5 60.7 56.3 51.3 44.5 35.5 29.5 25.9 23.9 29.1 20.3 12.3 11.6 9.6 16.1 22.8 26.1 35.2 43.4 53 58.6 59.8 60.3 64.3 65.7 64.6 59.9 58.9 54.2 52 57.2 57.2 49.3 42.8 33.6 23 15.6 10.7 12.6 7.4 7.3 6.4 6.7 11.8 20.9 25.1 30.1 35.9 40.4 40.3 39.1 36 28.5 7.3 5.1 5.7 6.1 -2.7 5.6 6.8 7.6 8.6 8.5 8.4 8.5 8.1 7.5 5.1 4.7 4.7 5.1 5.1 5.6 5.9 6.7 6.2 11.3 18.4 22.1 27.7 40.5 52.6 63.2 69.4 75.1 86.3 89.9 82 72.6 65.2 65.2 75.7 93.5 104.5 110.1 114.1 113.3 111.6 109.9 106.5 100.2 89.8 74.7 67 53.3 31.7 27.7 21.6 18.8 18.6 27.6 39 48.8 59 68 77.1 86.6 96.5 105.6 111.9 116.4 120.2 133.3 146.8 157.4 161.9 162 160.5 165.2 157.8 149.5 144.7 153.1 151.6 150.6 151 145.5 140 135.3 128.2 123.4 118 112 104.9 97.6 87.5 77.1 72.1 73.9 73.2 71.8 70.1 72.5 75.7 75.8 76.8 78.9 79.9 74.7 70 68.7 68.2 70.4 73.5 72.9 72.4 72.7 76.3 78.5 80.3 78.1 80.3 82 83.5 86.9 96.4 110.7 128 149.3 176.2 187.8 203.2 206.9 206.7 209.6 216.6 219.9 219.1 219.5 223.4 215 206.4 204.4 206 207.3 207.5 204.3
86.8 83.7 80.6 70.6 62.5 56.4 52.3 46 36.4 27.9 22.9 23.8 29.3 16.6 11.9 11.1 9.9 13.3 17.1 24.3 34.8 39.4 47.2 53.7 55.2 57 61.1 61.8 64.1 59.4 60.6 55.8 56.3 62.2 60.6 50.7 41.3 35.7 26.4 18.2 12.9 8.2 7.2 6.4 6 5.7 6.8 10.4 13.8 18.7 27 33.3 36.8 36.4 34.5 25.3 8.3 4.8 5.4 -2.7 -2.7 6 6.3 7 8.4 8.5 8.2 7.1 6.5 6.1 5.5 5 5.1 5.8 5.3 5.6 7.8 7.6 7.1 7.8 15.8 23.9 30.8 44.8 56.1 62.6 63.3 70.8 79.4 81 70 60.8 56.5 57.7 74 91.9 104.9 108.2 104.2 98 93.7 89.2 84.8 78.7 69.9 56.8 45.3 31 24.7 22.7 19.9 15.3 20.3 32.5 46.4 55.6 60.8 71.9 81.1 91.1 100.6 107.7 111.7 116 126.3 137.8 149 152.1 157.8 157 153.5 152.6 146.3 142.7 139.9 147 145.8 141.5 144 146.2 144.2 138.9 128.5 123.1 120.9 109.6 98.7 88.9 78.4 74.9 73.1 76.5 73.4 71.8 73.3 76.6 78.7 82.5 80.9 82.7 84.9 83.1 81.8 74.8 71.4 73.2 77.4 75 72 72.1 75.1 78.2 77.8 76.2 78.3 81.4 80.6 83.4 90.8 101 112.5 127.6 149.1 165.8 190.9 203.4 214.9 219.6 224.2 224.6 224 227.3 222.8 215 210.2 205.4 201.8 203 201.7 199.9
96.7 84.9 83.7 74.7 64.6 58.2 52.9 46.1 34.8 26.5 22.2 24.5 28.5 14.6 11.4 10.9 9.7 10.5 15.5 25 33.3 38.6 41.8 46.6 51.4 55.7 58.6 60.7 59.4 57.3 56.9 56.2 59.1 64.3 62.7 53.2 42.2 35.7 27 18.5 14.2 9.7 7.5 6.3 5.6 5.1 6.4 7.1 9 12.4 16.4 22.2 28.8 32.5 30.8 21.8 7.1 4.9 5.6 -2.7 4.5 5.8 5.9 6.5 7.9 8.4 7.9 6.5 6.1 5.9 5.9 5.6 5.1 6.3 8.5 10 13.1 8.9 7.3 8.1 19.8 23.7 31.3 40.4 44.4 46.7 47.6 67.7 76.4 75 61.4 53.4 47.9 50.8 70.6 85 90.8 91.2 86.5 79.7 72.6 67.9 66.6 61.3 60.4 37.1 27.6 23.2 22.8 21.7 17.8 17.2 25.3 44 54.8 61.1 67.8 78.1 89 98 105.6 110.7 111.3 115.9 129.9 139.9 148.1 152.5 154.8 149.2 147.4 144.4 139.9 136.5 135.4 136.8 138.9 140.8 140.9 144.4 143.8 136.1 125.6 122.6 116.8 103.6 91.4 83.7 77.7 76.3 77.7 80.6 77.6 77.5 78.2 81.1 85.1 87.5 87.8 89.4 92.4 88.4 83.7 78.9 76.1 74.6 79.7 76.2 71.4 71.4 73.2 73.7 72.8 74 74.5 75.9 80 79.8 85.7 93.5 100.8 112.3 128.7 150.4 179.9 203.7 215.7 227.6 228 229.2 233 226.1 219.5 220.1 211.3 203.4 198.8 197.4 197.3 197.2
107.1 90.1 80.2 77.5 67 58.6 50.8 45 32.6 26.3 21.8 21.5 23.6 13.7 11.4 10.3 9.8 7.5 14.3 21.3 31.7 37.5 41.8 44.9 49.1 52.3 55.2 57.7 57.7 57.7 57.5 55.9 59.6 65.8 62.6 54 43.9 34.7 27.5 18.1 14.3 8.6 7.2 6.4 5.4 6.5 6.3 5.8 6.1 7.3 9.5 13.8 20.2 25.9 26.7 19.5 5.5 5.3 5.7 -2.7 6 6 5.5 5.8 5.8 6 6.2 6.1 6.1 6.2 6.2 6.2 5.7 6.1 10.4 13.5 10.5 8.2 7.7 9.4 17 21.3 24.2 29.5 29.6 31.3 44.4 68.1 74.5 67.4 55.4 46.9 41.9 43.4 60.8 75 79.3 76.7 68.4 58.1 51 48.8 47.7 44.5 29.2 30.1 24.2 22.6 22.2 22.1 13.8 23.6 34.2 53.1 63.8 67.4 73.3 84.6 94.9 103.3 114 116.9 114.7 115.7 131.3 143 152.4 150.3 153.5 147.8 146.4 144.1 143.1 135.3 132.9 131.7 134 141 145 142.6 136.7 131.5 125.2 119.3 110.7 102.5 87.5 82.3 78.5 78.9 80.4 83.4 82.1 84.3 81.7 83.9 88.7 91.7 96.1 99.2 97.7 94 88.5 83.2 79.3 77.6 81.7 76.5 70.5 70.6 71.1 72.1 72.8 73.3 73.4 74 79.2 77.3 81.7 87.1 93.8 101.6 114.4 135.7 165.5 186.8 206.8 222.5 231.4 234.9 231.7 226.9 222.1 222.8 209.3 200.3 197.7 194.8 194.9 197
109.6 95.8 79.3 76.7 65.7 58.4 52.4 42.9 33.6 27 19.8 22.3 17.9 14.4 13 10.7 9.6 9.2 13.1 17.4 27.9 36.3 41.5 46.9 50.3 51.4 54.4 56.2 57.5 58.4 58.6 55.8 59.6 63.7 58.7 50.7 41.8 35 28.1 22.1 16.9 12.3 9.3 6 6 6.1 6.1 5.8 5.8 5.8 6.3 7.7 13.5 18.2 20.8 12.9 5.5 5.2 5.6 -2.7 5.8 6.3 6 5.8 5.5 5.6 5.8 6 6.1 6.5 6.6 6.7 6.5 6.4 10.6 10.8 10.3 8.9 11.6 11.3 16.9 19.7 22.3 22.2 21.5 24.7 42.7 64 65.5 54.1 46.8 38.8 34.9 36.4 49.6 59.4 66 62 53.3 42.6 35.2 34.9 28.7 31.8 31.2 27.3 24.9 23.2 21.1 13 24.1 34.7 48.2 58.7 68.5 72.1 80.1 90.7 98.2 109.5 118.3 117.8 114.7 122.9 137.4 142.2 147.9 147.4 147.7 149.6 150.6 150.3 146.4 141.4 133.7 131.5 130.2 137.8 141 136.5 131 122.5 118.2 112.1 104.7 94.3 86.5 83.5 84.6 84.1 82.9 87 85.4 86.8 87.3 89.6 93.9 99.7 103.5 102.5 101 98.8 94.6 89.1 83.1 81.1 84.1 76.4 70.3 70 71.5 73 74 73.1 72.8 72.6 73.8 78.2 79.1 82.5 87.8 92.7 100.9 117.1 138.6 158.3 181 203.9 227.5 233.5 237.5 231.2 220.5 215.5 205.9 199.4 198.3 192.8 191.5 193.3
110.7 95.6 79.7 74.2 67.9 67.9 62.8 49.5 35.6 28 19.5 20.2 15.7 14.3 13.4 11.9 9 9 12.1 16 25 36.1 43.4 49.9 51.8 54 54.7 58 60.5 58.9 58.1 54.6 56.6 59.2 53.9 46.6 39.7 32.8 29.1 24.5 17.5 12.8 7.4 5.6 5.6 5.9 6.1 5.8 5.7 5.9 6.3 6.7 8.9 12.3 12.9 9.3 6.5 7.6 7.4 -2.7 6 5.6 5.4 5.3 5.6 6 6.5 7.1 7.6 8.1 8.6 9.1 9.5 9.6 10.4 10.8 12 13 15.2 13.2 15.8 17.3 16.1 13.2 14.6 20.4 31.6 52.6 43.7 41.5 36.8 29.6 25.1 34.8 47.3 53.1 54.2 46.9 35.9 27.8 25.6 28.8 28.6 28 26.4 23 24.3 20.7 13.3 31.1 38.3 47.5 58.4 63.6 74.3 79.4 86.8 95.3 101.7 109.9 113.8 113.4 118.8 133.2 140.9 145.9 147.3 149.1 153.6 156.2 155 151.6 148.1 143.8 138.3 130.8 127 129.2 134.1 128.9 125.7 121 114.9 108.2 97.9 91.2 86.6 85.8 86 87 86.5 89.9 87.8 89.6 91.8 93.5 98.2 104.6 107.5 105.2 103.9 100.8 96.3 90.9 85.4 84.5 86.2 76.4 69.9 69.5 71.2 74 75.1 73.7 72.2 71.9 71.8 76.2 80.6 80.1 83.1 84.7 91.3 103.3 118.5 140.3 162.9 188.5 211.8 229.7 233.1 226.3 212.5 211.3 202.3 202.1 198.3 191.6 191.5 191.5
109.8 93.7 79.8 71.6 73.9 74.8 65 49.4 37.2 28.6 22.5 15.5 14.1 13.4 12.8 10.7 8.5 8.5 13.9 19.5 28.5 40.2 48.1 52.5 53.6 58.9 58.5 59.9 61.6 59.8 59.5 54.7 51.2 53.8 48.5 41 38.3 34.3 31.8 29.3 24.1 14.2 7.6 5.8 5.6 4.4 5.9 5.8 5.8 6 6.3 6.8 7.2 8.6 7.4 6.4 6.4 5.7 5.6 -2.7 -2.7 6 5.5 5.2 5.5 7.1 8.4 9.7 8.3 8 8.3 8.1 7.6 7.7 9.2 11.2 11.1 12.4 16 17.1 15.3 14.9 16.1 10.6 16.6 20.3 22.7 28.5 31.9 35.7 30.2 19.4 21 28.1 43.3 49.4 40.9 30.3 26.1 25.7 25.1 25 25.2 24.2 21.2 16.8 12 19.6 28.8 41 48.8 58.2 66.6 73.4 80.3 85.5 92.6 101.8 104.8 110 111.7 118.2 123.1 132.5 145.1 148.5 150.7 156.3 161.9 160.3 160.5 161.1 157 153.1 142.8 131.1 125.2 126.1 125 120.6 114.7 115.2 110.3 103.1 93.7 87.3 88.8 88.5 89.6 87.6 89.2 93.5 90.5 92.4 96.1 98 101.4 107.1 109.9 109.3 108.9 104.2 97.9 91.7 86.5 85.4 85.4 75.7 69.8 69 72 74.1 74.5 74.2 73 71.4 71.5 72.7 76.9 78.6 79.5 81.4 87.8 92.2 105.3 123.5 146.5 169.4 187.1 211.1 224.6 221 208.2 207.8 202.6 203.8 198.4 192.6 192.4 186
108.7 93 80.7 73.1 76.1 79.6 68.4 49.9 38.1 28.7 23.2 18.4 13.4 12.7 11.7 9.9 8.2 8.3 16 27.3 32.6 39.9 51 54.8 59.7 61.5 61.4 60.5 61.4 62.1 59.5 53.3 48.3 47.2 43.1 39.4 33.1 33 33.4 32 28.7 21.2 11.5 5.3 5.5 5.7 5.6 5.7 5.9 6 6 6.9 6.1 6.6 6.9 7.1 7.6 6.5 5.6 -2.7 -2.7 -2.7 5.3 5.3 5.5 8.2 9.9 8.7 8.5 8.7 8.8 8.6 9.1 8.2 7.8 10.5 11.4 15.4 21.2 26.2 18.8 15.1 10.5 8.2 9.3 14.2 20.5 26.7 24.6 23.2 23 23 23.2 23.6 24 24.2 24.3 24.4 24.4 24.8 25.1 21.7 20.8 16.7 10.5 12 21.7 32.7 43 46.1 56.1 67.1 74.9 81 86.1 93.1 104.3 106.6 108.2 108.8 109.3 112 123.5 136.9 147 152.2 156.1 165.4 168.1 168.4 171.8 175.6 168.8 153.4 144.3 134 123.8 120.6 115.8 114.2 113.4 111.3 103.1 95.9 89.9 89.8 93.2 93.2 92.8 90 95.4 98.3 96.2 96.6 99.4 101.7 104.3 109.5 112.8 112.6 111.1 104.5 99.7 93 87.2 84.3 83.4 76.2 71 68.7 69.6 72.4 73 75.4 73.2 70.8 70.9 72 74 78.4 77 80.9 83.1 85.5 94.7 110.7 133.2 150.6 168.5 188.4 203.5 206.6 205.1 197.9 205.4 205.5 197.9 187 183.2 181.1
107.5 94.2 82.2 75.3 76.6 77.7 67.3 52.6 38.4 30.3 24.3 19.3 13.7 11.8 11.2 7.8 7.9 6.4 21.9 33.6 39.7 47 55.2 57.9 60.4 63.2 62.7 63.1 63 62.8 58.5 51.1 47.6 44.6 41 37.9 33.9 32.5 32.7 33.3 31.9 24.2 9.2 5.4 6 5.8 5.8 6.1 6.6 5.8 5.9 6.4 7 7.4 7.9 7.4 7.7 6.3 5.6 5.7 -2.7 -2.7 5.1 5.6 6.4 6.8 6.7 6.9 8 9.1 9.1 13.3 11.2 8.5 8.6 8.3 10.1 21.2 27.7 32.1 27.4 18.7 11.8 8.1 8.5 15.3 18.5 20.7 21.9 22 12.8 12.4 13.1 18.3 22.2 24.7 25 25.6 25.6 24.7 22.7 18.2 14.5 9.9 16 26.7 35 44.8 52.5 57.7 63.7 73.1 80.1 87.3 93.4 104.1 106.4 108.8 109.2 108.9 109.3 116.3 129.5 139.7 145.3 153.5 162.8 168.9 174.2 181.3 184.8 178.4 164.6 156.6 145.5 131.7 125.2 117.9 113.9 111.9 108.8 105 98.3 94.4 93.3 92.9 94.4 93 93.4 98.5 99.1 99.1 98 98.3 102.3 104.1 104.6 109.9 112.5 112.7 109.6 104 101.2 96 89 83.1 81.9 77 73.2 69.4 68.7 70.7 71.7 73.7 71.4 70.3 70.5 71.8 72.7 72.9 79.6 78.2 80.5 81 89.2 99.2 119 139.3 154.7 176.7 186.7 194.1 198.1 192.5 198.8 200.4 192.7 185.9 180.5 177.2
109.8 97.4 86.7 75.8 75.4 75.4 65.2 52.6 36.5 30.9 24.4 19.6 15.3 11.8 8.9 7.7 7.6 12.6 29.6 40.9 49.3 55.6 60.7 63.7 65 65.8 66.6 67.3 67.4 65.6 62.1 56.3 51.4 48.2 45.7 44.1 36.6 32.8 28.1 30.9 28.9 20.6 9.2 5.8 6 6.6 6.1 5.3 5.5 6 6.3 6.9 7.5 7.9 7.5 6.8 6.1 5.6 5.4 5.5 5.6 -2.7 5.6 6.1 6.6 7.7 7.5 7.7 8.4 9.5 10.9 10.3 10.3 9 10.3 8.5 12.5 27.5 35.3 39.2 33.3 26 15.4 7.8 9.3 16.1 16.6 15.2 14.8 13.6 12.1 15.6 15.6 19.6 20.4 22.1 22.7 21.9 18.5 16.3 15.2 10.7 12.1 19.1 29.6 39.4 47.1 52.8 59.5 66.4 72.3 77.7 87.4 95 105 105.9 111.9 109.8 110.5 109 110.8 123.5 133 146.4 155.1 163.1 170.5 176.1 182 188.5 180.7 168.7 163.7 156.1 138.5 129.6 123.3 118.8 111.6 108.3 106.3 101.7 97.6 96.2 95.1 94.4 93.8 98.8 97 98 100.9 101.4 101 99.9 103.2 105.5 105.1 108.6 111.3 112.7 109.4 106 103.2 97.3 88.9 83.5 82.6 77.8 74.9 71 67.8 67.7 69.2 70.8 71.1 70 70.4 72.7 72.9 72.5 80.6 81.5 79.4 78.9 84.7 93.9 106 123.4 138.2 157.8 178.2 189.3 187.3 188.2 196.2 196.3 190.1 184.8 178.6 176.7
111.9 100.6 87.9 76 74.7 72.7 66.2 54 35.7 28.6 24.3 19.1 14.5 12 8.1 7.6 7.3 16.1 31.4 44.5 55.7 62.8 65.6 72.8 75.7 75.2 74.5 73.4 73.3 70.4 66.2 61.4 57.1 55.4 52.4 45.3 39.8 34.2 24.9 25.5 20.4 12.2 6.5 3.6 5.6 5.6 5.5 5.4 5.7 6.2 6.6 7 7.4 7.8 7.4 6.7 6.1 5.9 5.3 5.6 5.8 -2.7 -2.7 6.2 6.6 7 7.5 8.5 12.1 13.2 10.4 11 9.9 13.5 14.5 13.8 23.9 38.8 41.8 41.3 37.7 26.6 14 6.5 9.1 12.3 14.6 12 14.4 14 12.4 12.7 16.4 18.5 18.1 17.7 14.3 11.8 7.3 8.9 9.1 13.4 20.9 32.3 42.6 49.8 53.9 59.4 65.1 70.4 76.9 87.5 95.4 98 103.8 110.7 113.5 110.1 110 111.3 117.2 128.4 140.9 148.5 160.2 170.5 178.9 189.4 187.7 183.2 175.7 166.1 157.7 144.9 133.6 127.3 122.1 116.3 111.5 107.5 104.2 101.8 99.4 96 94.3 93.4 93.8 97.9 98 100 102.9 101.5 101 101 104.4 107.6 106 107.7 110.4 110.8 108.9 106.8 104.2 99.2 92.7 86.9 82.5 77.9 73.8 68.9 67.7 67.1 67.1 67.9 71.3 70.6 72.1 77.8 76.2 72.9 78 79.9 76.6 81.9 82.9 88.7 96 109.5 121.4 141.1 163.8 167.4 173.3 185.8 189.7 191.5 188.4 180.9 176.7 176.7
111.9 99.5 84.9 75.6 75.2 72.6 66.3 50 34.9 31.2 24.4 18.1 13.8 10.6 7 6.1 8.7 17.3 32.9 52.5 66.3 70.8 75.5 80.9 82.4 80.5 80.8 79.9 77.9 74.7 70.3 65 62.6 60 54.7 48.7 41.6 34.6 26.5 19.1 9.3 6.6 6.2 5.9 5.7 5.6 5.3 5.6 5.9 6 6.4 6.9 7.3 7.7 7.1 6.6 6.2 6.1 5.5 5.9 6.4 -2.7 -2.7 6.2 6.5 6.8 7.6 13.7 17.1 19 13 11.9 15.8 17.8 15.9 19.3 33.7 45.4 46.5 42.4 36.6 24.5 11.6 6.2 8.2 9 11.5 13.9 17.1 17 14.2 12.8 16.5 14.3 13.4 11.9 7.1 7.3 12.4 13.3 11.4 24.7 35.8 45 51.7 55.8 60 63.8 68.7 76.2 87.9 96.7 94.1 96.1 101.3 109.7 115.3 111.1 110.9 113.8 124.9 134.2 143 153.6 166.5 177.4 185.2 191.5 184.9 179.7 176.1 165.3 152.2 141.7 133.3 127.1 121.5 116.6 111.7 108.2 103.3 100.3 97.5 96 95.4 93.9 95 98 101.4 104.4 107.3 104.5 101.9 102.1 105.1 108.1 105.5 106.5 108.6 109.2 107.9 106.6 104.5 101 95.1 87.7 81.3 76.9 72.7 69.6 67.6 66.7 66.8 67.2 70.2 71.5 76.2 82.1 80.2 78.5 73.9 75.3 75.2 81.8 87.8 87.8 91.8 98.9 107.7 126.2 144.6 153.3 172 176.6 179.6 184.7 180 176.7 176.7 176.7
107.5 96.8 83.5 73.3 72.3 71.8 63.5 47.1 39.4 29.3 23.3 19.5 13.8 9.5 5.9 6.9 9.8 17.1 38.1 59.3 71 76.9 81.1 85.4 87.6 87.5 87.6 86.5 81.5 78.4 73.5 70.7 67.7 63.8 57.3 49.1 41.4 33.1 19.9 6.7 6 5.6 5.5 5.6 5.7 5.4 5.3 5.4 5.5 5.7 6 6.4 6.8 7 6.7 6.3 6 5.9 6.2 6.3 6.5 -2.7 -2.7 6.2 6.6 7.6 11.6 18.2 18.6 16.2 11.9 15.8 17 18.3 18.5 25.4 34.9 43.3 41.8 37.7 30.5 21.1 9.3 6.6 7 7.1 9.5 13.1 18 13.5 13.1 10.6 14.9 12.3 4.7 4.3 10 13.2 13.2 12.4 23.4 33.4 44.1 51.4 57.3 61.9 65.5 68.9 75.2 84.9 94.1 94.3 92.3 95.3 103.2 119.3 116.1 112.1 111.4 119.2 129.9 142.5 150.4 161.3 172.3 181.9 182.5 184.8 178.5 178 169 155.9 150 140.7 134.4 128.8 122.4 117.3 113.7 111 105.5 104.1 102.9 100.2 95.7 95.2 94.2 95.2 103 110.6 113.1 107.8 103.8 104 106.2 107.9 106.1 106.4 107.4 108.3 107.4 106.7 105.3 103.2 94.9 86.2 80.4 77.7 73.9 69.7 68.1 66.8 65.5 66.6 68.8 70.7 76.8 82.6 86.3 81.8 75.3 74.4 75.8 81.4 85.4 90.7 93.3 95.9 102.4 118.3 128.3 141 156.4 164.7 172.4 176.1 178.6 176.7 176.7 176.7
105.9 94.4 80.2 72.9 70.3 67.7 57.2 46.8 40.8 30.2 21.8 20.5 13.8 8.7 6.4 6.4 9.7 16.7 36.7 62.1 77 85.4 87.8 89.4 91 93.8 95.1 89.7 84.9 80.9 77.9 75.7 69.6 63.9 56.9 48.5 39.3 25.2 7.4 6.3 6.4 5.8 6.3 5.9 5.4 5.4 5.5 5.6 5.6 5.6 5.4 5.6 5.8 6.1 6.1 6 5.7 -2.7 -2.6 -2.7 -2.7 -2.7 6.3 5.9 6.6 6.8 13.8 18.9 17.8 11.5 10.2 12.2 17.3 22 25.9 28 30.3 35.8 34.1 31.4 25.6 19.6 11.6 6.6 6.7 7.2 9.8 12.6 17.9 11 12 8.5 6.8 3.6 4.5 7.8 10.5 12.7 13.1 21.5 32.6 44 51.4 57.9 64 69.6 71.5 74.3 80.5 86.8 91 91.6 92.8 98.4 109 116 115.4 113.4 118.5 128.2 139.1 149.2 157.4 163 180.3 182.6 181.2 177.5 173.5 166.7 160.2 153.7 144.6 140.7 136.4 129.3 124.1 119 119.5 117.7 116.7 116.2 111 104.3 98.3 95.6 94.9 96.2 104.4 113.4 115.6 109.8 104.7 104.6 106.7 106.8 107.7 105.7 107.3 105.8 104.5 105.1 106.1 101.5 93.5 85.7 80.8 77.5 74.1 70.4 68.9 67 65.4 65.8 67.8 69 76.1 84.8 84.8 80.9 78.3 77.5 74.4 78.5 84.5 86.3 89.8 94.8 98.9 110 120.6 134.2 152.4 155.6 162.5 170.9 178 177.9 174.5 176.7
101.2 90.2 80.7 74.9 68.8 70 60.6 51 43.9 33.5 24.6 16.5 12.3 7.7 6.7 6.3 9.2 13.5 32.8 60.8 80.8 91.1 96.4 96.6 96.8 95.8 96.1 91 86 82.7 79.8 76 67.6 60.9 54.1 45.5 33.2 10 6.6 6.1 5.8 5.9 5.7 5.8 5.8 5.6 5.7 5.8 5.7 5.3 4.8 4.6 4.9 5.2 5.4 5.6 5.9 -2.7 4 5.1 -2.7 -2.7 5.5 5.6 6.7 7.5 14.1 14.5 12.7 9.2 9.6 11 17.6 24.7 31.9 33.2 25.4 25.4 25.5 22.4 18.3 17.4 12.9 6.8 7 10.1 11.9 9.8 10.7 10.1 6.9 4.6 5.8 3.6 8.6 9.4 11.5 11.2 19.7 29.8 40.2 50.2 56.4 64.2 71.5 76.2 76.6 80.2 84.3 87.5 91.1 97.9 102.4 106.3 110.4 115.7 119.9 121.6 127.2 135.8 147.3 154.1 158.4 169.7 181.6 182 180.2 173.7 166.2 164.1 156.5 149.5 146.2 141.5 136.3 133.5 123.6 122.6 123.8 123.5 124.7 122.3 113.1 108.4 100.2 97.3 96.5 97.5 105.6 112.3 114.9 109.6 104.3 104.3 105.8 107.3 107.7 106.7 105.9 105.3 103.7 103.6 104 98.7 92.5 85.6 80.5 76.2 73.1 71.4 70.4 66.9 65.5 66.2 66.8 67.6 73.9 83.5 85.1 82.9 79.1 76.4 73.7 76.9 81.4 83.5 84.6 91.5 97.3 102.7 113.2 125.1 140 147.4 158 169 165.5 164.9 168.4 174.8
96.7 90.8 81.6 75.1 70.4 69.5 62.5 55.5 45.5 35.6 26.5 19.2 13.1 8.5 6 6.4 6.1 9.1 22.2 52.7 76.9 95.7 102.6 101.9 99.2 95.1 93.5 89.4 86.9 82.3 78.1 70.9 64.2 57.2 48.4 38.4 20.9 9.2 6.8 5.9 5.8 5.9 5.4 5.5 5.6 5.7 5.7 5.7 5.2 5 4.8 4.7 4.9 5.2 5.1 5.4 5.3 -2.7 -2.7 6.3 6.1 6.1 5.6 5.1 5.7 7 10.7 7.8 8.5 9.1 8.4 9.8 17.2 26.7 32.3 26.7 23.4 19.6 16.7 15.7 18.9 14.6 11.3 6.8 7.4 11.3 8.9 9 9.2 9.3 6.7 3.6 3.6 7.9 8.6 10.9 11.2 18.9 27.1 36.1 44.7 55 64.9 73.2 79.6 78.7 80.1 88.5 92.1 93.1 101.9 106.1 106.1 108.3 112.8 119.3 123.5 129.1 134.1 142.2 152.2 159.8 167.9 172.3 177.1 182.9 178.3 166.8 165 159.6 153.5 146.4 145.8 141.8 138.3 128.5 122.8 124.4 126 128 130.6 125.6 119.8 113.5 108.1 102.8 99.4 98.1 104.2 110.1 113.1 108.6 102.9 103.9 106.8 106.8 107.5 108.5 104.8 104.5 103.5 102.7 100.3 97 91.8 84.8 79.8 76.2 72.9 71.5 70.4 67.6 65.8 66 66.5 67.2 72.2 84.6 84.3 79.9 75.6 75.6 76.9 79.7 81 81.4 85.3 93.8 99.5 99.5 105.7 116.2 128.6 141.8 148.9 155.5 152.6 160.8 169.6 180.1
106 91.9 80.6 74.5 72.7 77.5 68.3 59.2 45.9 36.3 30.9 22.9 14.3 9.4 5.8 5.6 6.3 7.7 16.8 46.4 73 95.5 99.7 101.1 98.5 92.1 90.8 89 85.2 78.3 71.1 63.9 56.6 49.5 41.6 32.2 8.5 6.2 5.7 5.6 3.4 5.2 5.1 5.2 5.1 4.3 5.2 5.3 5.1 5.5 5.2 4.8 4.6 -2.7 -2.7 -2.7 -2.7 -2.7 -2.7 5.9 6 6 5.5 5.3 6 6.2 6 7.7 10.8 8.1 7.7 9.2 16.7 27 28.8 22.1 13.5 12.9 17.1 17 14.2 8.5 7.7 6.7 7.5 7.9 8.6 8.9 9.1 8.3 5.5 3.6 6.1 11 11.4 12 18.1 23.8 31.7 40.2 49.6 59.7 71.6 82 83.1 80.2 86.7 96.5 96.3 100.6 106 107.8 112.7 116.5 120 125.4 130.2 137.8 141 147.1 154.1 161.5 170.9 174.4 175.6 175.2 172.1 160.3 156.2 152.4 147.6 146.8 145 137.6 129.1 129 124.3 126.5 128.9 135.9 137.8 131 122 120.3 117.3 110.1 103.1 99.9 101.3 106.6 109.9 107.1 102.3 103.6 107.8 108.7 106.3 106.5 103.2 104.6 102 100.8 99.7 97.6 92.4 84.2 80.6 77.2 73.5 71.8 71.6 67.8 65.5 67.2 67.3 67.2 69 73.5 75 75.9 73.8 73.1 74.5 77 78.9 80 88.9 98.5 98.3 99.3 103.5 109.7 120.9 133.1 139.4 147.3 152.2 162.5 170.1 181.4
103.2 86.6 80.7 74.9 76.9 82 71.1 62.1 47.7 39 33.6 23.7 15.6 10 6.1 6.2 5.4 6 12.2 40.6 67.8 89.6 96.4 99.8 97.2 91.6 90.2 87.2 79.9 70.2 62.3 54.2 47.5 41.4 37.7 25.1 5.4 5.7 5.4 5.4 5.2 4.6 4.5 4.5 4.5 4.7 5.1 5.5 6.1 6.1 5.6 -2.7 -2.7 -2.7 -2.7 -2.7 -2.7 -2.7 -2.7 -2.7 6 6.1 5.5 5.2 5.3 5.4 5.4 7.8 7.7 7 7.1 8.6 16.4 25.9 24.1 17 12.3 17.3 16 14.7 8.2 6.6 9.3 6.7 6.7 7.3 8.1 7.8 7.4 6.5 5.8 4.1 7 9.5 12.5 17.1 24.3 28.6 35.3 43.7 54.2 64.8 75 83.4 80.8 80.8 92.1 98.1 100.9 105.8 111.7 118.2 123.5 127.7 130 130.3 134.2 142.1 145.3 152.3 157.9 164.7 171.6 177.1 175.8 172.9 163.3 152 150.2 144.8 140.6 140.3 137.5 132.7 132.1 125.3 126.1 130.9 137.5 141.6 140.2 134.5 133.3 134.4 127.2 115.6 108.2 101.8 100.3 101.4 104.2 102.3 99.7 103.2 107.7 108 104.6 103.3 101.1 100.2 99.3 98.9 99.2 97.4 94.2 85.9 79.8 74.8 72 71.3 69.8 68.4 65.8 67.5 67.9 67.6 68.2 68.6 68.6 70.8 70.9 70.4 71.4 75 75.1 81.1 93.3 102.8 96.9 96.7 104 107.6 116.4 125.6 134.2 138.4 149 156.1 170.3 184
99.4 88.1 79.7 77.7 80.2 87.3 74.2 64.1 52.1 43 33.3 25.3 16.1 9.9 6.7 6.6 6.1 5.7 9.1 35.4 64.5 85.8 96.3 99.5 97.8 94.5 90.1 83.6 73.1 62.9 54.9 46.9 41.7 38.5 34.1 17.9 6.5 5.2 5.1 5.1 4.5 4.5 4.4 5.2 5.1 5.5 5.7 5.8 6 6 5.8 -2.7 -2.7 -2.7 -2.7 -2.7 -2.7 -2.7 -2.7 -2.7 6 6.5 6.2 5.5 5.3 5.8 6.6 7.1 7.1 6.4 6.9 8.4 17.9 26.2 20.7 10.6 13.1 14.1 13 8.1 6.8 6.8 6.1 6.1 5.8 6.7 6.4 6.7 6.3 5.3 3.1 5.4 7.5 12.9 15.2 19.2 25.7 32.3 39.5 48.6 58.5 68.2 76.2 79.7 81.2 85 93.8 99.2 108.9 117.9 123.9 131.2 136 137.8 139.7 136.4 138.8 146.9 148.4 155.5 160.8 169.2 174.2 179.4 175.3 166.6 153.6 149.4 145.8 139 139 139 137.3 138.9 129.5 128.9 137.4 135.2 141.1 142.8 141.3 138.8 142.9 142.9 132.2 114.7 109.8 105.1 100.6 97.9 98.3 97.4 98 102.9 107.3 107.8 103.5 102.2 101.8 98.5 97.5 98 99 96.5 92.8 84.5 78.9 73.6 71.1 70.6 69.3 68.1 65.4 68.7 72.6 69.5 68.2 68.7 68.9 69.2 69.4 70 70.7 72.4 76.1 85.2 92.1 97.2 93.3 95.2 103.3 105.7 111.7 117.4 124.5 131.8 143.2 157.1 173.7 187.4
101.4 86.2 82.2 81.4 83.5 89.4 78.3 67.5 54.6 46.8 37.6 26.4 17.4 10.3 6.9 6.5 6.4 6.2 7.1 29.4 57.1 82.7 98 99.9 101 99.6 89 78 68 59.7 51.1 45 40.6 37.6 31.7 15.2 5.6 5.5 5.1 4.7 4.7 4.4 5.2 5.9 6.1 5.8 6.1 6 6 6 5.8 -2.7 -2.7 -0.1 2.8 5.7 4.7 -2.7 -2.7 -2.7 -2.7 6.2 6.1 5.5 5.5 6.6 7.1 7.2 6.9 6.6 6.8 10.9 20.3 25.9 18.1 7.4 6.9 10.9 8.9 6.8 5.7 5.5 5.8 6.1 6.3 6.5 5.6 4 2.7 6.1 6.5 6.7 9.6 14.1 16.3 20.3 27.2 36.6 44.2 53.1 62.2 70.3 76 79.2 85.3 90 96.7 105.3 116.1 126.3 134.6 142.2 147.1 149.7 148.7 143.9 144.7 149.8 150.9 156.1 166.7 170.1 176.8 175.5 162.8 157.9 149.4 142.2 139 139 139 139.6 144.5 140.4 136.3 135.9 135.9 138 141.1 144.2 143.4 142.4 151.3 145.8 130.1 124 114 106.6 100.5 95.8 95.7 95.3 97.1 103.6 108.3 109.1 104.1 101.8 99.4 97.2 96.9 97.6 97.4 94.9 89 82.5 78.4 72.9 71.2 69 68 68 66.6 68.3 70.1 69.8 68.3 68.7 69.2 69.5 69.5 69.9 72.4 73.3 79.4 86 88.2 91.5 93.7 97.7 105.7 106.6 109.9 114 119.9 128.7 141.9 158.2 174.9 185.9
98.9 86.8 85.6 85.1 84.6 84.6 81 70.4 55.8 48.9 41.3 34 24.4 16.1 9.2 7.2 6.2 6 6.4 18.6 45.6 67.9 88.9 98 100.3 94.2 84.8 71.8 63.4 57.9 53.2 51.3 44.5 41.8 34.5 11.4 5.4 5.6 5.2 5 4.9 4.9 6 6.7 6.7 6.1 6.4 6.1 6 5.9 6.3 -2.7 -2.7 0.2 3.1 5.7 5.6 5.5 -2.7 -2.7 -2.7 -2.7 5.7 5.2 5.4 6.3 7.2 7.1 7 6.8 6.7 13.3 23 24.9 14.7 6.9 8.7 9.5 7 -2.7 -2.7 2.9 5.4 4.1 2.9 2.9 3.2 5.6 6.3 6.3 6.6 7.4 10.3 15.6 18.4 22.1 30.5 40.4 48.4 55.4 63.3 71.5 76.3 81.8 87.9 92.6 101.9 114.3 123.4 133.4 143.9 151.4 161 162.1 154.8 148.1 150.8 154.5 156.7 163.2 167 168.9 171.9 166.4 157.4 149.2 142.2 139 139 139 139 143.1 143.2 140.4 142.4 142.7 136.9 138.2 139.1 139.5 139.1 144 150.6 141.4 135.4 127.9 114.2 105.4 100.3 94.4 93.5 94.1 98 104.8 110 110.2 104.8 101.2 100.1 97.4 96.5 98.5 98.5 91.9 86.1 81.3 77.3 73.1 70.7 70.6 67.2 66.6 66.6 68 69.4 72.9 69.1 70.4 73.9 74.8 72.9 70.4 77.7 77.4 78.9 82.1 83.7 91.5 93.5 102 108.7 107.6 108.4 110.2 115.4 121.8 139.4 153.9 169.5 179.9
95.8 93.3 93.5 90.5 87.2 83.1 79 71.6 65.6 59.3 50.5 43.6 28.8 20.1 11.7 7.2 6 6 5.4 14.8 33.2 51.4 69.5 83.5 85.8 85.1 78 68.2 61.1 55.5 53 55 55.6 53 38.8 -2.7 5.6 5.5 5.5 5.3 5.1 5.2 6.6 7 6.4 6.5 6.4 6.3 6 6.2 6.5 -2.7 -2.7 0.2 2.7 5.6 5.6 5.6 6.2 3.3 -2.7 -2.7 -2.7 5.2 5.4 6 6.9 6.8 6.6 6.3 5.9 13.3 23.1 21.9 9.3 6.1 12.3 10.8 6.3 -2.7 -2.7 6.1 6 5.4 6.5 6.4 6.4 6.3 6.3 6.8 7.7 8.4 11.2 16.3 20.6 27.2 35.9 45 49.8 56.7 63.3 70.4 76.9 84.2 90.5 99.2 111.7 120.7 131.3 144.5 157.4 166.1 174.8 167.6 153.7 152.9 157 160.4 164.6 167.8 169.1 171.2 169.3 159.4 150.9 144.7 142 139 139 139 139 139 141.7 142.8 143.3 141.4 139.4 137.9 137.2 135.3 136.3 139.2 141.7 141.3 131.5 123.4 112.4 104.1 100.5 93.6 92.9 93 97.3 105 111.4 111.1 106 101.7 100.1 96.7 96.1 97.5 95.1 93.1 87.8 79.3 75.7 75.1 73.5 69.6 67.1 66 66.6 68.8 72.8 75.8 74.6 75.9 84.3 85 79.8 82 86.1 80.3 79.7 80.6 84.6 89.7 95 104.5 110.1 107.8 108.8 109.2 111.6 116.7 128.3 145.2 165.7 195.3
101 101.9 99.5 96.1 91 84.8 79.3 76.2 71.4 64.7 51.5 45.5 38.4 24.6 17.7 10.3 5.9 5.9 3.5 9.9 23.8 35.9 50.1 63.5 68.3 68.9 69.4 60.3 54.7 52 52.2 56.5 60 52.6 41.3 -2.7 -2.7 5.8 6.1 5.8 5.6 5.9 6.2 6.6 6.2 6.4 6.3 6.4 6.1 6.3 6.7 -2.7 -2.7 -0.2 2.3 5.6 5.6 5.6 6.1 6 2.1 -2.7 -2.7 4.8 5.4 5.7 6.1 6.2 5.8 5.4 5.3 9.8 16.1 12.8 6.8 6.1 6.6 6.3 6.5 -2.7 -2.7 6 6.3 5.7 6.1 7 6.5 6 6.9 7.3 8.2 9.4 12.3 22.2 26.6 32.2 40.3 46.9 51.4 55.1 61.5 68.6 77.4 85.6 93.6 105.2 119 129.7 143 157.6 169.1 177.8 177.4 162.2 155.6 158.1 161.8 164.7 169.9 170.6 171.9 173 164.9 154.2 147.6 143.4 141.1 139 139 139 139 142.2 143.2 143 140.8 140.4 140.6 137.5 136.2 134.1 134.4 135 132.5 131.8 123.2 116.8 108.5 103.6 99.5 95.6 93.1 92.5 97.9 103.9 111.8 112.2 108.3 104.9 98.4 96.4 96.2 96.8 96.9 92.9 87.2 79.5 76.3 76.6 75 71.5 67.2 65.7 67.3 71.6 78.7 79.1 80.1 81.5 91.1 97.4 93.1 88.1 81.3 84.9 84.6 83.4 85.3 90.5 96.4 106.9 110.8 107.5 107 109.4 109.5 113.4 125.1 142.3 166.1 198.6
106.4 108.4 105.8 102.6 96.1 88.2 85 81.4 76.9 69.9 58 48.1 38.8 33 24.4 17.8 10 5.7 3.5 7.2 13.7 23 32.7 44.2 51.4 53.1 51.9 48.4 46.8 47.4 50 56.7 60.2 56.5 46 19 -2.7 5.5 5.4 5.5 5.3 5.3 5.2 5.3 5.4 5.3 6.3 6.3 6.1 6.1 5.5 -2.7 -2.7 -0.9 1.8 5.6 5.6 5.7 6 6.7 4.6 -2.7 -2.7 5.8 5.2 5.7 6.1 6.2 5.5 5.2 5.3 6.5 7.5 7.3 6 5.9 6.1 6.1 6.1 -2.7 -2.7 5.8 6 6.1 6.8 6.6 6.4 6.3 6.8 7.2 11.1 15.6 21.7 28.7 33.2 37.1 42.3 47.5 51.1 55.2 60.7 66.4 73.6 87.6 97.1 107.8 120.5 134.2 150.4 162.9 173.3 177 170.1 159.3 158.2 161.6 164.7 167.1 169.9 172.4 173.1 169.5 159.3 147.9 146.7 144 141.6 139 139 140 139.5 139.6 143.3 140.4 140.1 139.4 138.4 138.8 136.1 134.5 132.6 132.2 128.5 124.5 117.7 110.8 106.6 101.5 97.6 97 96.6 92.4 97.6 103.3 112.6 114.3 112.1 108.8 101.9 96.6 97 98.1 98.2 92.3 85.7 81.4 76.9 76.4 75.5 72.5 67.8 65.6 68 77.1 82.3 79.8 80.6 82.4 91.5 99.9 93.5 85.6 80.2 80.6 82.3 84.5 85 92 98.9 108.2 111.5 108.8 107.1 110.6 109.9 113.1 128.3 139.9 161 184.6
112.8 113.2 112.5 111.8 105.8 93.5 90.4 88.1 85 75.5 65.8 56 48.1 43.4 34.4 24.7 19.6 14.8 6.5 5.2 7.1 10.4 18.8 25.6 30.8 34.2 35.9 35.7 38.1 42.8 47.7 55.1 57.9 57.3 46.3 16.4 -2.7 -2.7 5.2 5.6 5.3 5.4 5.1 5.5 5.3 5.3 5.3 6.5 6.2 6.2 5.2 -2.7 -2.7 -2.7 1.3 5.6 5.6 5.8 6.2 6.7 6.1 -2.7 -2.7 5.7 5.3 5.7 6.1 6.1 5.8 5.3 5.2 5.4 7.5 7 6 6.4 6.3 6.3 6.2 -2.7 -2.7 6.5 6.6 6 6.7 6.3 6 6 6.8 10.1 15.7 19.5 25.9 34.2 39.6 39.9 43.3 46.9 50.9 55.5 61.2 65.6 77.4 90.3 102.3 110.6 121.1 135.2 151.7 163.4 168.8 172.4 170.4 160.6 160.5 164.8 167.8 173 174.2 173.8 171.6 165.3 157.9 152.2 148.6 146.3 142.5 139.2 138 145 139.1 138.9 140.7 141 142 141.4 142.8 141.7 137.4 131.6 129.7 127.7 124.1 119.3 112 107.7 103.2 99.9 99.2 98.9 96.7 92.8 97.5 102.9 111.7 115.6 115.2 110.9 104.6 98.3 97.1 99.9 97.1 92.1 86.4 81 78.2 80.9 80.6 72 67 65.6 69.9 76.5 80.9 79.8 77.5 82 90.6 94.2 89.1 83 79.3 75.3 81.6 82.4 85.5 95.8 102.4 108.1 109.9 109.1 111.4 108.8 109.9 114.1 129.6 139.2 159.2 181.3
118.6 116.5 119 118.1 113.2 101.6 97 95.3 92.7 85.4 76.5 67.3 60.8 54.1 45.2 38.7 27.3 19.7 14.5 8.3 3 6.6 10.6 9.1 12.5 18.3 21.7 24.1 30.2 38.2 43.6 48.6 51.6 49.3 37.1 11.9 5.8 -2.7 -2.7 -2.7 3.3 3.3 2.7 4.1 5.2 5.3 5.4 5.6 5.7 7.3 5 -2.7 -2.7 -2.7 -2.7 5.6 5.6 6 6.4 -2.7 -2.7 -2.7 -2.7 5.8 6.1 6.4 5.2 6.2 5.8 5.6 5.6 6 6.6 6.7 -2.7 -2.7 -2.7 -2.7 6.4 -2.7 -2.7 6.1 6.3 6.7 6.6 6.4 6.1 5.4 7.2 12.8 17.1 20.2 24.3 32.5 36.9 38.6 40.7 44.5 51.4 58.6 63.8 72.2 83.1 94.3 105.6 114.5 123.1 135.6 150.3 162.1 169.5 172.8 170.9 162.3 164.3 167.4 172.7 178.5 176.4 174.1 171.4 167.9 160.6 156.7 150.4 143.4 140.2 138.9 139.8 140.8 138.8 144.4 148.7 143.9 143.5 144.5 145.6 144.4 134.2 129.4 126.7 124 121 116.3 110 104.2 99.8 98.6 101.8 100.1 96.2 95.1 95.1 101.9 109.8 113 114.2 111.4 105.7 101.5 98 96.2 94.3 90.5 85.2 81.1 81.4 86.6 79.7 71 67.1 66.4 70.7 75.9 79.5 79.9 75.8 78.9 87.8 90.3 85.9 80.4 76.3 77.4 83.2 84.4 88.8 96.7 101.6 106.3 107.8 108.6 114.6 108.2 111.1 110.6 120.2 139 164.9 176.6
120.6 119.3 122.3 121.5 116.8 112.1 105.8 103.3 100.2 92.9 83.4 76.2 69.7 60.3 51.2 43.1 36.7 24.3 17.3 10 6 5.4 6.2 6.2 6.3 7.3 11.9 12 19.4 29.6 36.7 39.6 38.4 34.6 25.3 8.8 -2.7 -2.7 -2.7 -2.7 -2.7 -2.7 -2.7 -2.7 -1.6 2.9 3.4 3.1 2.8 5.6 3.6 -2.7 -2.7 -2.7 -2.7 5.7 5.9 5.7 -2.7 -2.7 -2.7 5.8 5.9 6.1 -2.7 -2.7 -2.7 5.1 6.1 6.1 6 6.3 6.5 -2.7 -2.7 5.4 6.5 -2.7 -2.7 -2.7 -2.7 6 6.3 6.2 5.9 5.5 5.4 5.1 8.4 13.9 16.7 19.2 22.9 28.5 34.4 39.8 44.7 48.9 54.4 61.9 68.5 79.4 90.1 99.2 108.7 117.9 128.2 139.8 155.9 165.9 172.7 171.9 169 164.1 166.6 170.2 177.1 176.3 174.9 172.3 172.9 168.2 162.9 157.6 148.2 142.3 142.8 137.6 136.6 138.7 138.7 145.7 146.4 148.7 145.3 144.8 145.1 142.4 132.4 127 125.1 123.5 120.1 113.9 108.1 102.1 99.3 99.2 99 100.6 96.4 92.4 92.5 98.3 103.5 106.6 108.8 107.3 103.3 100.2 97.7 94.5 91.6 88.2 84.3 80.9 80.1 79.7 78 71.9 68.2 66.1 70.3 74.5 77.9 79.7 75.8 76.8 85.9 87.9 79.4 78.4 78 80.6 85.4 86.9 91.6 95.3 100.4 104.4 105.2 107.2 114.3 107.3 110.3 101.6 110.3 125.5 153.7 173.5
122.9 121.8 125.5 124.6 120.8 117.9 113.7 109.2 106.2 98.4 92.4 87.7 75.8 66.7 56.3 48.7 41.7 32.9 20.6 13.9 7.1 4.6 5.7 5.8 6.2 6.3 6.1 6.1 9.3 16 28.7 35.2 31.3 23.6 17.8 8.6 -2.7 -2.7 -2.7 -2.7 -2.7 -2.7 -2.7 -2.7 -2.7 -2.7 -2.7 -2.7 -2.3 1.7 -0.1 -2.7 -2.7 -2.7 -2.7 5.9 5.9 -2.7 -2.7 -2.7 4.3 5.2 6 -2.7 -2.7 -2.7 -2.7 -2.7 6.3 6.5 6.5 -2.7 -2.7 -2.7 -2.7 6.1 6 -2.7 -2.7 -2.7 -2.7 6 6.1 5.9 5.6 5.6 5.7 6.4 10.7 15 17.3 22.1 26.1 31.2 38.1 45.3 52.4 57 63.8 72.1 79.2 87.3 97.5 105.5 113.5 122.8 132.2 147.7 165.3 167.1 170.6 169.6 163.9 163.9 167.1 171.7 177.1 176.1 173.2 170 167.1 164.5 158.6 152.2 147.5 142.8 141.8 136.7 135.6 136.8 137.5 143.2 145.2 146.8 147 146.7 146.6 138.3 129.2 124.9 123.3 123 119.7 112 106.4 101.9 99.2 98.9 97.7 99.7 94.3 91.8 93.2 92.5 95.4 99.8 101.9 101.7 99.7 97.9 97.1 92.4 88.7 85.9 82.4 79.6 79.2 80 77.5 71.5 68.4 67.5 68.6 71.7 76.4 77.7 74.7 76.2 83.3 82.8 77 77.5 78.1 80.4 87.1 88.8 90.5 94.6 98.1 102.8 101.6 104.6 110.9 108 109.9 100.6 108.6 124.7 150.3 160.2
123.1 125.5 130.1 129.4 123.8 123.1 113.8 110.7 108 102.6 99 92 80.5 72.9 61.8 56.6 45.5 38.1 27.7 17 11.9 6.8 3.2 6.4 6.5 6.3 6 6.1 6.4 10.6 21.3 29 27.6 22.6 15.2 7.9 -2.7 -2.7 -2.7 -2.7 -2.7 -2.7 -2.7 -2.7 -2.7 -2.7 -2.7 -2.7 -2.7 -2.7 -2.7 -2.7 -2.7 6.3 5.5 6.1 -2.7 -2.7 5.6 6.4 6.2 6 6.1 -2.7 -2.7 6.4 -2.7 -2.7 4.7 5.6 -2.7 5.1 6.6 6 5.7 5.6 5.5 5.6 5.6 5.6 5.2 5.8 5.8 5.6 5.6 5.8 5.9 7.3 15 18.2 19.7 22.2 28.2 34 42.3 51.9 59.2 67.9 77 83.9 92.2 102.2 107.2 112.8 118.5 127.7 135.8 151 165.3 166 167.3 166.6 160 162.9 166.1 175.5 178.7 172.1 169.4 166.1 162.3 153 147.2 146.9 144.4 142.3 143.5 137.5 134.4 133.3 134.3 139.9 143 143.9 145.3 146.6 143.9 134.9 127.6 124.4 122.2 118.7 117.6 110.9 105.3 101.5 99.1 98.7 96.4 96.7 93.7 91.5 91.5 91.2 92.6 96.1 98.6 99.2 97 95.4 95.2 92.1 86.8 85.3 81.2 79.8 80.2 81.5 77.6 71.6 68.2 68.3 68.6 69.6 74.1 75.4 73.4 72.8 80.4 77 76.4 78 78.9 82.6 87.5 87.5 92 94.9 97.5 101.1 100.1 101.8 106.8 109.7 107.7 100.5 105.9 129.2 144.3 147.4
125.3 127.6 132.1 132.6 124.3 117.4 117.9 117.5 114.7 109 102.6 96.4 85.3 77.6 70.1 63 53.2 41.3 32.6 22.4 15.5 10.1 5.8 5.8 6.2 6.5 6.1 6.4 6.7 8.4 16.6 24.5 27.3 22.3 12.7 -2.7 -2.7 -2.7 -2.7 -2.7 -2.7 -2.7 -2.7 -2.7 -2.7 -2.7 -2.7 -2.7 -2.7 -2.7 -2.7 8.6 10.6 8.8 5.8 6.1 -2.7 -2.7 7 6.6 6.4 6.4 -2.7 -2.7 6.5 6.3 6.2 -2.7 -2.7 -2.7 -2.7 6.2 6.3 6 5.6 5.6 5.6 5.8 5.7 5.7 5.7 5.7 5.8 5.8 5.7 5.9 6 12.6 18.3 17.7 18.9 20.6 27.1 35.3 47 58.3 68.7 78.2 86.8 95.4 103.9 109.3 115 122.8 128.5 133.3 139.9 150.8 161.7 165.2 163.9 158.8 158.7 161.1 168.9 177.9 173 168.6 167.9 163.1 157.1 151.2 148.4 145.8 144 142.6 141.6 138.1 134.3 132.2 134.1 140.6 138.4 137 138 144.9 142 134.8 128.4 126.2 122.4 117.7 112.5 109.4 105.3 101.8 97.8 95.7 94.8 94.7 91.7 91 91.7 90.9 91.6 95.3 99.4 99.3 95 92.8 92.5 89.5 84.7 83.7 81.3 82 81.6 81.8 77.6 72.2 69.8 70.8 69 68.6 72.7 73.4 70.3 70.7 75 74.2 77.2 78.5 79.7 85.1 85.9 87.7 91.4 92.9 98.9 102.2 100.6 99.9 101.9 103 105 101.6 106.4 116.6 126.9 133.2
125.6 126.2 132 126 123.4 124.9 127.6 124.7 119 114.6 107.5 100.8 92.2 81.9 72 64.2 55.4 44.5 36.9 27.7 18.2 13.1 8.4 5.2 5.6 6 6.5 6.6 6.7 7.4 12.3 25.3 28.7 20.8 11.7 8.4 -2.7 -2.7 -2.7 -2.7 -2.7 -2.7 -2.7 -2.7 -2.7 -2.7 -2.7 -2.7 -2.7 -2.7 3.9 9 11.7 8.5 5.9 6.2 -2.7 -2.7 5.1 6.6 6.3 -2.7 -2.7 -2.7 6.2 5.9 5.7 6.1 5.3 6 5.8 5.8 5.9 5.7 5.6 5.8 6.2 6.1 6.1 6.1 5.9 6 6.5 6 6.6 6.7 6.5 16 17.3 17.4 18.7 19.8 25.6 38.4 49.8 63.1 74.8 86.9 95.5 103.7 109.8 114.8 123.1 134.9 144.8 149.1 147.4 154.9 165.6 162.1 158 158 158 160.8 172.8 178.3 170.5 169.1 166.1 164 159.5 156.9 153.9 146.5 145.3 142.7 139.3 135.3 131.8 129.8 132 135.1 131 131.6 134.5 137.3 139.5 134.8 132 126.9 123.5 117.1 113.1 110 105.9 101.7 96.8 93.2 93.9 92.8 91.4 94.4 96.2 92.5 90.8 93.8 97.5 97.3 93.1 90.8 89.5 82.8 79.2 81 81.8 82.3 82.3 80.1 77.3 74.5 71.3 72.3 68.4 67.5 70 71.7 68.9 69.3 72.1 74.6 76.1 78.1 80.1 82.8 86.4 89.8 90.9 91.4 100.1 104.3 101.3 98.9 98.9 99.9 104.9 106 103.1 107.2 116.8 129.9
129.2 128.2 128.4 128.2 131.5 133.9 135.8 133.4 125.2 117.4 111.5 104.1 97.1 86.4 78.2 68.7 58.7 47.8 40.6 31.3 22.9 15.7 10.3 5.9 5.5 5.4 5.7 5.9 5.6 6.6 11.7 28.6 30.8 21.1 11.1 -2.7 -2.7 -2.7 -2.7 -1.7 -0.9 -2.7 -2.7 -2.7 -2.7 -2.7 -2.7 -2.7 -2.7 -2.7 5.1 5.9 8.2 6.8 5.8 5.7 5.8 -2.7 -2.7 6.7 6.2 -2.7 -2.7 6.3 6.2 6 6.3 6.5 6.6 6.6 6.4 6.4 6.8 7.4 7.5 7.5 7.2 6.9 6.8 6.6 6.4 6.2 6.4 7.3 8.1 8.3 7.5 14.3 16.2 17.4 18.4 19.6 25.7 39.9 52.3 66.3 79.7 89.1 97 105.6 113.6 119.7 130.9 146.3 158 163.9 164 156 160.1 158 158 158 158 165.2 176.2 173.3 168.9 165.6 161.7 161.5 160 156.6 154.9 150.3 146.5 143.8 138.5 132.5 130.7 126.8 126.8 128.9 129.2 125.8 127.8 131 132.6 131.2 127.7 128.3 123.7 117.1 114.9 111.1 106.9 100.8 96.9 93.4 92.3 91.3 93.8 98 101.8 97.7 93.1 91.9 94.6 94.6 91.5 88.8 88.5 82.7 77.9 80.3 81.5 82.5 80.7 77.2 78.2 74.4 71.9 72.3 67.5 66.9 67.7 68.9 68.1 68.6 71.9 72.9 75.4 77.1 80.3 82.6 87.5 89.9 89.6 91.2 100.8 102.6 100.5 97.6 98.1 100.8 102.4 105 104.7 104.4 112.4 119.8
130.9 133.9 132.4 132.9 137.6 141.6 142.6 138.3 128 119.5 113.2 106.9 100.2 91.7 82.5 71.3 62.4 51.9 41 33.4 25.9 19.2 15 8.6 6.5 5.8 5.5 3.2 5.7 6.1 11.6 31.1 33.1 22.8 8.2 -2.7 -2.7 -2.7 -1.2 -0.1 0.9 1.8 1.9 -2.7 -2.7 -2.7 -2.7 -2.7 1.5 4.8 5.2 5.1 5.5 5.4 5.7 6.4 6.8 -2.7 -2.7 -2.7 -2.7 -2.7 5.6 6.7 6.3 6 7 8.1 8.1 7.9 8.1 8.7 9.1 9.2 9 8.8 8.5 8.3 7.3 7.1 6.9 6.8 6.5 7.2 8.2 7.8 8.6 11.8 15.1 16.2 16.8 21 26.2 41.5 54.8 69.1 81 90.1 97.2 104.3 113.8 125.3 141.6 155.4 172.3 178 181.1 168.2 160.2 158 158 158 158 166.6 173.7 169.9 165.7 163.7 162 162.1 160.6 157.6 153.9 152.3 150.3 143.2 135.9 133.2 128.9 127.2 126.5 126 126.6 124.7 124.2 125.4 126.9 125.3 124 122.3 121.8 116.9 115.2 112 107.2 101.9 98 93.2 92.2 91.8 97 101.8 106 100.2 95.3 91 90.5 90.5 88.7 85.8 85.5 79.7 76.7 79 79.8 79.9 77.3 74.7 73.2 71.2 69.5 70.2 66.8 66.4 67.1 67.9 67.1 68.5 70.2 73.4 75.8 78.9 79.8 82.3 86.8 88.9 88.2 91.7 100 101.4 99.3 96.2 99.5 102.2 101.8 108.3 111.7 106.5 111 117.6
133 133.2 135.2 138.6 144.3 148.4 143.6 138.9 130 121.9 116.7 110.4 100.6 92.6 83.4 71.1 63.1 55.3 43.9 34.8 29 24.8 21.2 12.1 8.8 7.3 6.7 6.2 5.9 5.8 8.1 30.1 35.2 24.9 9.5 -2.7 -2.7 -2.7 -0.3 1.1 2.4 4 7.4 6.9 6.5 5.8 6 5.5 4.9 5.7 4.8 4.9 5.2 5.5 5.6 6.5 8 8.2 -2.7 -2.7 -2.7 -2.7 5.6 6.1 6.1 6.1 8.3 8.9 9 9.2 8.8 9.2 9.3 9.3 9.1 8.9 8.8 9.1 8.6 8.2 7.3 7.7 7.4 6.2 6 6.1 7.1 10.4 13.2 14.7 16.6 22.7 27.2 44.4 57.6 70.8 81.9 90.2 95.9 107.2 118.3 135.2 152.8 169.7 179.5 187.5 189.3 181.3 161.9 158 158 158 158 163.1 167.9 166.9 164.5 164.9 165.4 162.7 159.1 156.5 154.1 149.8 145.9 138.9 134.8 131.3 131.4 126.3 127 125.4 122.3 121.9 121.8 122.2 120.8 120.7 120.7 117.4 119.4 117.8 113.8 110.9 106 103.2 99.4 94.7 92.3 91.8 97.1 104.4 107.7 101.8 96.9 91.5 86.9 87.8 84.6 81.9 80.9 76.6 74.5 75.1 77.5 77.7 77.3 72.5 71.6 68.9 68 67.8 66 66.6 66.6 67.8 68.2 70.4 72.2 73.3 75.8 80 79.7 82.3 86 87.5 86.4 92.6 96.8 99.3 98.3 96.1 102.3 105.9 107.3 108.1 112 111.2 112.3 116.8
133.8 132.7 138.1 145.7 146.1 147.8 139.9 134.9 129.5 122.8 118.4 107 99.7 91.5 83.6 73.5 63.5 56.6 45.7 36.9 31.9 30.4 23.8 16 14.3 10.2 7.4 6.8 5.9 5.6 6.3 28.1 35.2 22 9 -2.7 -2.7 -2.7 0.2 2 3.4 7.4 6.7 6.8 6.3 6.1 6.1 4.9 4.9 4.9 4.7 4.8 5.1 5.5 6.3 9 9.4 7.3 -2.7 5.9 -2.7 6.6 6.3 6.1 6.2 6.2 7.8 9 9.1 9.3 9.6 9.2 9.3 9.3 9.1 9 8.8 9 8.7 8.7 8.5 8.5 8.6 7.6 6.9 6.2 6.3 9.3 11.7 10.9 19.6 30.1 37.9 49 60.3 71.1 82.1 91.8 102.6 115.3 128.2 145 161.8 172 184.5 193.9 193.1 184.3 170.7 158 158 158 158 163.8 168.5 167.5 166.8 166.4 169.8 165.7 161.2 156.2 153.4 149.2 142.6 135.8 131.7 128.8 128.7 125.4 124.3 124.6 120.6 120.1 119.1 118.3 119.8 118.7 117.2 115.9 119.6 117 114.1 108.2 107.6 107.4 101.8 96 93.6 91.7 95.2 101 102.7 98.8 92.4 88.3 85.5 84.6 82.5 81.1 81.1 77.9 74.1 75.7 76.2 75.2 74.3 73.6 70.4 68.3 67.4 66.6 65.8 66.6 67.2 68.6 69.4 71.9 72.7 74 76.1 78 80 81.9 83.9 85.9 85.9 90 96.8 97.5 97.7 98.9 101 105.1 112.2 116 115.6 116.6 121.8 124
133.7 131.6 138.6 143.9 141.4 141.9 135 131.4 129.6 122.9 114.2 108.3 98.9 88.2 81.3 74.4 64.9 57.9 48.3 40.6 37.8 35.4 28.8 20.1 21.6 13.6 6.7 6.5 5.9 5.7 6.8 22.7 27 8.8 -2.7 -2.7 -2.7 -2.7 1.1 3 5.1 6.3 6.4 6.6 6 6.2 5.5 4.8 4.7 4.8 4.7 4.7 5 5.8 7 11.1 8.9 7.2 6 7.1 6.5 6.8 6.6 6.3 6.2 6.3 8.3 8.7 9.1 9.4 9.3 9.3 9.3 9.3 9.2 9 8.9 8.9 8.8 8.8 8.8 8.9 9 8.5 7.2 6.4 6.3 7.6 10.1 11.9 25.1 33 44 56.9 70 80.5 90.9 101.5 111.4 123.5 138.1 154.5 164.9 179.5 189.6 198.3 197.2 185.4 170 158 158 158 159.7 168.3 171.8 173.1 172.5 173.3 169.6 166.5 162 158.3 152.3 149.5 145.2 135.5 130.1 127.6 125.4 125 124.4 123.5 119.4 118.9 118.6 118.3 118.8 118.4 116.6 116.8 115.4 114.3 112 106.5 110.6 108.2 100.9 97.3 93.4 92.5 93.5 94.6 94.9 93 89.4 86.6 82.6 82.4 81.1 83.6 80.6 79.3 73.9 76.4 77.2 75.7 72.9 73.7 71.2 68.6 67.1 65.9 65.9 66.8 67.4 69 70.4 72.2 73.3 73.4 75.3 77.4 80 80.9 83 84.3 86.1 89.3 94.7 95 97 98.6 102.9 108.2 114.9 118.1 122.9 121.1 119.9 129.4
133.9 131.5 132.5 137.3 134.9 133.1 128.8 126.8 125.1 121 115.8 108.1 95.8 86.2 80.9 73.5 65.6 58.4 50.2 43.1 40.1 37.2 31.3 25.1 25.5 18.5 6.7 6.4 5.7 6.3 -2.7 10.2 19.9 9.3 -2.7 -2.7 -2.7 0.5 3.5 5.3 6.5 5.8 6 6.4 6 6.1 5.8 5.1 4.5 4.7 4.8 4.7 5.4 6.6 7.8 9.6 9.8 8.5 7.5 7.5 6.8 6.9 6.7 6.5 6.3 6.9 7.2 8.5 8.9 9 9 9 9 9.1 9.1 9.1 9 8.9 8.9 8.8 8.8 8.8 8.8 8.7 7.8 7 6.5 9.7 15.6 23.6 29.4 36.8 50.1 65.9 79.2 89.9 100.9 111.2 118.9 129.7 144.6 161.5 175.6 188.2 190.3 197.4 184.9 174.5 169.8 162 162.4 163.1 167.5 175.3 180.4 180.9 177.3 175.7 174.1 169.2 162.8 156.6 151.8 149.7 145 136.5 128.5 127.4 125.4 125.6 126.1 123.8 120.7 120.7 120.4 121.2 118.3 115.8 115.2 115.7 114.1 111.2 109 107.8 108.7 104.7 102.1 99.5 95.8 94.1 91.1 89.4 89.1 89.3 87.1 83.8 79.9 77.9 78.2 80.8 80.8 77.2 72.8 78.7 80.1 79.5 72.5 73.4 73.6 69 66.6 65.6 66.2 67 67.5 68.5 70.7 73.3 73.4 72.5 74.3 76.8 79.5 81 82.3 83.2 84.8 89.4 91 92.1 95.8 98.1 104.3 108.9 113.8 118.6 124.6 128.9 124.9 124
135.6 128.9 125.2 129.4 128.7 127.4 122.8 123.2 122.1 117.7 113.9 105.7 92.4 84.9 79.9 74.2 64.4 57 50.7 48 44.6 39.1 36.4 30.3 29.3 22.7 8.8 6.7 6.9 6.6 -2.7 4.3 8.7 9.3 -2.7 -2.7 -2.7 7 5.2 5.2 5.2 5.5 5.8 6.1 6 5.8 5.4 5.2 5 4.9 5 5.1 7.7 8.7 9.1 9.9 10.6 9.4 8.8 8.1 7.3 7.1 6.9 6.6 6.4 6.2 6.4 8.3 8.5 8.6 8.7 8.7 8.6 8.5 8.7 8.8 8.8 8.8 8.9 8.8 8.8 8.8 8.8 8.7 8.1 7.3 6.6 10.3 16.3 23.9 30.5 41.4 57.8 74.5 88.1 99.2 108.4 116 123.1 132.7 150.2 167.1 181.5 187.9 180.4 181 177.5 172.7 177 170.2 169 169.5 176.4 183.3 187.9 188.8 183.3 180.5 176.9 169.2 161.6 153.7 149.6 148.1 143.9 140.8 132.1 128 127.3 126.9 125.9 127.1 126.5 126.6 120.7 121.1 120.9 119.4 117.4 114 111 111.1 109 105.2 101.9 102.8 105.1 98.6 96.8 93.9 91 88.4 87.7 89 86.3 82.6 76.1 74.6 74.4 77.7 79 77.6 71.6 77.8 83.7 78 73 74.3 75.7 70.3 66.3 65.1 66.3 67.1 68 69.6 71.5 74.9 74.2 72.4 74.2 77.4 78.9 80.2 81.7 83.2 85.3 88.7 90 91.3 94.6 97.7 104.3 108.9 113.3 117.7 123.5 129.1 133.8 130.3
133.3 124 119.5 121.8 122.8 122 116.7 117.6 117 114.9 109.9 99.7 89.9 82.8 78.3 72.1 62.8 57.7 54.2 53.9 50.9 45.9 37.9 34.6 33.3 24.9 11.5 6.7 6.8 6.7 -2.7 -2.7 9.4 -2.7 -2.7 -2.7 -2.7 5.2 5.2 5.2 5.4 5.6 5.8 6.1 6.2 5.8 5.5 5.2 5 5 5.4 6.5 9.7 10.5 11.1 11.5 10.6 9.5 10.3 9.2 8.1 7.2 7 6.7 6.5 6.4 6.3 7.8 8.1 8.2 8.4 8.2 8.1 8.1 8.3 8.4 8.4 8.6 8.8 8.8 8.8 8.8 8.8 8.8 8.6 7.7 7.3 10.7 17.9 25.1 34.7 47.1 63 77.3 91.9 101.9 113 120.4 126.3 136.1 154.2 169.1 170.4 168.1 166.7 168.5 171.6 183.6 178.5 179.4 173.7 177.8 185.4 189.2 194.8 195.1 193 189.8 177.6 168.6 162.1 155 149.5 146.9 143.8 139.7 132.8 131 129.2 130 131.8 133.8 131.6 129.3 125.2 128.8 128 124.9 120.2 116.3 111.1 109.1 107.5 104.1 104.4 108.2 103.2 99.2 96.1 93.1 88.1 87.8 87.3 88.3 84.6 80.2 74.2 70.2 70.7 73.9 74.2 71.3 71.4 77.4 83.9 78.1 73.1 73.3 75.3 71 66.2 65.2 66 67 69.2 71.4 73.6 76.2 74.7 73.1 74 76.5 80.2 80.9 81.7 82.9 85.4 88.5 89.8 91.4 94.9 101.4 105.7 108.5 112.4 116.8 121 127.6 134.3 136.6
131.1 120.6 114.2 114.5 114.8 113.3 109.4 111.3 110.9 109.2 103.1 94.4 88.8 80.7 75.6 69.7 63.7 60 58.4 59.5 54.8 49.2 44.3 40.8 35.2 26.7 17.9 8.1 6.4 6.7 -2.7 -2.7 9.3 -2.7 -2.7 -2.7 5.2 5.2 5.2 5.2 5.4 5.8 5.9 6.1 6.3 5.7 5.4 5.3 5 5.3 5.6 6.7 9.8 10.2 10 10.8 9.2 10.7 11.6 10.8 9.2 7.5 7 6.8 6.7 6.5 6.5 7.4 7.7 8 8.2 8.3 8 7.8 8 8 8.1 8.3 8.6 8.8 8.8 8.8 8.8 8.8 8.8 8.1 8.1 11.6 19.4 28.3 41.5 54.4 66.3 77.3 89.1 102.8 116 124.1 126.7 138.6 152.5 161.9 158 158.9 159.3 169.1 175.4 182.2 188.8 186.4 181.2 184.9 190.4 195.5 201 204 195.7 185.3 177.2 168.3 162.5 156.1 152.2 149.7 146.3 141.1 136.9 133.8 133.8 135.6 136.1 135.3 134.2 130.7 132.8 135.8 136.6 131.7 129.3 119.8 113.3 107.2 105.5 103.6 106.6 107.6 99.1 96.2 94.7 92.1 88 87.6 87 87.1 82.8 80.1 76.2 74.4 68.1 70.6 69.6 69 73.2 77.7 82.8 76.5 70.3 71.9 73.7 69.8 65.7 65.4 66.3 67.6 71.3 74.2 74.8 77.3 75.4 74.5 74.3 76.1 78.1 80 81 82.3 84.3 88 92 94.1 95.9 100.3 103.4 108 110.4 114.4 118.6 128.4 133.2 136.4
128.8 119 112.1 110.4 108.8 104.2 104.2 104.1 105.1 102.9 98.7 92.3 84.3 76.8 74 68.8 65.1 63 61.6 61 54.4 51.6 49.1 47.5 44.7 32.7 21.9 11.5 6.6 6.5 9 -2.7 -2.7 -2.7 -2.7 7.9 5.2 5.2 5.2 5.2 5.4 5.8 5.9 6.2 6.4 5.6 5.3 5.2 4.8 4.9 5.2 5.8 7.4 9.1 10.1 10.7 10.8 13.2 13.6 13.3 11 8.7 7.2 7 6.8 6.7 6.8 7.4 7.6 7.9 8.1 8.3 8.1 8 8 7.8 7.7 7.9 8.2 8.5 8.7 8.7 8.8 8.8 8.8 8.3 8.2 12 19.9 32.1 46.4 59.7 70.2 78.4 90.6 108.6 123 125.9 124.6 137.4 155.5 156 147.1 144.3 153 162.5 171.1 180.6 182.2 184.5 180.5 192.9 197.7 202 201.5 195.7 191.8 185.3 173.7 167.3 162.2 156.8 153.3 151.2 149 144.9 142.8 141.5 139.1 138.9 140 142.1 136.7 135.7 141.3 142.6 143.7 145.1 135.5 118 110.3 106.5 104.8 106.3 105.2 101 96.8 96.7 94.1 91.7 88.4 88.2 85.7 84 82.1 78.5 78.3 74.6 69.3 67.7 66.8 69.4 74.5 78.5 77.5 70.1 69.5 71.8 72.8 68.4 65 65.5 66.2 68.4 71.2 73.1 73.8 76.8 75.8 74.5 74.5 75.5 77.4 80.1 80.5 81.4 84.2 91.2 92 94.7 97.5 100.8 103.5 106.9 109.2 112.4 117.8 127.1 132.6 137.2
127.9 118.3 110.5 107 101.7 100.9 100.5 97.7 97.9 97.8 92.8 87.1 80.4 75.3 72.2 68.6 66.9 65.3 60.6 58.2 57.3 56.2 54 51.9 48 37 26.7 19 8.2 6.5 9.3 -2.7 -2.7 -2.7 1.8 6.1 5.5 5.7 5.4 5.4 5.6 5.8 6 6.3 6.3 5.6 5.2 4.7 4.6 4.7 4.8 5.2 6 7.4 11.3 10.5 11.1 13.6 15.7 15.9 13.4 9.8 6.8 6.8 6.8 6.8 7.2 7.5 7.9 8.2 8.4 8.5 8.3 8.2 8 7.9 7.8 7.7 7.9 8.3 8.4 8.5 8.5 8.6 8.6 8.7 8.7 13.1 20.3 32.1 44.9 58.3 68.6 77.5 90.8 112.5 125 121 120 132.9 148 141.2 136.2 140.9 147.9 159.3 158.7 168.4 171.1 170.3 181 192.4 192.2 201.6 194.8 189.2 182.3 176.8 168.4 164.8 160.4 155.4 152.8 151.1 149.7 147.8 145.6 141.8 141 144.4 146 143 142.7 148.4 151.6 153.5 151.8 146 127.1 112.5 109.9 108.5 105.6 101.9 102.4 100.6 98.6 97.3 94.6 90.9 89 89.2 87.2 83.7 77.5 78 76.1 70.9 68.7 64.9 64.1 67.3 66.6 70.7 70 68.4 69 72.9 72.4 67.2 64.5 64.5 66.1 67.6 69.6 71.8 72.5 75.4 73.8 76.3 74.4 74.7 76.6 79.1 79.5 81.3 86 89.8 92.2 97.6 98 100.2 102.9 105.8 107.9 110.8 117.3 125.5 132.8 138.1
129.3 118.1 110 105.7 100.6 97.5 97.2 94.9 94.8 93.3 90.9 84.5 77.3 74.7 70.9 71.2 68.5 63.9 60.8 62.5 61.9 60 57.5 55.9 50.9 42 32.8 25.9 15.4 6.6 9 -2.7 -2.7 -1 2.5 5.8 6 6.2 6.2 5.7 5.7 5.7 6.3 6.2 5.9 5.5 5.2 4.8 4.7 4.7 4.9 5.1 5.7 6.4 7.7 8.6 10.7 13.7 17.2 17.9 15.3 10.6 7.3 6.5 6.5 7.4 8.3 8.2 8.6 8.5 8.3 8.6 8.5 8.4 8.2 8.2 8.2 8.1 8.1 8.2 8.3 8.3 8.3 8.4 8.5 8.6 8.7 11.5 16.8 26.4 36.9 47.6 54.7 66.1 81.6 99.2 111.9 110.2 111.5 123.2 131.2 130 129.9 140.3 144.8 143.1 152.2 159.9 161.5 162.8 180.2 188 190.9 190.6 185.9 180.1 176.9 172.6 167.6 164.3 158.8 153.5 151.6 151.2 150.5 148.5 145.5 142.1 145.3 148.5 150.3 148.1 152.3 156.4 162.1 163.1 153.7 132 118 112.5 109.2 108.7 106.2 104.5 98.2 97.7 95.2 94.2 92.6 91.2 89.2 89.7 83.7 80.6 74.8 74.5 72.2 69.4 68.1 64.7 63.4 62.8 64.2 66.9 68.7 66.5 69.6 72.8 70.7 66.1 63.7 63.9 65.7 66 67.1 68.4 71.9 73.3 73.2 74.4 73.1 73.7 76.3 77.5 80.4 83.4 87.9 88.3 93.8 96.9 98.7 100.6 102.3 104.4 106.6 110.3 118 124.3 132 139.5
132.7 118.7 111.7 108.1 102.7 96.6 94.1 92.2 91.5 88.5 84.8 81.7 78.7 73.6 72.5 72.1 68.8 63.9 65.1 66.7 66.1 65.2 62.4 60.1 53.3 47.2 39 28.3 18.6 6.7 -2.7 -2.7 -2.7 -0.1 2.4 6 6.2 6.4 6.1 5.8 5.8 5.7 6.2 6.1 5.8 5.5 5.3 5 4.9 4.8 4.9 5.2 5.5 5.9 6.5 7.2 9.3 13.8 17.5 18.8 17.5 13.3 8.7 6.6 6.9 8.3 9.2 8.7 8.5 8.3 8.4 8.7 8.7 8.6 8.5 8.4 8.3 8.3 8.3 8.4 8.2 8 8.1 8.3 8.4 8.5 8.6 8.8 12.4 18.1 25.9 33 37.9 48.2 64.5 81 93.4 96.1 104.4 116.4 123.3 123.2 124.8 131.9 133.1 136.8 144.8 148.3 149.2 158.7 173.4 181.1 184 188.1 181.2 179 181.1 176.5 167.1 162.4 156.7 151 149.8 149.1 150.6 150.5 144.3 143.1 145.5 150 152.3 153.3 162.1 166.2 168.4 166.2 146 125 121.5 115.7 111.4 112.6 109.6 103.9 98.1 96.1 93.9 92.2 91.6 93 86.1 82.7 82.4 79.9 75.8 72.4 69.7 66.5 65.6 63 62.5 62.2 64.6 67.8 65.4 65.2 69.7 72 69.2 64.7 62.5 63.5 65 65 65.5 66.9 70.4 72.5 72 71.5 71.6 72.7 75.6 78.2 81.1 83.9 86 91.1 95.6 98.5 98.4 100.5 101.8 103.9 107 110.7 117 123.3 132.1 140
134.5 121.9 117.3 110.8 105.5 97.6 90.4 88.2 85.5 83.1 83.9 81.3 74.6 70.8 71.7 70.2 67.1 67.7 70.1 70.5 70.2 69.2 67 63.9 59.2 52.1 44.7 34.7 20.8 8.2 -2.7 -2.7 -2.7 0.3 2.3 6.1 6.4 6.3 6.3 6.1 5.9 5.9 5.9 5.9 5.8 5.6 5.4 5.3 5.3 5.3 5.8 6 6.7 7.2 7.2 6.9 8.1 12.8 17.2 18.5 19 16.5 12.1 8.2 7.5 9.4 10.3 9.4 8.4 8.2 8.5 8.8 8.9 8.8 8.7 8.6 8.5 8.4 8.4 8.5 8.3 8.3 8.2 8.3 8.4 8.5 8.6 8.8 8.8 11.8 15.4 20 24.2 33.5 48.1 63.4 75 81.6 97.6 113.4 119.2 121 119.1 121.7 124.5 131.4 136.4 137.4 141.2 155.4 170.5 175.2 180.5 186.3 181.5 182.5 182 174.8 165.8 157.4 151.8 146.4 147.1 147 150.5 154.8 141.2 143 150.7 154.9 161.7 168.2 169.5 164.8 164.6 154.4 139.5 133.6 124.7 119.4 121.6 119.7 111.8 103.7 98.6 96.7 95.5 92.2 91.9 87.4 84.4 84.5 85 82.1 75.5 69.9 66.9 67.5 64.3 62.8 61.5 61.3 64.6 67 63.4 65.7 70.2 70.6 67.1 63.1 62.1 63.3 64.2 64.2 65 67 69.4 70.8 71.2 71 70.8 73.6 75.7 78.3 80.9 85 88 91.6 94.1 97.6 98.6 99.4 100.5 102.8 105.7 109.7 117.1 122.8 129.2 141.8
135.6 126.9 121.7 113.7 106.3 98.2 88.2 86.9 85.5 83 81.8 78 74 70.5 69.4 68.1 68.3 72.1 74 74.6 73.9 73.3 71.8 67.9 63 57.8 52.3 45.5 26.6 7.8 -2.7 -2.7 -1.7 0.1 2 7.1 6.3 6.4 6.2 6 5.9 6.1 6.1 6.3 5.9 6.1 6 5.3 7 8.6 9 8.9 9.6 9.9 8.4 7.3 7.6 11.8 16.9 18.7 19.5 18.1 15.2 9.7 8.3 9.7 11.2 10.1 8.6 8.4 8.6 8.9 9.1 9 8.9 8.7 8.6 8.6 8.6 8.6 8.6 8.6 8.6 8.6 8.6 8.5 8.6 8.7 8.8 8.5 9.8 12.3 15.9 22.2 35.1 47.3 56.6 71.2 91.4 111.3 117.8 116.8 113.4 116.1 118.8 124.5 125.9 126.3 133 151 166 171 179.5 182.8 176.7 174 175.2 169.8 161.4 153 147.5 143.7 143.6 141.1 142.6 144.7 140.3 143.4 147.7 160 168.7 169.7 165.4 159.8 158.4 153 144.1 132.8 124.3 124.3 126.5 120.1 110.7 104.1 99.8 101.9 97.5 93.1 89.9 87.1 88.7 91 85.8 78.1 72.7 70.1 66.5 63.7 63.4 61.7 60.7 61.8 64.9 65.7 61.7 66.3 70.6 70.3 65.7 62.1 61.7 63 63.7 64 64.5 67.2 68.6 70.3 71.3 70.6 70.2 75 76 78 83 84.5 85.3 88.6 91.7 95.7 96.4 98.2 99.1 100.5 102.8 109.6 115.9 123.2 131.9 143.5
136.7 129.3 124.8 115.5 106.6 97.2 88.6 87.2 84.6 78.9 77.1 75.1 72.6 70.3 71 70.7 70.2 73.9 76.7 78.6 77.3 77.6 75.7 72.7 65.7 63.5 59.2 50.9 31.2 7.4 -2.7 -2.7 -1.6 0.1 1.8 3.5 6.3 6.5 6.2 5.8 6.4 6.4 6.4 6.4 6 6 5.8 5.2 7.1 9.3 10.9 10.8 10.5 9.8 8.5 7.2 7.5 11.1 17 20.3 21.1 20.8 17.9 12 9.2 9.8 11.3 10.3 8.9 8.4 8.7 9 9.3 9.2 9 8.9 8.8 8.8 8.8 8.8 8.7 8.6 8.6 8.6 8.7 8.7 8.7 8.9 8.9 8.2 7.9 8.7 10.6 12.3 22 31.5 42 61.9 83.6 100 103.3 104.6 102.1 110.1 115.7 117.2 115.2 115.8 123.7 140.9 154.2 163.8 173.4 173.9 167.8 160.7 163.4 159.9 151.6 147.2 141.9 140.5 139.9 141.7 138.7 139 136.7 140.4 150.2 165.1 169.7 164.1 158.7 156.3 154.5 151.1 141.7 129.9 124.8 130.2 127.6 117.6 109.5 105.2 105.1 101 97.4 92.8 91.3 89.7 87.8 88.6 83.3 80.9 75.8 68.6 64.5 61.8 61.1 60.3 59.9 63.4 63.6 60.7 60.9 65.9 70.2 68.9 64.1 61.6 61.3 62.4 63.3 63.7 64.2 66.3 68.7 69.8 69.7 69.1 70.6 73.8 77.4 80.6 83.4 84.3 83.9 86.3 89.7 93.5 94 95.7 98.1 99.7 102.5 108.2 114 126.6 132.7 146.5
136.2 130 124.8 113.9 105.8 97.9 89.7 83.6 82.2 82.1 79.2 76.4 72.6 70.3 71.9 70.9 71.2 73 77.4 79.9 81 82.2 79.3 75.3 71.3 66.1 59.7 53.6 34.9 7.3 -2.7 -2.7 -1.4 0.1 1.7 3.3 5.9 6 6 6.7 6.4 6.4 6.4 6.1 6 5.9 5.8 5.4 5.3 7.5 8.7 8.7 8.7 8 7.7 7 8.1 11.2 17.8 21.7 22.7 22.8 20.2 13.6 9.9 9.9 11.3 10.2 9.1 8.6 9 9.1 9.2 9.3 9.2 9 9 9 8.9 8.9 8.8 8.6 8.6 8.7 8.7 8.7 8.7 8.9 8.8 7.8 7.3 7.4 7.3 7.5 9.6 13.2 29.3 50.2 66.1 74.8 81.3 86.9 88.2 99.7 108.5 109.2 103.1 105.1 112.8 124.5 137.8 147.9 157 159.5 154.9 148.4 150 150.1 146.9 141.5 137.7 137.1 137.3 139.9 138.2 135.2 136.3 141.9 151.9 164.9 161.9 160.1 157 155 154.8 147.5 135.6 127.4 130.3 134.1 121.9 117.5 114.9 110.8 106.2 99.6 97.5 95.2 94.4 91.8 86.7 83.6 81.7 75.8 69.2 65.3 63.5 60.9 60.1 59.4 59.3 59.6 59.9 58.9 60 65.6 68.9 66.9 63.2 61.4 60.9 62.5 62.9 63.3 64.2 66 67.7 68.3 68.7 68.4 70.4 74.6 78.6 80.5 83.4 83.4 82.9 85.1 87.7 90.8 91.8 93.4 96 98.8 102.1 104.4 109.6 127 136.2 149.2
133.4 125.3 120.9 113.2 107.9 98.6 87.1 85 83.5 82.8 80.5 73.9 73.7 74.4 72 72 74.7 75.6 78.6 82.1 84.2 85 81.9 80.2 78.4 74.1 68.1 57.8 36.7 7.2 -2.7 -2.7 -1.4 0 1.5 3 5.9 6.3 6.4 6.5 6.4 6.4 6.4 6.2 6.1 5.9 5.6 5.3 5.1 6.7 6.4 6.5 6.5 6.6 6.7 6.8 7.6 12.5 19.6 23.3 23.8 24.5 21.4 14.7 10 9.6 10.9 10.5 9.9 9.4 9 9 9 9.1 9.2 9.2 9.1 9.1 9 9 8.9 8.7 8.7 8.7 8.7 8.7 8.8 9 8.4 7.3 6.8 6.6 6.5 6.5 6.4 7.4 20 35.5 44.7 52.8 63.3 70.6 81.2 91.8 99.4 100 93.3 94.6 100.9 109.5 120.6 130.3 137.6 139.7 138.9 138.1 141.3 143.7 139.8 135.9 133.8 132.6 135.3 137.1 134.9 136 139.2 143.7 147.2 154.7 157.3 152.9 154.4 154.4 149.2 139.9 130.5 128.6 130.7 127.5 121.2 121.7 118.5 118 105.1 100.1 100.9 96 95.6 94.3 91 88.5 82.5 75.6 68.8 62.3 61.3 60.9 59.9 59 58.6 58.3 58.4 58.5 58.9 65.2 68.4 66.4 62.5 61.2 60 61.3 60.3 61.1 65 66.2 67.2 67.3 67.8 68.5 70.3 74.7 79.1 80 81.4 81.9 82.5 84.7 87.1 88.2 90 91.9 93.6 96.2 99.5 102.8 108.7 126 139 150
130.3 121.2 117.5 112.8 108.1 98.1 94 89.6 83.3 79.7 77.9 73.4 73.9 74.3 74.6 75.5 77.2 80.2 80.8 82.9 86.4 86.7 85 85.9 84.1 81.9 81.7 64.2 36.7 7.5 -2.7 -2.7 -1.4 0 1.4 2.9 5.7 6.1 6.1 6.2 6.3 6.3 6.3 6.2 5.9 5.6 5.4 5 5.5 7.1 5.4 6.1 5.9 5.5 5.7 6.3 8.1 14.1 21.5 24 24.1 24.4 21.7 14.7 10.8 9.5 10.6 11.1 10.4 9.8 9.3 8.9 9 9.1 9.2 9.2 9.2 9.2 9.1 9.1 9 8.8 8.7 8.7 8.7 8.8 8.8 8.8 8.3 7.2 6.8 6.6 6.3 6.2 6.2 6.8 11.8 19 25.9 35 48.9 61.5 74.6 86.6 93.7 92.2 84.3 86.7 90.8 96.2 104.7 112.8 119.1 122.9 126 128.4 128.8 133.9 131.9 131.9 132.5 131.6 134.3 134.5 136.9 137.8 140.2 140.3 145.5 148.2 148.3 150.5 155.2 149.5 143.4 132.3 129.4 130.7 129.1 125.5 123.6 123.9 123 116.3 108.2 105.6 104.7 97.5 99.2 95.8 92.9 87.7 79 73.1 68.8 64.3 62.3 62 60 58.1 57.9 58.1 58.2 58.3 58.9 65.9 68.1 65.4 61.9 60.6 59.6 59.4 59.9 61.3 64 66 66.3 67.3 67.9 68.5 71 76.6 78.3 79.1 79.4 81.8 82.3 83 84.6 86 87.7 90.7 92.1 93.6 96.3 100.8 107.8 126.5 139.2 145.3
122.2 121.4 118.7 114 108.5 103.3 99.6 90.5 82.8 77.8 78.2 75.5 73.7 73.2 75.9 77.9 82.6 83 84.5 84.9 88.4 89 91 92.9 93.4 95.8 87 63.8 33 7.5 -2.7 -2.7 -1.3 0.1 1.4 2.8 5.9 6 6 6.1 6.1 6.2 6.3 6 5.6 5.3 5.2 5.8 5.2 5.1 5 5.3 5.6 5.3 4.6 5.1 8.2 16.6 23.4 24.5 24.4 24 20.8 14.8 10.7 9.2 10.5 11.3 11.3 10.3 9.4 9.2 9.1 9.1 9.2 9.3 9.3 9.3 9.2 9.2 9.1 8.9 8.7 8.7 8.8 8.6 8.7 8.5 8.3 7.6 7.1 6.8 6.6 6.3 6 6.1 6.6 8.6 12.9 23.9 40.9 57.4 72.2 85 91.5 87.7 76.3 75.4 76.2 84.5 95.8 105 111.7 112.8 117.8 123.9 123.6 127.3 130.5 131.5 131.8 132.8 132.1 133.6 135.8 138 138.4 136.5 139.2 145.3 151 152.8 150.5 139.6 133.6 128.6 128.5 128.4 125.1 125.8 128.3 132.6 126.6 116.8 111.6 109.2 107.3 106 107.5 97.3 90.4 86.7 80.3 76.7 70.2 68.2 64.4 61.2 60.1 57.9 57.7 57.8 58 58.1 58.5 65.1 67.5 64.8 61.2 59.5 59.8 60.3 61.7 61.5 64.7 66.1 67.3 68.2 68.6 68.6 70 75.2 77.5 78.5 81.2 82.2 82.9 83.1 83.5 84.6 85.4 87.7 88.8 90.7 93.1 96.3 102.5 118.6 138.1 143.7
122.7 123 120.9 117.3 111.6 106.2 98.8 89.6 82.9 79.9 76.8 74.4 72.8 73.4 76.9 81.8 84.1 85.1 87.4 89.1 89.3 93 95.5 101.8 106.6 98.6 83.2 62.3 35.4 8.4 -2.7 -2.7 -1.4 0 1.7 3.5 3.6 5.7 5.8 5.8 6 6.1 5.9 5.8 5.4 5.2 7 4.9 5.3 4.9 4.8 4.8 4.9 4.4 3.6 5.7 9.6 18.5 23.9 24.9 24.3 23 19.3 14.8 11.4 8.9 9.9 12 12.8 12.1 9.5 9.4 9.3 9.2 9.3 9.3 9.4 9.4 9.3 9.3 9.2 9 8.1 8.4 8.9 8.6 8.5 8.3 8.1 7.8 7.5 7 6.6 6.1 5.9 6 6.1 6.2 8.7 19.9 38.4 56 70.7 85.2 90.1 84.9 72.3 60.6 76.6 89.5 98.9 108.3 120.7 123.7 123.2 127 128.5 129.6 127.6 129.7 130.4 131.6 135.7 136.1 137.9 137.2 134.1 134.3 141 150.5 149.3 148 143.9 134.1 128.1 124.6 124 122.8 123.4 126.4 133.6 132.1 122.7 115.5 110.8 111 110.2 109 105.7 95.4 91.5 88.6 83.3 79 75.3 70.3 64.9 61.8 60.4 58.8 57.8 57.4 57.7 58 59.3 64.7 66.1 63 60.5 59 61 60.9 60.1 60.8 64.9 66.1 67.9 69.7 69.6 68.6 68.3 73.6 75.9 77.7 81.6 84 84.7 84.7 82.4 82.8 82.8 83.5 84.8 87.3 89.8 92.6 99.1 110.8 133 142.6
123.3 123.2 121.8 119.1 113.3 106.2 98.3 90.7 83.2 78.4 76.1 73.6 71.3 72 79.2 82 84.4 85.2 89.1 93.5 92.8 95.2 99.9 104.8 102 91.9 77.5 60.1 39.4 10 -2.7 -2.7 -0.1 1.6 3.3 3.6 3.6 4.7 5.5 5.8 6.1 5.8 5.6 6.1 5.3 5.6 4.5 3.9 5.1 4.7 4.1 4 4 4.6 3.6 5 9.9 19.5 24 24.7 22.4 20 17.2 15 12.6 8.9 9.3 12.3 13.6 13.2 10.6 9.5 9.3 9.3 9.4 9.4 9.3 9.3 9.1 9.4 9.3 8.6 5.9 7.5 9.5 9.5 8.6 8.5 8.4 8.2 7.8 7 6.5 5.9 5.8 5.9 6 6 8.1 19.4 36.7 53.6 68.7 83.3 87.3 79.8 67.5 62.9 78.8 95.4 106.7 115.2 123.4 128.2 131.1 129.8 128.6 129.5 133.5 133.4 131.6 132.3 132.7 134 135.5 133.6 133.1 135.4 145.1 155.3 145 140.8 136.8 129.1 123.8 120.9 121 121.1 124.1 129.6 133.5 131 126.9 116.6 113 111.8 111.4 106 104.6 97.8 93.3 88.2 86.2 82.5 75 69.6 65.5 62.5 61.8 59.4 58 57.7 58.1 61.3 62.8 63.5 64.1 61.6 59.9 58.8 57.6 58 58.4 60.7 64.4 66.4 69.7 71.7 70.5 70 68.7 72.9 75.9 77.3 82.7 83.7 84.6 85.5 83.8 83.2 82 80.7 81.2 83.1 86.4 89.9 95.9 107.1 129.5 140.7
122.9 122.8 121.9 119.5 112.5 105.5 99.6 89 82.8 77 73.1 71.1 68.8 72.1 75.7 79.9 82.2 84.4 86.9 88.7 93.4 100.2 100.3 102.2 94.6 83 69.3 52.6 34.1 11.7 -2.7 -2.7 1 3.2 3.6 3.6 3.6 3.9 5.4 6.4 5.9 5.8 5.9 6.5 6.4 -2.7 4.3 4.6 4 3.9 3.7 -2.7 -2.7 -2.7 -2.7 3.6 7.5 15 20.8 23.2 20.1 17.8 15.7 12.8 10.8 9.6 8.9 12.2 13.8 14.1 11.8 10 9.4 9.3 9.4 9.3 9.2 9.2 9.1 8.9 8 5.8 5 8.3 8.3 8.2 8.3 7.4 6.9 6.7 6.6 6.5 6.3 5.8 5.7 5.8 5.9 5.9 8.6 19.3 34.5 50.2 64 75.3 76.6 69.8 59.8 65.1 82.2 97.1 116 121.8 131 140.3 136.3 136.2 137.5 136.3 136.3 140.7 144.7 141.9 139.2 132.9 132.8 132.8 133.1 135.8 141.6 145.6 137.5 136.3 131 125 120.1 117.5 117.5 121.4 126.2 130.9 132.7 132.8 125.7 115.6 112.7 111.8 111.2 112.9 109.1 96.6 92.5 90.5 87.2 81.9 76.4 71.4 67.8 66.4 64 60.1 57.8 57.5 58.9 64.1 63.5 62.1 62 60.4 59.4 58.7 57.8 57.8 57.9 61.1 65.1 66.9 69.4 72.6 72.1 70.2 69.9 74.3 75.5 77.6 81.7 82.6 84.4 85.7 84.2 82.5 82.6 81.2 80.6 80 83 85.6 94.1 105.5 121.1 133.7
122.5 122 122.8 119.5 115.8 109.5 97.1 85.5 80.4 76 70.6 69 66 70.1 73.4 75.3 79.5 84 87.8 91.8 105.1 109.6 104.1 98.4 86.1 73.3 57.2 40.6 25.1 11.7 -2.7 -2.7 1.6 3.6 3.6 3.6 3.6 4.8 5.5 5.5 5.6 6.7 7.9 8.9 8.3 -2.7 4.1 3.6 3.7 -2.7 -2.7 -2.7 -2.7 -2.7 -2.7 -2.7 5.2 8.9 15 19.5 18.7 17.4 14.2 12.1 10.9 9.8 9.2 11.3 15.2 15 13.1 10.9 9.9 9.3 9.1 9.1 9 9.1 9.1 7.4 5.6 4.9 6 7.5 5.4 4.7 4.5 4.3 4.2 4.5 5.3 5.7 6 5.6 5.6 5.7 5.7 6 8.7 17.3 31.3 45.3 58.2 64.6 65.8 63.7 57.9 67.9 84.5 103.4 119.7 132.7 141.7 146.3 144.5 143.6 141 142.8 143.8 152.2 152.4 146.3 137.2 132.8 133 132.6 133 136.1 140.1 138 132.6 129.6 128.2 121.6 117.3 116.1 115.7 120.6 125.1 128.1 129.6 127.5 125.2 116.7 112.7 111 116.9 113.9 102.5 98.9 94.6 91.6 87.5 83.4 79 76 71.7 67 66 61.3 57.7 57 61.7 66.3 63.5 59.7 59.6 59.6 59.4 57.9 57.5 57.2 57.5 60.1 64.3 64.5 69.7 71.4 72.4 72.4 71.4 74.2 75.8 79.3 80.6 81.2 83.3 84.1 83.6 82.2 82.9 82 80 79.3 79.5 81.9 92.8 102.4 117 123.3
