ncols 200
nrows 87
xllcorner 330000
yllcorner 493300
cellsize 50
69.5 65.1 60.2 57.8 56.4 55 54.6 53.5 53 51.5 50.9 47.5 49.3 48.4 48.5 48 48.1 48 47.5 47.4 47.1 46.8 46.4 45.8 45 43.2 43.2 43.2 43.2 43.2 43.2 43.2 43.9 45.5 47.8 49 51 55.3 58.3 68.3 76.5 89.1 98.9 111.6 122.3 135.6 145.7 155.5 169.2 181.3 190.6 198.3 205.2 211.4 218.8 226.5 232.5 236 243.6 253 257 261.6 264.3 259.2 254 251.8 252.6 251.1 249.6 246.6 246.5 250 249.3 245.7 248.6 249.5 248.7 243.5 238.3 229.2 220.1 214.2 210.3 202.5 193.1 194.9 189.8 186.3 182.4 174.3 167.8 157.7 149.1 143.4 138.1 137 136.9 136.8 128.6 110.3 99.1 90.7 89 83.6 82.8 84.3 72.4 71.3 71.1 70.3 70.2 68.9 67.6 66.2 66.5 64.4 66.4 66.8 67 73 77.6 83.1 91.2 91.2 97.5 109.3 123.8 135.6 145.8 155.5 170.3 177.8 185.9 195.4 204.3 206.2 200.7 194.7 194.7 194.7 194.7 194.7 200 198.9 200.2 203.4 204.5 205.9 213.9 219.3 219.2 224.9 234.4 238.4 241.1 245.6 246.3 252.9 257.1 255 247.7 246.5 247 240 238.5 239.5 233.6 222.3 209 188.1 159.9 132.4 109.9 88.9 67 52.5 38.1 38.1 38.1 38.1 38.1 38.1 38.1 38.1 38.1 38.1 38.1 38.1 38.1 38.1 38.1 38.1 38.1 38.1 38.1 38.1 38.1 38.1 38.1 38.1
72.6 66 61.6 56.9 55.7 54.2 53.5 53 52.1 51.2 50.6 46.7 48.3 47.8 47.9 47.4 46.9 47.4 47.5 47.6 47.1 46.7 46.4 46.1 44.7 43.2 43.2 43.2 43.2 43.2 43.2 43.2 44.2 46.1 47.3 50.4 55.3 58.8 65.5 74.3 84.8 91.2 101.8 115.9 130.7 140.8 147.1 160.1 177.4 186.2 193.6 200.4 205.6 213 221.6 229.1 235.1 241.1 251.6 258.5 262.6 264.3 266.4 258.3 254.8 252.8 251.6 251.9 251.5 249.8 250.1 253.1 250.8 250 253.2 252.9 251.2 246.6 240.1 232.1 222.2 214.6 207.6 199.5 196.5 195.1 194.8 192.8 184.7 178.2 167.5 159.9 151.4 144.6 137.3 133 134.8 141.6 133.4 115.4 100.6 93.1 88.3 86.8 92.3 92.9 76.3 69.9 72.3 74.3 73.9 71.5 70 67.9 66.2 64.4 65.3 65.9 67.5 70.2 76.2 80.1 87.3 89.3 95.7 110.8 125.4 137.4 147.3 158.1 172.5 179.8 186.5 196.1 206 209.1 201.9 195.9 195.4 196 194.7 194.7 197.6 197.3 202.9 201.7 201.3 202.7 209.1 210.9 216.2 225.8 231.5 231.9 232.6 234.4 234.8 240.4 244.5 242.7 238.3 238 237.5 237.5 240.8 239.1 230.2 221.1 213 192.4 164.5 135.4 113.7 89.1 66 51.3 38.1 38.1 38.1 38.1 38.1 38.1 38.1 38.1 38.1 38.1 38.1 38.1 38.1 38.1 38.1 38.1 38.1 38.1 38.1 38.1 38.1 38.1 38.1 38.1
78.9 67.9 61.8 57.2 54.2 53.9 53.4 52.6 51.9 51.4 50.5 49.7 46.3 47.3 47.4 47 46.5 46.3 46.9 47.1 46.9 46.5 46.2 45.6 43.2 43.2 43.2 43.2 43.2 43.2 43.2 43.2 43.2 45.5 48.6 53.9 58.4 65.9 69.3 78.8 89.9 98.5 105.8 120.3 135.2 140.3 150.8 166.4 177.9 187.5 196.4 203.8 209.5 218 224.8 232 239.6 246.3 257.4 265.3 268.9 268.7 267.5 260.2 256.8 253.1 253.8 254.1 251.2 252.6 254.4 254.5 249.7 252 255.7 255.4 253 249 242.7 235 226.1 217.3 206.3 205.4 202.5 198.9 195.5 193.4 186.7 177.1 170.9 160.3 153.8 144.1 140.2 134.2 129.5 134.5 132.9 116.5 105 98.7 88.2 88.2 97.2 100.7 85 73.4 76 77.9 77.6 76.6 78.1 74.9 67.5 65.7 65.5 65.5 66 68.3 74.2 77.6 82.7 89 95.2 110.3 127.6 139.8 151.4 161.1 174.8 182.8 189.4 199.4 209.5 210 203.6 200.4 199.1 196.7 194.7 194.7 195.5 199 201.4 199.4 201.9 204.6 208.7 213.3 220.7 223.3 225.1 224 224 222.4 219.7 224.4 229.5 233.2 235.2 238.5 241.2 243 242.3 237.3 231.6 223.8 216.8 196.7 169.8 141.3 115.7 89.1 65.5 48.6 38.1 38.1 38.1 38.1 38.1 38.1 38.1 38.1 38.1 38.1 38.1 38.1 38.1 38.1 38.1 38.1 38.1 38.1 38.1 38.1 38.1 38.1 38.1 38.1
85.4 70.9 63 57.8 54.4 53.3 51.5 49.8 51.2 50.8 50.2 48.2 46.7 47 46.9 46.7 46.3 46.2 46.1 46.7 46.6 46.5 45.2 43.2 43.2 43.2 43.2 43.2 43.2 43.2 43.2 43.2 43.2 50.8 51.8 58.9 61.9 67.3 74.1 88.9 93 105.8 110.9 123.7 136.4 149.1 158.6 167.1 180.2 190.1 198.9 206.1 212.9 221.3 228.4 237.3 244.5 249.4 260.8 269 274 272.1 268.7 266.2 262.1 258.3 255 256.7 256.7 256.4 256.9 255.6 255.1 257.4 259 257.8 254.4 250.3 242.8 236.2 228.1 221.1 214.1 212.6 206.7 201.3 196.1 191.2 186.9 180.2 173.4 163.2 151.7 143.6 137.3 131.6 131 125.5 123.8 117.1 106.9 98.6 89.6 86.9 96.9 102.9 93.9 81.5 81.1 85.5 86.9 82 82.9 82.9 75.4 65.1 65.5 65.5 66.2 68.9 72.7 75.2 83.4 88.2 93.8 111.8 126.9 142.6 154.9 163.3 177.8 185.8 191.7 201.5 209 210.3 205.6 201.1 201.8 198.3 194.7 194.7 195.3 198.4 198.1 203.2 206.5 210.6 214.2 218.7 220.1 221.5 222 217.8 214.8 211.3 208.3 214.8 224.2 229.3 233.6 236.2 244.5 247.6 245.6 241.7 236.1 228.9 220.5 199.7 171.9 140.7 112.1 85.5 64.2 45.4 39 38.1 38.1 38.1 38.1 38.1 38.1 38.1 38.1 38.1 38.1 38.1 38.1 38.1 38.1 38.1 38.1 38.1 38.1 38.1 39.8 38.1 38.1 38.1
85.7 73.4 64.1 57.2 53.5 52.3 51.9 51.3 50.8 49.9 49.6 48.5 47.3 45.2 45.4 46.3 45.9 45.6 45.3 46.2 46.4 46.5 45.2 43.2 43.2 43.2 43.2 43.2 43.2 43.2 43.2 43.2 49.8 56.1 55.1 62 63.5 69.8 78.2 88.6 101.4 110.5 117.3 123.4 139.5 155 165.3 174 184 193.7 200.8 208.2 217.3 223.7 230.4 241.4 248.7 255.5 264.5 272.1 276.9 274.9 272.5 268.6 261.8 257.9 258 261.4 259.4 259 259.7 261.8 263.5 262.5 263.7 261.7 256.5 251.5 245.9 238.5 227.2 222.6 220.4 217.7 209 202.2 198.2 195.5 188.3 182.9 177 165.5 156.3 147.8 143.5 134.2 129.9 126.4 120.6 116.8 108.4 100.1 91.2 84.7 93 97.9 93.8 84.6 82.2 90.2 92.2 87 84.7 86.4 81 67.5 65.5 65.5 65.6 68.2 69.6 72.6 79.5 85.6 93.4 108.4 125.6 142.4 154.7 165.1 179.4 191.2 193.5 203.3 209.5 211.2 206.5 204.3 206.9 202.4 197.6 194.7 194.7 196 202.3 209.3 218 215.1 214.8 213.7 216.5 217.7 217.5 216 219.3 206.4 206.4 214.2 223.4 228.4 233.4 239.5 248.7 253.7 251.1 245.5 236.4 232.3 222.3 202.1 172.4 138.7 108.5 83.4 63.8 44.6 38.1 38.1 38.1 38.1 38.1 38.1 38.1 38.1 38.1 38.1 38.1 38.1 38.1 38.1 38.1 38.1 38.1 38.1 38.1 38.1 38.1 38.1 38.1 38.1
85.3 77.4 64.8 56.5 53.1 51.2 51.2 50.9 50.6 48 48.6 48 47.6 46.6 45.3 45.2 45.3 45 45.3 45.5 45.7 45.2 43.9 43.2 43.2 43.2 43.2 43.2 43.2 43.2 43.2 45.1 53.2 55 57.1 61.8 67.1 75 82.9 98.9 108.2 116.8 123.1 135.5 138.7 160.2 169.1 179.1 188.3 197.5 204.7 211.6 222.2 226.1 231.7 243.8 251.5 259.2 266.4 274.4 279 276.5 273.5 271.2 267.8 264.3 263 262.8 261 261.8 263.3 267 265.8 263.3 266.3 265.5 259.6 251 244.6 237.4 225.8 230.5 224.7 218.1 210.1 204.8 202.6 196.2 189 183.7 176.7 168.9 157.6 146.9 143.3 138.7 131.5 127.4 124.3 118.6 110.1 93.7 87.4 86 83.5 91.9 87.9 81.6 79.9 89.1 90.9 87.5 82.9 84.6 81.1 71.3 65.5 65.5 65.5 67.2 67.9 70.6 77.6 86.8 90.9 103.9 119.7 136.5 151.4 164.5 178.9 192.4 196.6 206.7 210.6 211.9 205.8 211 212.2 204.9 198.9 196.9 195.8 194.9 206.7 217.1 216.8 215.3 208.1 209.7 212.2 214.1 216.5 220.3 216.3 206.4 206.4 211.6 220.9 227 237.2 242 251 258.3 261.5 254.1 237.6 227.8 228.2 206.6 172.2 139.8 109.4 81.5 61.5 44.8 38.6 38.1 38.1 38.1 38.1 38.1 38.1 38.1 38.1 38.1 38.1 38.1 38.1 38.1 38.1 38.1 38.1 38.1 38.1 38.1 38.1 38.1 38.1 38.1
93.6 78.1 63.8 56.6 52.1 51.1 50.8 50.5 50.2 48.2 48.4 48.4 47.3 46.5 45.8 45.1 44.4 44.4 45.5 45.2 44.9 44.2 43.2 43.2 43.2 43.2 43.2 43.2 43.2 43.2 43.2 48.8 52 57.4 57.7 66.7 71.4 79.9 90.4 102.8 107.9 118.3 133.7 144.4 156.8 164.2 173.6 182 191.5 201.2 208.3 215.8 225.2 230.1 234.4 245.5 253.4 261.3 267.8 276.3 278.8 277.3 277.7 274.7 270.9 266.7 265 264.4 262.3 263.3 264.8 269.6 268.7 263 265 264 259.8 247.7 241.2 234.1 232.3 230.2 225 217.6 211.3 209.1 205.8 198.3 194.1 186.7 179.8 171.4 160.6 151.6 142.4 137.5 135.3 127 125 119.5 106.2 95.6 86.5 82.5 80.2 84.1 81.3 76.1 73.9 81.3 82.7 77.6 73.9 77.3 74.8 72.6 65.5 65.5 65.5 65.5 65.7 69.1 75.4 82.5 87.3 97.9 115.2 132.4 148.3 162.7 178 188.7 194.6 207.7 213.2 214.6 209.3 214.1 210.2 201.5 198.5 197.3 198.4 201.6 205.4 210.6 214.1 207.6 208 207.6 209.6 212.7 213.7 213.5 208 206.4 205.8 214.9 220.8 228.4 238.9 246.5 253.7 261.6 261.1 252.4 234.7 221.5 219.2 198.3 170.6 139.6 110.9 82.9 60.8 42.7 38.1 38.1 38.1 38.1 38.1 38.1 38.1 38.1 38.1 38.1 38.1 38.1 38.1 38.1 38.1 38.1 38.1 38.1 38.1 38.1 38.1 38.1 38.1 38.1
91.4 79.3 64.9 56.1 51.2 49.7 50 49.7 49 48.7 48.7 46.3 46.4 46.5 46.1 45.8 45.5 44.6 45.4 45.1 43.9 43.2 43.2 43.2 43.2 43.2 43.2 43.2 43.2 43.2 44.5 53.1 59.5 60.5 63.4 66.3 74.6 87 96.5 104.4 112.1 126.3 140.2 151.6 162.7 172.6 177.1 182.9 193.7 204.7 212.4 220.5 228 234.4 235.2 245.7 253.2 261.1 268.4 276.2 278 278.4 280.7 277.7 273.9 272 268.1 269.3 264.1 265 265.3 267.8 266.2 262.3 264.5 260.8 253.9 244.3 238 234.5 232.6 230.2 225.3 219.9 215.8 211 209.2 199.6 194.9 189.5 181.3 173.2 159.8 149 144.6 138.5 131.4 124.8 120.6 118.1 107.4 101.4 90.7 80.3 78.1 78.3 77.3 75.7 70.1 70.3 71.2 68.6 67.7 66.2 66.4 68.9 65.9 65.5 65.5 65.5 65.5 66.2 70.8 79.1 83.4 95.6 113 130.1 145.5 159.2 172.7 185.1 192.6 208.3 213 213 210.5 210 203.1 199.9 197 198.8 201.7 206 211.3 207.3 205 206.8 207.2 212.4 210.7 215.9 224.3 213.5 206.5 206.4 212.8 220.7 227.5 231.6 241.7 248.6 256.7 254.1 246.7 236.3 225.3 217.6 211.3 193 168.5 143.4 116.3 88.4 60.9 38.1 38.1 38.1 38.1 38.1 38.1 38.1 38.1 38.1 38.1 38.1 38.1 38.1 38.1 38.1 38.1 38.1 38.1 38.1 38.1 38.1 38.1 38.1 38.1 41.4
90.1 77.8 64.3 55 50.4 49.1 49 48.6 48.5 48.2 47.1 46.3 45.9 46.6 45.7 45.3 45 44.5 43.3 44.3 43.2 43.2 43.2 43.2 43.2 43.2 43.2 43.2 43.2 43.2 48.6 53.9 57.3 59.9 67.1 70.7 79.4 94.2 100.3 111.5 119.8 134.8 146.4 157.3 170.4 181.1 185.4 188.6 196.9 207.6 217.6 225.3 234.9 233.6 233.6 246.8 254.1 261.2 268.1 274.1 277.2 281.3 283.2 279.3 277.2 276.2 271.8 268.9 262.6 264.4 265.9 265.5 262.6 263.2 261.9 255.7 249.2 242.5 237.9 236.4 233.6 230.2 227.8 221.9 215.3 209.7 206.4 200.5 194.7 190 183.1 173.5 160.6 145.7 138.9 135.5 128.4 123.9 130.3 129.3 117.1 99.5 92.8 84.2 77.1 75.7 73.4 74.7 70.6 70 67.9 66.5 65.5 65.5 65.5 65.5 65.5 65.5 65.5 65.5 65.5 65.5 70 74.2 79.9 93.3 112.1 128.4 141.9 155.4 166.5 181 188.5 205.3 209.2 207.5 207.3 203.7 199.9 198.6 200.1 203.9 204.9 203.9 203.6 200.5 200.5 197.5 201.6 203.5 205 219.6 213.2 204.2 205.3 210.4 214.9 222.6 233.2 239.9 243.1 246.2 245.8 242 238.6 232.5 223.3 219.9 211.3 191.6 172.7 147.9 118.8 90.3 62.8 38.1 38.1 38.1 38.1 38.1 38.1 38.1 38.1 38.1 38.1 38.1 38.1 38.1 38.1 38.1 38.1 38.1 38.1 38.1 38.1 38.1 38.1 38.1 38.1 43.3
87.1 73.5 60 52 49 47.9 48.1 47.8 48.1 47.7 46.9 46.1 45.7 46.4 45.5 44.9 44.5 44 42.9 42.9 44.5 43.2 43.2 43.2 43.2 43.2 43.2 43.2 43.2 43.2 49.3 51.5 60.1 65.4 70.1 75.6 88 94.3 106.6 115.3 128.6 141 152.6 163.1 178.1 186.4 192.2 197 202.1 211.2 217.8 226 235.2 233.7 238 249.7 257.1 262.8 268.1 272.1 277.4 281.5 280.1 279.5 281.2 279.2 274.2 263.3 259.5 261.3 262.9 263.6 259.3 259.2 254 249.6 244.8 242.1 241.1 241.1 237.5 234.5 230.6 221.9 214.3 208.6 203.5 197.9 193.7 189.5 183.2 171.7 160.4 151.9 144.3 131 128.2 125.8 137.3 138 125 107 90.8 84.3 82.8 77.4 72.9 71.3 70 69.4 68.5 67.3 65.5 65.5 65.5 65.5 65.5 65.5 65.5 65.5 65.5 65.5 66.2 72.9 76.5 90.5 108.9 125.8 136.2 147.9 159.7 171.7 184 197.7 202 200.1 200.9 195.8 194.2 200.4 204.2 205 200.5 196.5 196.7 201 197.6 193.8 189.8 196.7 202.3 202.4 206.1 201.7 210 211.3 215.2 227.6 238.8 245.4 250.1 242.7 241.7 244.3 240.2 229.9 223.2 220.9 214.2 204.2 184.8 154.4 122.5 90.8 63.2 40.8 38.1 38.1 38.1 38.1 38.1 38.1 38.1 38.1 38.1 38.1 38.1 38.1 38.1 38.1 38.1 38.1 38.1 38.1 38.1 38.1 38.1 38.1 38.1 43.3
83.5 69 58.1 51.2 48.3 47.1 47.5 47.5 47.3 46.9 46.4 45.9 46.2 44.4 44.6 44.4 44 43.5 43.1 42.9 43.9 43.2 43.2 43.2 43.2 43.2 43.2 43.2 43.2 45.9 51.6 57.3 63.6 66.4 75 82.3 88.2 93.7 110.1 122.7 135.9 149.7 161.5 173 183.7 189.9 198 204.7 207.6 212 218 226.5 235.7 240.9 246.8 252.1 258.4 262.8 269.4 274.3 277.4 277 277.3 281.6 280.6 278.3 272.6 260.3 254 255.1 257.6 258.8 256 253.2 249.4 245.8 243.5 242.8 244.2 244.5 240.4 237.4 230.6 220.8 212.7 207 203.6 197.2 192.2 187.5 180 170.7 161.6 152.8 143.9 133.1 131.4 129 137.7 142.1 132.2 113.1 100.2 87.5 80.4 75.6 72.8 71.3 69.5 68.4 68.2 67.2 65.5 65.5 65.5 65.5 65.5 65.5 65.5 65.5 65.5 65.5 65.5 70.3 77.7 89.5 102.3 120.2 129.6 142 153.9 164.6 175.7 187.6 192.7 192.8 193.2 190.1 194.7 201 198.5 196.2 195.3 191.9 192.1 195.7 201.8 196.6 187.6 187.8 188.1 191 198.9 196.9 201.6 208.6 215.2 228.5 240.1 244 242 243.5 243.1 240.1 233 228.3 228 221.9 215.8 211.5 190.2 161.8 129.7 96.4 65.8 42 38.1 38.1 38.1 38.1 38.1 38.1 38.1 40.2 38.1 38.1 38.1 38.1 38.1 38.1 38.1 38.1 38.1 38.1 38.1 38.1 38.1 38.1 38.1 40.6
83.8 70.7 58.9 50.8 47.9 47.1 47 46.8 46.5 46.1 45.7 45.4 45.6 45.8 44.8 44.7 43.3 43 43.2 43.2 43.2 43.2 43.2 43.2 43.2 43.2 43.2 45.3 45.9 50.1 57 61.9 66.4 71.9 77.3 85.9 91.1 96.7 110.7 128.6 140.2 153.2 168.9 181.2 187.6 193.7 203 206.9 210 214.5 219.6 227.1 238.3 242.7 247.4 252.3 256.9 263.6 271.7 277.7 274.7 274.1 274.6 277.1 276.2 271.5 263 252.1 245.8 246.8 247.9 250.7 253 246.2 245.3 242.1 242.1 246 244.8 243.7 240.5 237.4 229 218.4 211.6 206.6 202.4 196.6 190.4 185 179 171.4 162.7 153.1 144.6 137.8 128.9 125 132.9 140.5 134.6 118.7 107.6 91 77.3 73.6 72.1 70.7 69.2 67.6 68.1 67.3 65.5 65.5 65.5 65.5 65.5 65.5 65.5 65.5 65.5 65.5 65.5 69 77.4 89 105.7 115.9 120.6 138.1 150.6 161.2 169 177.6 184.2 188.2 188.1 188.5 192 191.2 189.5 189.8 189.7 187.5 189.5 195 196 193.3 187.8 188 185.1 187.2 192.9 192.7 198.6 205.6 214.7 225.5 230.2 234 242.6 248.3 249.9 241.4 232.4 235.1 229.8 219.6 210.8 200.8 186.5 162.6 135 102.3 72 46.7 38.1 38.1 38.1 38.1 38.1 38.1 40 38.1 38.1 38.1 38.1 38.1 38.1 38.1 38.1 43.4 38.9 38.1 38.1 38.1 38.1 38.1 38.1 38.3
81.9 68.4 56.9 48.6 47.3 46.4 46.4 46.2 45.9 45.7 45.4 45.1 44.7 47.7 47 44.9 43.3 43.2 43.2 43.2 43.2 43.2 43.2 43.2 43.2 43.2 43.6 47.1 50.2 54.8 60.5 63.6 68.4 75.6 80.5 88.8 94.2 103.7 114.7 132.9 145.9 159 171.7 186.4 190.2 196.7 205.6 207.7 212.1 217.3 221.3 228.9 239.3 247.5 254 258.8 262.5 267.6 272.7 273.8 273.5 271.2 269.8 271.9 270.5 265.8 255.8 246.6 240.7 241 239.4 243.3 242.2 241.8 243.8 244.4 248.2 243.9 241.7 240.4 241 236.6 227.9 218.9 212.2 208.8 201.5 194.7 187.6 183.8 177.8 171.2 163.7 155.4 147.6 140 129.2 119.7 125.8 133.6 131.3 123.2 114 100.4 81.1 73.2 71.3 70.2 68.7 67.8 67.8 66.5 65.5 65.5 65.5 65.5 65.5 65.5 65.5 65.5 65.5 65.5 65.5 69.3 75 87 104.6 112.5 117.8 132.5 145.1 156.1 161.8 170.9 180.2 183.5 182.2 186.4 185.9 183.1 181.6 183.8 182.1 179.7 180.2 187.4 191 187.6 188.2 185.8 185.2 186.5 185.6 191.2 196.3 203.5 210.2 216.2 221.5 232.3 243.3 250.3 246.4 239.1 234.1 229.3 222.1 214.2 203 188.2 165.6 141.1 116.9 91.5 68.2 45.9 38.1 38.1 38.1 38.1 38.1 38.1 38.1 38.1 38.1 38.1 38.1 38.1 38.1 38.1 38.1 45.4 46.5 40.5 38.1 38.1 38.1 38.1 38.1 38.1
73.3 61.7 54.5 48.7 47.3 46.8 45.8 45.6 45.4 45.2 45 44.7 44.4 44.8 45.4 45.3 43.2 43.2 43.2 43.2 43.2 43.2 43.2 43.2 43.2 43.2 46.6 49.4 52.7 56.9 63.5 66.2 70.1 76.3 83.7 90.3 100.6 114.6 124.1 135.9 149.4 162.4 175 189.8 190.9 196.9 203.4 206 210.3 216.6 222.9 231.5 246 255.1 261.6 265.7 266.6 270.2 273.8 272.8 269.1 266.8 265.5 265.1 262.3 253.5 245.8 238.8 236.5 239.2 238.5 239.4 240 240.8 242.8 242.4 242.5 241.6 238.8 238 239.8 234 226.6 219.1 214.3 206.2 199.4 193.8 188 182.7 176.1 170.2 163.5 155.7 145.7 137.1 131.8 120.9 117.6 123.3 121.6 124.3 118.8 103.7 86 76.3 71.2 70.1 68.9 67.8 67.6 66.4 64.5 65.5 65.5 65.5 65.5 65.5 65.5 65.5 65.5 65.5 65.5 68.8 72.1 81.8 96.4 102.8 115.3 128.1 138.2 149.1 156.4 167.3 172.3 175.6 177.5 178.9 178.9 176.1 176.4 175.9 174.3 172.2 173.8 179.2 182.7 182.3 184.8 190 194.6 191.3 183.4 186.9 194.8 199.6 202.7 206.2 211.8 222.8 229.9 233.4 233.8 235.1 233.5 220.6 211 202.4 189.7 170.4 147.6 128.1 109.8 85.9 64 44 38.1 38.1 38.1 38.1 38.1 38.1 38.1 38.1 38.1 38.1 38.1 38.1 38.1 38.1 38.1 44.8 44.5 41.8 38.1 38.1 38.1 38.1 38.1 38.1
71.5 61.8 54.3 50.2 48.6 46.7 46 45.5 45 44.8 44.5 44.2 43.9 43.6 43.3 42.8 43.2 43.2 43.2 43.2 43.2 43.2 43.2 43.2 43.2 43.6 46.9 49.3 54.4 59 63.4 65.9 68.9 76.5 85.3 92.9 104.7 119.9 130.7 137.3 153.4 166.3 178.4 187.4 189.3 194.8 202.3 205.7 209.4 218.1 227.3 235.8 247.6 258.7 264.8 268.9 271.6 275.4 272.6 269.1 265.6 262.5 260.5 257.7 254.9 249.9 241.6 235.7 235.4 238.7 240.1 241.8 239.7 239.5 239.9 244.1 245.2 243.1 237.4 235.6 236.9 230.5 224.7 217 211.3 203 198.8 194.1 186.6 180.8 176.4 169.8 162.7 155 150 143.1 132.6 124.1 115.8 115.5 114.6 123.7 122.2 103.4 84.7 78.4 72.7 69.8 69.2 68.5 67.8 66.7 65.3 65.5 65.5 65.5 65.5 65.5 65.5 65.5 65.5 65.5 65.5 66.5 71 77.4 89.6 104.3 114.4 125.2 135 145.3 153.8 159 166.5 169.3 171.8 175.6 174.7 171.9 171.9 169.3 167.7 167.2 168.9 172.7 177.2 176.8 187.2 195.1 190.6 185.4 182.7 182.1 187.6 192.8 195.7 202.1 206.9 213.9 219.6 226.4 230.1 231.2 225.9 213 192.7 187.1 176.8 161.6 146.4 129.9 108.1 82.9 63.5 47 38.1 38.1 38.1 38.1 38.1 38.1 38.1 38.1 38.1 38.1 38.1 38.1 38.1 38.1 40.7 41.4 38.1 38.1 38.1 38.1 38.1 38.1 38.1 38.1
69.2 60.8 59.1 53.4 48.8 47.4 46.5 45.7 45.1 44.5 44.1 43.7 43.4 43.2 43.2 43.2 43.2 43.2 43.2 43.2 43.2 43.2 43.2 43.2 43.2 45.4 47 51.6 56.5 59.5 62.9 66.3 71 81.6 87.8 96.3 110.3 125 134.7 140.3 158.2 171 182.1 187.1 186.8 194.2 201.8 207 213 221.1 228.6 234 248.3 258.4 263.1 269.3 270.8 272.1 268.8 267.6 263.2 261.5 256.8 251.3 248.5 245.1 239.9 233.4 235.7 240.9 242.4 242.4 239.5 239.8 242 248.2 248.3 245.2 236 234 232.3 226.7 220.8 213.4 207.3 204.8 200.4 191.2 185.3 183.6 178.4 171.6 164.6 160.4 151.6 143.3 136 126.9 118.1 111.7 114.9 120.3 119.7 101.3 84.7 78.1 73 71.5 70.7 69.6 68.2 67.2 65.8 65.5 65.5 65.5 65.5 65.5 65.5 65.5 65.5 65.5 65.5 65.7 70.5 75.7 86 98.1 110.9 123.9 135.2 146.8 156.8 160.6 163.4 165.6 173.6 177.8 173.7 169.4 167.7 166.7 166.7 166.7 166.7 167.9 171.4 181.6 192.2 190.9 185.1 181.6 178 183.1 186.2 187.2 189.4 195.7 200.9 208 217.5 220.9 220.6 218.4 213.1 202.5 187.1 175.1 168.4 157.9 143.4 127 106.5 80.8 61.1 47.1 38.2 38.1 38.1 38.1 38.1 38.1 38.1 38.1 38.1 38.1 38.1 38.1 38.1 39.8 41.4 38.1 38.1 38.1 38.1 38.1 38.1 38.1 38.1 38.1
67.8 62.5 59.1 51.9 49.2 48.2 46.9 46.2 45.1 44.4 44.4 43.4 43.2 43.2 43.2 43.2 43.2 43.2 43.2 43.2 43.2 43.2 43.2 43.2 43.8 45.6 48.8 54.4 56 60 64.8 70.5 76.8 82.4 90.1 99.7 114.1 130.7 140 144.9 160.9 173.9 182.4 184 185.8 195.2 202.4 209 216.7 224.3 229.9 234.9 247.4 257.8 263.1 268.1 269.8 267.7 265.8 265.3 262.7 259.8 250.6 245.7 242.4 238.2 234.4 229.4 232.6 237.6 240.8 240.7 242.1 241.1 242.6 247.2 245.3 240.8 234.6 230.2 227.2 223.3 216.5 210.3 206 201.6 194.7 192.1 189.6 185.5 179.6 173.4 167.3 159.1 152.3 145.3 138.4 129.9 121.5 113.5 110.4 112.9 113.5 99.6 85.2 82 73.3 72.3 70.9 69.3 68.1 67.3 66.3 65.5 65.5 65.5 65.5 65.5 65.5 65.5 65.5 65.5 65.5 65.5 69.8 74.8 85.6 97.1 108.6 122.3 135 146.8 156.3 162.8 166.8 169.1 171.4 177 172.9 169.5 166.7 166.7 166.7 166.7 166.7 166.7 173.6 180.7 182.7 182.2 176.8 178 182.3 183.5 185.8 186.6 188.9 189.6 194 206.1 213.9 212.5 207.5 201.5 196.8 192 186.5 179.5 170.6 159.6 144.7 128.5 106.7 82.2 63.2 48.7 39.3 38.1 38.1 38.1 38.1 38.1 38.1 38.1 38.1 38.1 38.1 38.1 39.1 39.6 39 38.1 38.1 38.1 38.1 38.1 38.1 38.1 38.1 38.1
69.4 61.5 55.2 52.4 50.7 49.4 47.8 46.8 46.1 44.5 43.4 43.2 43.2 43.2 43.2 43.2 43.2 43.2 43.2 43.2 43.2 43.2 43.2 43.2 45.8 46.7 50.4 53.8 58.9 60.9 69.4 70.6 78.7 84.3 96.2 106.4 118.7 133.6 145 150.6 161.3 174.7 182.6 184.3 190.9 199.8 202.2 210.5 219.3 228.8 235.7 245.4 254.2 259.8 263.2 269.4 273.5 266.3 261.2 262 259.9 253.6 244 240.8 238.7 233.4 231.1 225.7 229.2 233.7 236.3 240.5 245.9 239.3 244.8 249.2 241.1 236.6 231.5 225.6 224.1 218.7 213.6 209.9 209.3 199.9 196.5 193.7 190.2 185.8 179.8 176.8 169.3 162.4 155.6 147.8 141.4 133 122.7 113.9 105 104.8 104.9 95.4 93.7 82.5 76.6 74.2 72.3 70.3 68.3 67.3 66.3 65.5 65.5 65.5 65.5 65.5 65.5 65.5 65.5 65.5 65.5 65.5 68.8 75 83.9 95.8 108 120.8 133.6 146.4 156.2 163.9 166.3 171.2 177.1 174.7 174.1 168.1 166.9 169.4 168.5 166.7 166.7 167.5 168.9 173.7 174.1 171.7 177.2 179.4 180.8 183.6 184.3 186.4 188.4 184.4 187 199.1 202.4 201.3 197.4 192.2 189.6 188.2 184.7 178.7 172.9 163.5 148.5 132.2 110.5 85.6 67 52.2 40.7 38.1 38.1 38.1 38.1 38.1 38.1 38.1 38.1 39.8 42.6 42.5 42.3 41.4 40.5 38.1 38.1 38.1 38.1 38.1 38.1 38.1 38.1 38.1
66.9 59.4 55.9 53.6 51.5 51.8 48.9 46.6 45.4 44.7 44 43.2 43.2 43.2 43.2 43.2 43.2 43.2 43.2 43.2 43.2 43.2 43.2 43.2 46.2 47.8 51.5 52.6 57.7 64 64.7 71 78.9 87 96.1 108.8 120.6 135.1 147.1 156.4 166.8 172.5 182.6 185.9 191.8 195.7 204.9 214.9 223 233.6 242.7 252 258.9 263.4 267 272.5 277.3 265.4 258.4 255.8 253.3 247.8 241.2 238.2 234.8 230 227.2 225 229.7 233.4 239.2 241.2 242.8 232.4 245.2 246 240.5 234 228.8 221.3 218 214.8 211.2 216.5 213.8 201.6 198.7 194.7 189.8 188.1 184.3 179.2 170.7 163 157.5 150 144.9 132.9 121.9 112.9 104.1 98.1 101.4 112.4 103.4 92.3 81.1 78.5 76.8 72.3 69.3 67.3 66 65.5 65.5 65.5 65.5 65.5 65.5 65.5 65.5 65.5 65.5 65.5 68.3 72.7 79.9 92.2 104.5 118.7 133 149 158.8 157.2 161.6 170.5 176.8 184.6 180.2 174 170.7 170.8 168.9 166.7 168.2 160.3 161 164.4 165.4 172.4 175.7 175.3 179.4 182.2 183.5 185.7 184.1 181.9 183.8 191.8 195.5 197.1 193.7 189 187.7 186.8 184.4 180.3 180.2 170.7 151.9 138.9 120.7 96.9 74.5 54.6 45 38.1 38.1 38.1 38.1 38.4 38.1 38.1 41.7 45.2 44.1 42.9 42.9 42.7 40.1 38.1 38.1 38.1 38.1 38.1 38.1 38.1 38.1 40.3
61.8 61.9 57.6 57.4 51.6 48.8 49.1 46.7 45.6 44.7 43.2 43.2 43.2 43.2 43.2 43.2 43.2 43.2 43.2 43.2 43.2 43.2 43.2 43.2 47.5 49.1 52.1 55.9 58.8 62 66.6 73.2 81.8 91.4 102.3 115.3 127 135.9 149.1 156 164.1 178.9 182.7 191.9 197.5 201.2 210.8 219.8 227.3 235.4 244.3 253.2 261 266.7 270.2 278.1 276.1 262.1 257.1 253.7 248.3 244.6 239.1 235.2 231.2 227.9 222.7 223.7 228 233.6 240.4 239.9 237.2 230.7 240.8 239.6 236 232.1 225.7 220.1 215.7 211.8 212.2 219.1 215.4 203.7 198.8 196.2 195.8 194.3 185.7 178.4 169.8 163.8 158.5 154 148 133.2 121.6 111.9 105.3 100.5 99 116.9 116.5 102.6 89 81.8 75.6 71.9 69.8 67.7 65.5 65.5 65.5 65.5 65.5 65.5 65.5 65.5 65.5 65.5 65.5 65.5 65.4 69.5 75.4 85.4 101.6 118 131.5 144.2 145.7 153 160.1 169.1 180.6 189.2 188.4 177.1 170.5 170.3 171.2 165.9 158.1 153.6 154.5 156.9 164 167 168.4 172 176.1 179.4 181.7 182 182.5 184.3 187.4 191.4 193.2 196.6 196 193.5 191.6 190.3 190.2 187.8 177.8 168.1 154.9 144.5 128.8 102.7 80.5 61 49.8 40.5 38.1 38.1 38.1 38.1 38.1 38.1 38.1 43.3 43.2 43.1 42.6 40.3 38.1 38.1 38.1 38.1 38.1 38.1 38.1 40.4 44.2 41.9
65.7 66.2 68.1 59.8 52.8 50.3 49 46.5 44.5 44.8 43.2 43.2 43.2 43.2 43.2 43.2 43.2 43.2 43.2 43.2 43.2 43.2 43.2 43.2 46.2 49.5 52.6 55.7 60.7 63.1 70.5 75.6 86 93.6 106.3 121 135.3 146 151.4 157.4 163.9 179.3 186.6 190.9 204 210.4 218.8 223.8 230.6 237.1 244.1 253 263.4 268.2 272.9 279.3 272.7 261.6 258.2 256.3 253.1 246.2 240.9 236.1 230.6 225.8 219.2 218.7 224.3 231.4 236.3 239.2 228 229 233.9 231.4 233 232 224 220.6 214.6 209.7 213.9 219.2 216.2 205 202.7 200 196.4 198.3 187.7 179.1 171.6 166.9 163.1 161.1 151.9 138.9 128.3 118.5 107.8 104.9 101.6 115.1 121.7 110.6 94.2 83.2 76.3 71.7 69.2 68.7 65.9 65.5 65.5 65.5 65.5 65.5 65.5 65.5 65.5 65.5 65.5 65.5 65.5 67.2 71.9 81.2 91.2 107.9 120.1 131 143.4 152.3 155.7 170.5 185 188.1 187 175.8 166.3 165.3 166 159.1 153.8 150.6 147.3 152.5 155.5 160.5 165.7 169.3 173.3 177.3 179.9 182.3 184.8 187.5 191.9 197.5 200.5 201.3 200.8 198.2 195.6 196.8 196.9 189.8 181 169.5 155.6 144 127.7 102.9 82.2 65.1 51.3 40.3 38.1 39.1 38.1 38.1 38.1 38.1 38.1 40 42.4 42.4 42.5 38.1 38.1 38.1 38.1 38.1 38.1 38.1 38.8 43.8 44.5 45
72.6 67.4 62.4 56.3 53.7 50.4 48 47.4 44.9 43.2 43.2 43.2 43.2 43.2 43.2 43.2 43.2 43.2 43.2 43.2 43.2 43.2 43.2 43.2 44.4 50 54.5 56.4 60.5 66.5 71.4 78.8 87 95.6 112 126.1 138.9 151.9 159.2 167.4 170.2 178.2 190.8 194.9 205.1 214.2 220.9 229.7 239.3 238.9 244.5 251.4 263.4 267.5 273.7 276.4 270.5 264.5 262.3 260.5 255.3 248.6 242.8 236.7 232.9 229.2 219.2 213.4 218.2 225.5 227.3 230.3 217.9 225.2 228.2 223.9 228.2 225.2 225.8 222.9 219 209.5 213.7 216.6 214.4 208.1 203.9 198.1 201.7 201.7 191.6 180.8 175.4 169.7 168.8 171.9 158.9 149.8 140.8 128.7 116.9 112.7 104.3 112.2 121.7 117.4 102 91.8 81.4 72.4 69.3 68.3 66 65.5 65.5 65.5 65.5 65.5 65.5 65.5 65.5 65.5 65.5 65.5 65.5 66.3 69.9 78.4 86.6 100.4 117.1 130.5 138.7 145.3 156.1 170.8 176.5 180.2 182 175.6 171 157.4 159.3 157 150.1 146.4 143.9 148.6 151.5 156.8 162.3 168.3 171.9 175.6 179 183.1 186 189.9 196.7 202.9 212.6 209.2 206.9 203.6 201.1 203 205.1 191.7 181.2 167.1 153.8 142.8 123.2 100.5 80.8 63 48.3 39.2 38.1 38.1 38.1 38.1 38.1 38.1 38.1 40.3 42.7 43.2 39.8 38.1 38.1 38.1 38.1 38.1 38.1 39.9 43.1 45.2 49.8 50
70.8 66.3 61.5 56.3 54 52.3 49.2 47.6 45 43.2 43.2 43.2 43.2 43.2 43.2 43.2 43.2 43.2 43.2 43.2 43.2 43.2 43.2 43.2 43.2 50.5 53.1 58.4 62.8 69.6 77.4 82 88.4 102.3 118.6 131.4 139.7 156 161.3 170.4 180.5 187.4 194.7 198.6 208.7 219.1 228.7 235.9 243.5 241.8 244.2 251.5 263 266.8 274.5 277.4 274 268.6 263.6 260 256.3 251.8 245.8 236.9 232.1 223.8 216 211.8 217.9 222 219.4 218.6 213.2 221.5 218.8 216.6 218 218.1 222.7 216.1 209.8 205.1 209.5 209 210 207.4 202.6 198.6 207.1 204.5 197 187.1 176.7 170.2 177 175.6 163.9 156.7 149.6 138.3 126.5 118.1 109.8 106.3 116.7 122.2 110.4 100.4 89.7 76.8 71.1 69.7 67.7 65.5 65.5 65.5 70.1 76.5 72.5 65.5 65.5 65.5 65.5 65.5 65.5 65.5 68.1 76.2 83.2 96.5 111.7 125.2 133.4 142.3 152.1 162.1 169.1 176.2 179.1 177.1 174.7 161.8 153.1 153 150.4 145.7 143 145.2 149.8 154.8 160.5 166.4 170.5 174.5 179.5 183.9 187.5 191.9 198.3 205 212.8 218 218.1 211 207.8 203 200.4 187.9 178.5 165.8 151.8 140 121.3 101.1 79.9 59.3 49.5 42.6 38.1 38.1 38.1 38.1 38.1 38.7 43.6 44.7 44.8 43.5 38.1 38.1 38.1 38.1 38.1 38.1 40.8 43.2 43.8 50.4 52.8 48.7
70.3 66.2 61.8 59.9 54.8 51.4 49.4 48 46.4 43.2 43.2 43.2 43.2 43.2 43.2 43.2 43.2 43.2 43.2 43.2 43.2 43.2 43.2 43.2 43.2 48.9 52.9 56.8 63 71.7 76.7 81.1 92.7 107.6 118.9 130.6 144.6 160.1 164.1 174.1 181.1 192.7 199.5 204.8 212.7 223.7 232 238.2 245.2 245.2 247.4 254.9 261.7 266.9 274.5 278.1 274.5 267.3 260 260.2 257 251.7 246 238.3 227.8 222.7 218.3 211.2 219.2 219.2 213.5 209.2 210 215 213.8 213.1 212.6 214.8 211.3 206.5 203.7 203.1 205.2 205.3 207.6 205.8 200.7 202.1 209.3 204.7 198.6 184.2 177 174.9 181.5 174 157 154.8 149.4 143.3 138.9 129.9 118.2 107.3 109.9 123.2 122 110.2 96.3 82.3 75.6 75.8 71.9 66 65.5 65.5 71.8 78.5 76.4 64.5 65.5 65.5 65.5 65.5 65.5 65.5 67.9 74.1 81.1 91.8 106.7 118.2 127.4 138.7 145.8 156.7 165.2 173.9 178.8 180.4 173.5 163.1 150.5 150.2 149.8 144.1 145.3 142.9 147.2 152.4 157.8 164.7 170 174.9 180 184.4 187.9 190.3 195.8 202.9 211.8 221.7 225.7 211.5 202.8 197.3 193.4 190.5 179.9 164.2 150.8 134.8 117.2 99.8 79.1 60.3 49.9 41.9 39.8 38.1 38.1 38.1 38.1 38.1 44.6 45.7 43.9 38.1 38.1 38.1 38.1 38.1 38.1 38.1 41.6 44.2 46 46.1 46.2 47
73.3 67.1 61.1 59.3 56.9 53.3 49.1 47.7 45.7 44.1 43.2 43.2 43.2 43.2 43.2 43.2 43.2 43.2 43.2 43.2 43.2 43.2 43.2 43.2 43.8 50.1 52.8 56.4 64.2 74.1 75.6 85.4 99.5 111.4 122.5 134.9 145.7 156.8 170.3 177.1 185.7 196 202.4 213 216.6 224.2 232 239.2 243.4 249 251 255.8 260.9 266.2 272.8 274.7 270.5 263.7 262 259.7 255.6 251.5 246.9 240.6 229.4 219.6 217.3 209.1 212.4 211.3 205.2 201.6 204 210.1 210.4 209.1 208 206.2 202.9 202.7 202.2 200.9 203.1 202.9 204.3 205.9 201.3 203.3 207.3 202.7 195 182.9 179.6 176.4 179.7 170.3 157 156.2 150.3 147.6 146.6 137.8 127.6 113.6 110.9 120.4 126.3 118.2 104.5 89.3 82.4 81.2 77.3 69.1 65.3 65.3 71.5 76.1 74.3 66 65.5 65.5 65.5 65.5 65.5 65.5 65.9 73.6 78.9 86.9 102.6 111.3 120.1 129.7 142 154.1 164 171.4 177.8 178.6 173.9 164.6 151.8 143.7 145.3 140.7 138.6 134.1 144.2 149.4 154.7 164.3 171.8 177.3 179.8 182.4 184.6 186.8 192.3 201.1 209.4 219.9 227 209.1 196.8 192.1 188.2 183.4 172.3 163.5 149.7 135 116.3 98.7 79.3 61.1 49.5 45.9 40.9 38.1 38.1 38.1 38.1 38.1 40.8 44.6 41.6 38.1 38.1 38.1 38.1 41.1 40.8 43.7 44.8 46.6 44.5 44.6 46.8 48.4
71.3 64.6 62.5 59.3 55.9 51.2 50.9 48.2 47.8 44.3 43.2 43.2 43.2 43.2 43.2 43.2 43.2 43.2 43.2 43.2 43.2 43.2 43.2 43.2 45.1 50.5 54.1 57.6 63.7 73.2 82.1 92.5 104.8 116.2 129 139.9 152.3 165.6 174.2 183.3 191.3 201.7 210 216 222.3 225.8 230.4 238.6 246.8 252.4 256.9 259.2 260.9 265.6 270.6 271.8 268.4 266.8 264.8 260.6 255.1 250.8 246.5 244.4 234.6 221.8 212.4 207 198.2 195.8 194.2 193.6 197.7 204 204.2 201.9 200.6 197.7 200.3 200.6 199.2 198 201.1 204 204.9 208.5 202.7 201.4 199.3 197.6 189.4 183.3 178.2 175.9 174.7 167.6 165.5 166.4 163.1 159.8 158 149.7 138.5 122.2 113.4 117.1 119.3 115.6 103.7 99 96.2 91.8 88.7 76.1 67.3 66.5 67.5 70.5 68.9 65.5 65.5 65.5 65.5 65.5 65.5 65.5 65.8 70.1 72.4 80.4 94.9 105.8 116 125.6 140 150.7 159 167.7 174.9 176.6 171.4 163 152.9 144.8 137.5 135.8 131.1 132.3 139.4 147.6 154.6 162.5 167.6 174.7 176.6 179 181.3 184.2 188.4 198 205.8 209.7 215.6 207.1 192 185.4 181.2 177.5 170.8 164.8 149.5 135.1 115.5 97 78.1 59.4 48.3 42.5 38.1 38.1 38.1 38.1 38.1 38.1 38.7 44.3 38.1 38.1 38.1 38.1 38.1 38.1 42.3 44.8 47.8 47.7 44.7 45.4 46.4 46.5
68.9 67.9 64.6 60.6 57.4 55.2 52.9 49.3 47 45.7 43.2 43.2 43.2 43.2 43.2 43.2 43.2 43.2 43.2 43.2 43.2 43.2 43.2 43.2 45.1 49.3 52.6 61.5 67.7 76.6 86.4 98 110.1 123.7 138 150 160.7 172 182.6 188.3 195.8 206.4 216.2 223.4 229.3 229.7 232.1 238.9 247.2 253.1 257.5 261.7 262.7 266.1 269.4 270 268.2 266.5 263.1 258.9 253.9 250.5 247.4 245.4 235.6 221.8 211.3 206.6 200.5 190.5 188.5 187.9 190.9 196.6 197.2 195 191.8 191.9 193.3 194.1 195.3 199.4 204.3 205.4 211 210 201 198.7 195.4 191.2 187 184.9 179.3 172.2 169.2 166.1 164.5 165.7 163.1 157.4 155.9 156.4 147.5 131.9 119.4 123.7 120.1 117.7 114.2 101.8 101 100.3 94.5 80.6 68.7 66 65.5 66.9 65.9 65.5 65.5 65.5 65.5 65.5 65.5 65.5 65.2 67.2 73.3 78.5 88.5 102.3 116.2 121.2 132.4 143.3 158 166.7 171.3 172.7 167.5 160.6 152 146.1 140.1 131.8 128.4 128.5 135.8 144.8 153.3 159.5 165.1 169.8 173.6 176 179.2 182.1 185 190.8 196.5 200.4 200.6 198.1 192 182.2 175.7 172.6 163 158 150.2 128.4 112.2 94.7 75.9 55.9 47.3 42.9 38.1 38.1 38.1 38.1 38.1 38.1 40.8 38.1 38.1 38.1 38.1 38.1 38.1 38.1 38.2 46.3 46.5 45.4 45.3 46.1 46.8 47
69.4 68.2 63.9 61.3 61.1 56.7 52.7 49.6 46.8 46.1 44.3 43.2 43.2 43.2 43.2 43.2 43.2 43.2 43.2 43.2 43.2 43.2 43.2 43.2 45.2 48.9 52.5 60.8 69 77 88.4 100.8 114.4 128.5 143.8 153.9 165.7 178.8 187.9 191 198 209 217 227.4 233.6 233.6 235.6 239.5 247.9 253.6 260.8 264.4 265.2 265.4 268.8 267 265.6 264.3 260.4 256.4 252.8 251.1 248.6 242.2 232.5 220.5 212.7 206.7 196.8 193.6 181.5 183.6 184.6 188.2 188.1 187.3 185.9 187.3 188.6 191.9 196.9 200.7 205.6 210.5 215.3 210.5 202 199.4 195.8 192.2 190.5 184 176.9 175.6 169.2 165.1 163.2 161.5 165.2 168.5 168.7 163.9 154.2 139.7 126.3 131.9 128.6 119.1 120.1 109.6 96.5 102 96.8 81.2 70.6 66.4 65.5 65.5 65 65.5 65.5 65.5 65.5 65.5 65.5 65.5 65.5 65.8 71.6 77.2 82.4 97.2 107.7 115.8 127.8 140.8 151.9 162.5 167 166.8 165.6 161.2 153.9 149.3 147.2 132.6 128 126.2 135.1 140.6 148.2 155.5 162.8 166.8 171.3 175.3 177 179.8 182.9 186.5 192.5 195 195.1 194.3 187.6 179.8 173.2 167.3 159.9 150.3 139.7 125.5 108 89.1 68.1 50.5 47.5 44.7 38.1 38.1 38.1 38.1 38.1 38.1 38.1 38.1 38.1 38.1 38.1 38.1 38.1 38.1 38.1 44.8 44.7 45.5 46.1 45.7 45.5 47.4
70.8 67.9 64.4 61.6 59.2 56.9 51.9 49.1 46.7 45 45.4 45.7 44.7 43.2 43.2 43.2 43.2 43.2 43.2 43.2 43.2 43.2 43.2 43.2 46.2 49.8 55.3 62.6 73.3 82.1 93.4 105.1 119.4 133.4 144.9 157.4 172.2 183.4 189.9 197.7 205.4 211.9 220.3 228.9 233.4 234.9 236.9 240.3 248.8 254.8 260.4 263.6 266.7 265.9 266.6 266.1 263.7 261 258 254.9 251.6 250 244.1 236.2 229.8 223.4 214.7 207.7 202.5 191.8 182.9 176.9 181.5 181.6 181.5 181.7 184.1 184.3 187 193.7 199.7 205.5 207.4 214.3 217.3 212 208.9 201.2 201.3 197.3 191.1 185.6 180.4 175.7 171.8 164.4 162.2 167.7 174.2 177.4 178.5 170.6 159.2 148.7 133.8 143.5 139.7 125.2 116.2 108.4 94.8 85.9 86.4 76 72 66.6 65.5 65.5 65.5 65.5 65.5 65.5 65.5 65.5 65.5 65.5 65.5 65.6 67.4 71.6 76.9 92.5 100.1 114.6 125.2 138 150 161.2 166.8 168.9 166 160.2 153.6 149.2 147.4 135 129.4 124.8 127.9 136.1 143.7 150.5 158.4 163.6 169.8 176 173.8 175.3 178.7 183.2 186.3 187.7 188.9 188 184 179.8 172.5 165.1 159.8 151 142.5 127 107.9 85.3 65.4 50.1 46.3 42.9 38.1 38.1 38.1 38.1 39.9 38.1 38.1 38.1 38.1 38.1 38.1 38.1 38.1 38.1 38.1 42 45 45.3 45.7 45.6 46.7 43.9
69.9 66.5 63.4 61.5 58.7 56.4 51.2 47.8 46.5 45.9 46.4 43.7 43.2 43.2 43.2 43.2 43.2 43.2 43.2 43.2 43.2 43.2 43.2 43.2 46.2 54.6 58.5 67.8 79 89.3 100.5 111.4 125.3 139.5 153.8 167 181.6 189 196.9 203 208.7 214.4 222.4 227.7 233 236 236.5 242 247.7 252.7 258.9 262.4 265.9 265.4 264.2 261.6 261.5 260.5 257 253.4 249 245.7 239.8 233 227.9 221.4 213.1 209.6 201.8 196.1 181.6 173 170.6 173.8 175.9 176.6 177.5 180.8 187.7 195.3 201 207.5 210.2 217.6 218 216.3 212.5 209.1 207.7 201.2 195.8 191.4 185.7 179.3 171.4 163.7 166.1 175.1 180.9 184.5 180.1 172 162.6 152.9 142.8 148.9 142 131 120 112.7 97.6 85.5 80 74.5 71 67.1 65.5 65.5 65.5 65.5 65.5 65.5 65.5 65.5 65.5 65.5 65.5 65.7 66.5 70.6 75.5 87.4 97.4 111.2 121.9 133.3 146.3 159.6 165.6 166.4 163.9 157.7 153.3 148.9 144.3 135.3 130.6 123.4 128.7 132.6 137.2 142.9 151.4 162.1 167.7 172.2 170.3 170.8 175 179.2 182.2 184.2 184.1 181.3 176.5 174.9 172.6 168.9 162.9 154.8 146.9 132.6 109.7 85.1 67.1 51 46.2 41.2 38.1 38.1 38.1 42.8 38.1 38.1 38.1 38.1 38.1 38.1 38.1 38.1 38.1 38.1 38.1 38.1 44.6 45.7 45.4 46 44.6 42.9
73.5 66.5 63.8 60.9 59.2 55 49.9 48.5 46.5 46.4 44.2 43.2 43.2 43.2 43.2 43.2 43.2 43.2 43.2 43.2 43.2 43.2 43.2 43.2 48.2 52.7 63.3 74.7 85.6 97.2 108.4 121.3 133.8 147.8 164.8 174.4 187.9 197.3 204.8 207.9 214.2 217.9 223.5 229.6 234.3 238.6 240.8 244.4 247.3 252.8 259.3 263.1 264.5 267.1 264.1 261.3 259.4 258.4 256 250.7 244.3 240.8 237.8 234.7 225.6 216.6 211.6 204.4 203.8 199.6 182.2 169.9 165.2 168.1 168.6 172 176.2 183.2 187.9 194.4 201.2 206.5 216 222.8 222.4 218.7 218.4 223.1 218.5 208 201 195.3 188.6 180.7 168.8 164.2 172.6 181 187 188.1 182.2 173.5 163 156.7 147.4 145.9 141.8 135.9 127.7 116.6 100.4 86 82.7 76 71.9 68.2 67.1 65.5 65.5 65.5 65.5 65.5 65.5 65.5 65.5 65.5 65.5 65.5 66.8 71 76.8 85.4 93.7 106.5 115.1 119.9 135.7 150.8 155.3 157.7 157.7 155.2 152.7 148.9 141.9 133 127 124.2 126.6 125.8 130.5 135.7 145.5 158.3 163.7 167.2 167.4 168.1 172.4 177.1 178.7 178.2 176.8 177.4 172.9 173.5 171.7 168.3 166.7 159.9 152.5 138.2 115.1 91.3 68.7 52.9 46.6 45.2 38.5 38.1 38.1 38.1 38.1 38.1 38.1 38.1 38.1 38.1 38.1 38.1 38.1 38.1 38.1 38.1 38.1 44.2 45.2 45.5 44.7 44.6
72.3 68.5 66 61.6 59.2 53.8 49.8 48.3 46.1 45.5 45.6 43.2 43.2 43.2 43.2 43.2 43.2 43.2 43.2 43.2 43.2 43.2 43.2 43.2 50 54.1 67 81.5 95.4 107.1 118.9 130.5 141.8 154.5 168.6 179.9 192.7 202 207 210.6 218.5 221.9 227.1 233.8 241.6 245.8 242.5 243.2 248.4 254.7 258.5 260.9 264.6 266.1 265.6 262.6 261.4 257.4 252.9 247.2 240.7 239.5 238.5 230.7 218.6 212.2 206.4 201.4 206.4 197.8 181.3 167.3 161.9 161.5 162.4 171.1 176.6 180.8 185.7 195.1 202.4 213.7 222.9 225.5 224.3 226.6 231.5 232.1 225.5 214.4 204.6 195.9 188.7 179.6 167.7 169.8 182.5 185.9 188.9 189.6 184.3 175.7 165.3 157.6 147.8 145.4 141.6 134 128.3 117.9 100.7 87 79.5 75.1 71.7 69.5 66.6 64.6 65.5 65.5 65.5 65.5 65.5 65.5 65.5 65.5 65.5 65.5 65.5 70.6 75.8 83.4 90.2 96.4 103.7 113.4 122.3 133.6 140.7 147.7 154.2 154.3 154.1 151.2 143.2 130.8 121.4 115.4 116.6 120 124.9 132.2 141.3 151.7 159.7 160.9 163 166.8 171.2 173.5 174.5 176.9 179.6 179 174.3 169.7 174.3 171.7 167.9 159.2 149.7 136.9 120.3 98.1 72.3 54.1 46.9 45 41.3 38.1 38.1 38.1 38.1 38.1 38.1 38.1 38.1 38.1 38.1 38.1 38.1 38.1 38.1 38.1 38.1 38.3 43.7 44.8 44.2 45.9
73.8 70.4 66.1 61.5 59.2 54.7 50.5 47.7 46.1 46.3 44.2 43.2 43.2 43.2 43.2 43.2 43.2 43.2 43.2 43.2 43.2 43.2 43.2 43.2 50.4 56.3 69.7 85.3 98.3 112.3 124.5 136.9 148.2 160.1 173.7 188.1 198.2 206.6 215.9 220.6 223.4 225.4 228 234.4 240.7 246.3 239.7 242.7 249.1 255 259.6 263.6 265.4 266.5 266.6 263.7 261 257.1 250.6 249.7 241.7 238.1 232.5 224 212.7 208.4 201.2 197.1 204.5 192.8 180.2 165.5 154.8 159 162.1 167 171.4 179.1 191.8 199.5 206.7 219.6 225.7 226.8 232.3 240.7 239 233.4 229.7 219.9 205.4 193.1 187.7 180.5 166.7 175.5 185.6 186.8 189.2 189.6 184.6 175.7 165.9 161.2 147.1 143.7 138.8 131.5 126 116.3 101.8 95.6 85.6 77.7 73.4 69 66.9 65.2 65.5 65.5 65.5 65.5 65.5 65.5 65.5 65.5 65.4 65.6 66.3 71.1 75.9 82.6 88.2 93.6 99.4 111.3 115.8 127.4 133.7 144.5 150.9 152.3 152.4 150.2 141.2 129.1 119 112.9 109.6 116.5 120.7 127.9 137.7 147.2 152.7 156.4 158.9 162.1 169.7 174.4 175.6 179.4 181.5 183.5 176.8 170.2 167.9 165.9 165.2 160.2 151.6 140.7 124.6 100.4 77.7 54.9 44.6 43.7 43.4 38.1 38.1 38.1 38.1 38.1 38.1 38.1 38.1 38.1 38.1 38.1 38.1 38.1 38.1 38.1 38.1 38.1 38.3 43.4 44.2 46.4
75.7 71.2 66.2 61.5 59.7 56.5 48.9 46.3 46.6 46.9 43.2 43.2 43.2 43.2 43.2 43.2 43.2 43.2 43.2 43.2 43.2 43.2 43.2 45.7 52.3 61.6 76.2 89.4 106.1 120.6 133 143.5 153 166.7 180.3 192.8 201.3 210.1 218.3 221.8 223.8 225.8 227 233.3 240.3 243.1 238.8 243.9 249.7 254.9 259.4 263.4 265.3 266.8 266 262 258 253.4 253.4 252.7 243.2 232.9 226.7 218.5 208.9 200.5 192.1 188 196.6 187.1 174.7 162.8 150.4 160.4 161.4 163.9 176 183.2 192 199.4 209.7 218.3 224.6 232.8 246.1 248.8 240 234.6 230.5 221.8 204.9 193.1 187.4 178.8 173.6 181.6 184.5 183 187.8 187.9 184 172.6 165.8 160.2 145 138.7 134.3 128.8 123.6 115.6 105.1 97.3 89.5 77.6 79 70.8 66.1 65.9 65.3 65.5 65.5 65.5 65.5 65.5 65.5 65.5 65.5 64.8 66.7 71.9 77 81 86.5 93.1 96.7 105.5 112 123.6 128.2 135.8 142 143.8 145.5 141 135.5 130.5 119.1 111.7 108.8 113.4 115.2 125.3 135 143.7 152.1 154 155.9 160.6 165.5 169.7 175.7 181.8 179.9 175.8 170.1 166.6 165.3 166.7 167.4 165.2 156.7 149.4 132.4 110.4 86.3 57.7 42.5 40.9 38.1 38.1 38.1 38.1 38.1 38.1 38.1 38.1 38.1 38.1 38.1 38.1 38.1 38.1 38.1 38.1 38.1 38.1 39.8 41.2 41.7 44.3
76 70.8 64.9 60.9 56.1 50.8 48 47.4 45.6 45.7 43.2 43.2 43.2 43.2 43.2 43.2 43.2 43.2 43.2 43.2 43.2 43.2 43.2 49.5 53.6 67.2 84.1 99.9 122.3 133.9 140.9 151 160.2 174.4 185.5 194.2 203.3 213 217.5 220.1 222.2 224.3 225.8 231.3 238 240 241.1 244.4 251.3 255.5 260.2 262.9 264.9 266.6 264.2 259.8 259.2 256.3 256.2 251.7 243.2 232 222.7 213.4 203 195.5 186.4 179.5 182.7 179.5 169.2 153.9 150.6 157 160.3 163.8 173.1 181.4 192.1 198.7 207.5 218.2 226.8 241 250.5 248.6 242.5 237.4 230.5 219.6 203.7 194 185.7 175.5 180.7 183.4 184.3 182.4 183.7 183.3 178.6 168.8 165 158.4 151.9 142.9 133.8 129.9 124 117.6 106.9 98.4 92.3 82.6 75.6 71.6 69.2 67 66.9 64.5 65.5 65.5 65.5 65.5 65.5 65.5 65.5 65.5 66.2 73.1 78.2 84.1 83.8 89.2 95.4 104.1 106.1 112.9 122.5 128.2 133.7 133 134.4 135.8 127.9 122.7 118.7 110.6 109.8 106.1 111.1 120.8 130.6 138.6 146 148.7 151.8 157.9 161.3 168.1 172.1 173.7 172.8 169.7 167.9 166.5 170 171.5 170.3 168.3 166.6 156.7 139.8 117.1 88 61.4 40.1 38.1 38.1 38.1 38.1 38.1 38.1 38.1 38.1 38.1 38.1 38.1 38.1 38.1 38.1 38.1 38.1 38.1 38.1 40.5 41 41 40.5 41.9
74 68.4 62.5 58.2 52.8 49.7 47.8 47.3 46.1 43.3 43.2 43.2 43.2 43.2 43.2 43.2 43.2 43.2 43.2 43.2 43.2 43.2 43.2 49.7 55.2 69.4 91.2 110.2 129.7 138.1 146 157.1 168.4 183.9 192.2 200.4 205.4 212 215.5 219.7 221.1 221.4 223.8 229.5 235.4 238.4 240.2 244.1 250.8 256.4 261 263.2 263.4 263.4 261 260.9 261 257.4 253.4 247.5 239.5 230.7 221.5 207.6 196.6 189.9 181.4 174.1 168.5 170.9 160.5 147.2 151 153.8 157.9 162.2 172.7 181.9 190 196.7 208.8 218.9 230.6 242.3 246.3 245.4 241.8 236.3 228.2 214.6 202 192.4 184 178.4 183.3 186.2 191.1 190.3 176.8 176.2 173.7 162.3 161.3 159.1 160.2 155.6 147.3 139.5 130.9 121.3 108.4 97.8 91.1 83.8 74.4 72 70.1 67.9 67.4 66 65.5 65.5 65.5 65.5 65.5 65.5 65.5 65.5 67.4 74.2 80.1 81.9 81.1 85.4 92.8 97.6 99 106.8 112.4 119.4 125.5 124.5 125.2 128.8 124.6 120.2 119.6 107.1 108.6 109.9 106.2 113 121.3 133.3 137.4 140.6 144.2 152.3 157.7 161.8 163.3 169.3 173.9 172.2 168.2 166.1 165 166.7 172.3 176.3 174 164.7 146.9 120.4 90.8 65.1 42.3 38.1 38.1 38.1 38.1 38.1 38.1 38.1 38.1 38.1 38.1 38.1 38.1 38.1 38.1 38.1 38.1 38.5 43.4 45.6 46.4 41.2 39.1 41.2
69.7 64.1 59.6 54.8 51.1 48.2 47.2 45.9 44.7 43.2 43.2 43.2 43.2 43.2 43.2 43.2 43.2 43.2 43.2 43.2 43.2 43.2 43.2 50.3 58.8 75 96.5 117 130.2 139.9 151.1 160.1 178.6 190.9 198.9 203.5 208.3 215.8 221.1 220 219.7 219.9 221.9 227.5 232.6 236.7 239.4 244.3 250 255.6 259.8 261.3 261.8 260.6 259.7 261.3 259.1 255.2 250.4 243.9 234.1 224.6 213.8 201.3 190.1 183.6 176.6 169.9 162.3 163.1 150.9 142.1 149.9 150.1 154.8 160.3 173 180.4 187.1 200.6 212.1 220.8 233.4 240.8 243.1 242.1 238.4 232.6 223 211.6 200 189.9 182.7 181.9 185.5 190.8 193.2 189.7 173.7 161.7 162.7 153.1 156.2 158.5 165.3 163.4 159.2 149.8 137.6 126 113.3 99.6 91.1 82.3 74.6 72 71.3 69.6 67.8 66.1 65.5 65.5 65.5 65.5 65.5 65.5 65.5 65.5 69.2 75.1 79.1 80.2 79.8 82.8 86.9 91.7 97.5 100.2 104.3 110.4 116.1 121.5 120.8 121.4 122.6 115.8 110.4 105.5 102.6 105.4 103.7 107.3 113.1 122.4 128.1 133.8 140.9 146.6 151.4 156.9 162.3 169.2 171.7 167.4 163.5 159.6 158.9 166.9 175.7 177.5 174.6 165.5 150.5 124.6 97.4 72.2 48.8 38.1 38.1 38.1 38.1 38.1 38.1 38.1 38.1 38.1 38.1 38.1 38.1 38.1 38.1 38.1 38.3 41.8 41.5 46.8 44.2 38.1 38.1 38.1
65.9 62.2 58 53.9 50.2 47.9 47.4 46.4 43.2 43.2 43.2 43.2 43.2 43.2 43.2 43.2 43.2 43.2 43.2 43.2 43.2 43.2 43.3 52.8 63.2 82 102.9 121 133.3 143.5 154.5 164.7 185.2 195.5 201.3 204.7 209.1 221.6 226.6 221.7 217 218.2 222.3 224.9 229.3 234 239.1 244.2 250.4 256.1 259.2 261.1 262.3 261 260 260.5 256 251.1 245.3 236.3 225.3 214.9 206 199.4 189 179.6 169.5 161.5 155 155.3 143.5 147.2 147.1 149.4 152.6 159.4 168.2 180.9 191.7 203.4 212.7 223.6 234.2 240 240.8 240.1 235.8 228.5 218.1 208 196.4 188.2 183.4 185.2 187.5 191.2 190 180.1 167.6 155.9 147.7 144.1 145.6 152 160.8 161.7 160.4 160.6 142.6 131.3 114.9 102.2 90.1 84.3 78.1 73.5 71.7 69.8 68.1 66.1 65.5 65.5 65.5 65.5 65.5 65.5 65.5 65.5 71.4 76.4 77 77.4 77.8 79 82.8 88.3 96.4 97.9 103.2 107.7 110.4 116.1 115.6 114.8 114.8 111.3 106.7 104.5 98.9 99 98.8 101.2 103.7 110.7 117.8 128.5 135.1 141.6 149.5 157.5 165.3 169.4 168.1 163.1 160 157.4 161.1 166.7 170.9 176 179 174.1 158.3 134.6 109.3 82.8 56.2 38.1 38.1 38.1 38.1 38.1 38.1 38.1 38.1 38.1 38.1 38.1 38.1 38.1 38.1 38.1 38.1 38.1 38.1 40.9 39.6 38.1 38.1 38.1
64.4 61.3 56 51.7 48.6 47.6 47.5 46.1 43.2 43.2 43.2 43.2 43.2 43.2 43.2 43.2 43.2 43.2 43.2 43.2 43.2 43.2 43.4 52.9 68.6 86.6 108.7 124.8 134.4 144.6 156 170.4 182.3 190.5 199 206.8 208.6 219.2 220.1 218.2 214.9 217 219.2 222.6 228.1 232.6 239.3 245.2 251.4 256.8 260.9 266.4 267.3 262.7 260.3 257.5 252.8 247.7 239.4 227.3 217.6 209.7 204.2 198.3 189.3 176.6 165.6 157 146 139.6 141.6 143.8 147.8 150 152.4 160.1 171.4 182.7 195.1 204.8 213.2 224.6 234.3 238.8 240.3 239.1 233.9 225.1 214 206.3 200 187.9 185.1 185.4 186.8 188 184.6 175.4 162 150.2 146.2 146.5 147.5 141.9 149 151.6 153.9 162 152 135.8 121.7 104.5 90.9 84.7 75.8 74.3 72.2 70 68.2 66.1 65.5 65.5 65.5 65.5 64.8 65.5 65.5 65.5 70.3 74.4 74.3 73.8 75.2 77.2 84 88.9 95.4 96 100.9 101.2 103.6 103.4 106.5 109 108.1 105.2 99.5 97.3 96.5 96.7 97 97.9 101.7 105.2 112.9 123 131.5 143.4 150.5 159.9 163.8 167.4 168.4 167.2 160.7 155.2 154.4 159.6 173 178.9 180.3 179.7 169.5 148.7 125.9 97.8 64.2 38.1 38.1 38.1 38.1 38.1 38.1 38.1 38.1 38.1 38.1 38.1 38.1 38.1 38.1 38.1 38.1 38.1 38.1 38.1 40.1 40.1 38.1 38.1
63.4 58.1 53.9 51 48.1 47 46.8 43.2 43.2 43.2 43.2 43.2 43.2 43.2 43.2 43.2 43.2 43.2 43.2 43.2 43.2 43.2 47.6 59.1 71.3 88.1 110.1 127 136.7 147.8 162 174.6 184.6 193.1 200.4 204.5 208.5 212.7 211.9 207.9 214.2 220.6 221.2 223.9 227.8 233.9 241.3 248 253.8 260.4 263.4 267.8 268 261.9 258.7 254.1 247.9 242.5 233.1 224.4 218.2 208.6 201.2 193.7 183.5 170.4 162.6 152.8 140.8 134.5 142.6 139.1 146.8 150.2 153.3 161.4 173.1 184.9 196.1 203.7 212.8 224.4 231.6 237.2 238.4 236.3 229.8 219 210.9 211.5 204.1 189.2 184.3 183.9 186.5 183 179.9 169.9 157.8 150.6 154.4 159.6 163.5 152.7 140 141.2 148.4 157.8 156.8 145.7 126.1 108.4 95.1 85.2 80.5 76.5 73.5 70.8 68.2 65.5 65.5 65.5 65.5 65.5 70.4 69.3 65.5 66.2 69.8 73.2 72.8 72.6 73.9 77.4 81.7 87.3 92.2 89.6 94.7 100 100.3 101.6 100.4 100.1 100.1 98.7 97.2 95.8 95.1 94.9 96.3 97.2 100.4 102.5 110.1 118.3 128.6 139.9 147.3 156.9 163.7 168.5 170.5 169.2 162.7 154 149.3 155.6 165.7 173.3 172 175.7 171.9 157 134.3 102.6 65.8 38.1 38.1 38.1 41.6 42.6 38.1 38.1 38.1 38.1 38.1 38.1 38.1 38.1 38.1 38.1 38.1 38.1 38.1 38.1 38.5 41.5 38.1 38.1
61.2 56.2 52.4 49.1 47.9 46.5 45.5 43.2 43.2 43.2 43.2 43.2 43.2 43.2 43.2 43.2 43.2 43.2 43.2 43.2 43.2 43.2 53.2 65.1 76.6 88.4 107.6 128.6 135 148.1 162.9 177.9 188.9 192.6 199.4 199.7 203.6 202.4 208.2 210.9 214.4 219.5 220.4 222.4 226.3 234.4 243.5 249.2 254.7 258.9 262 263.2 263.4 259 255 249.9 243.9 237.1 230.4 225.4 213.5 204.1 196.7 190.3 176.7 165.3 155.9 144.1 134.9 133.4 135.6 139.1 142.4 149.7 155.7 162.6 173.7 185.2 195.9 203 212.2 222.8 228.8 233.9 234.1 228.9 218.3 212.8 215.9 213.7 206.2 190.6 182.6 180.6 181.7 178.1 173.6 164.3 160.8 161.1 165.6 169.3 170.7 161.4 150.4 139.6 147.7 151.6 151.8 147.6 131.7 109.7 96.4 90.9 88.1 85.2 77 73.4 68 65.6 65.5 65.5 65.5 65.5 69 70.1 65.5 69.1 70 71.2 72.1 73 73.2 74.3 77.2 79.1 83.8 87.6 95.7 98.1 98.4 97.1 96.1 95.6 95.2 94.8 95.5 94.1 94.1 94 97.4 98.2 95.5 97.8 102.5 112 122 135.1 145 153.9 163.3 167.7 168.2 168.8 162.2 152.4 144.9 146.1 159.8 165.5 166.6 164.5 158.7 144.7 121.4 93.5 66.5 43.9 38.1 38.1 41.3 44.1 38.1 38.1 38.1 38.1 38.1 38.1 38.1 38.1 38.1 38.1 38.1 38.1 38.1 40.9 41.1 38.1 38.1 40.7
57.8 52.4 48.9 48.1 46.5 46.1 45 43.2 43.2 43.2 43.2 43.2 43.2 43.2 43.2 43.2 43.2 43.2 43.2 43.2 43.2 45 58.4 68.4 78.7 88.3 107.3 126.6 133.6 146.8 158.7 176.3 185.1 186.5 194.2 191.4 192.9 195.5 199.2 207.6 212.3 214 217.4 222.4 229.2 237.2 246.9 252.1 254.5 256.8 259.1 259.4 257.4 253.9 248.6 246.2 240.7 234.1 228.7 217.5 207.4 200.2 193.3 184.3 171.5 160.3 148.8 138.6 132 130.8 132.9 139.2 144.6 151 158.1 163.7 172.1 184.7 194.7 202.2 211.6 220.9 225.2 228.4 225.6 215.4 217.1 221.4 215 213.1 203.4 188.2 179.6 177.1 174.4 170.9 167.6 169.5 171.9 170.4 168.6 172.8 175 167.3 161.3 146.6 133.6 136.9 139 141.7 137.6 112.2 105.1 98.7 94 87.3 82.6 79.8 75.8 66.9 65.5 65.5 65.5 65.5 65.5 66.5 65.6 67.5 70.5 71.4 72.1 72.4 71.9 72.3 75 77.2 79.8 85.1 93.2 98.3 102.7 99.6 99.8 98.5 96.9 98 100.5 95.8 92.9 93.7 98 99.5 94.2 94.8 96.9 102.8 117 119.6 131.7 150.8 161.5 164.4 165.3 166.5 159.3 149.5 140.2 139.8 149.4 157.9 157.3 156.6 151.1 142.1 118.4 91.9 68.8 49.1 41.3 38.5 41 38.1 38.1 38.1 38.1 38.1 38.1 38.1 38.1 38.1 38.1 38.1 38.1 38.1 39.4 43.2 42.2 40.8 38.1 40.2
54.9 49.4 48.1 46.8 45.8 45.1 44.5 43.2 43.2 43.2 43.2 43.2 43.2 43.2 43.2 43.2 43.2 43.2 43.2 43.2 43.2 51.4 61.9 69.5 79.8 89.4 102.9 119.9 131.9 144.1 155.1 170.1 175 176.2 180.9 181.9 188.4 190.7 197.6 203.8 206.1 210.5 217.3 224.8 232.5 240.9 250.5 252.2 253.8 257.4 258.2 254.6 251.5 249.5 247.7 242.9 236.2 228.3 219.7 210.3 204 197.4 188.8 179.1 166.6 153.9 145 145 139.9 129.7 131.6 139.4 142.9 149.7 157.7 165.5 172.2 184.3 192.5 199.5 209 217 220.8 222 215.8 221.9 225.8 219 212.8 208.6 197.8 185.4 178.5 176.1 175.3 174.6 171.7 174.4 177.9 173.8 167.2 170.6 175.8 170.6 165.1 151.9 141.5 134.4 128.2 124.4 126 113.8 111 106.3 99.6 96.3 94.2 89.5 83.6 72.8 65.5 65.5 65.5 65.5 65.5 65.5 65.5 65.5 68.1 68.8 69.3 70 70.2 72.4 73.9 73.7 74.8 81.6 94.1 99.9 102.4 104.9 106 106.3 106.9 106 104.3 97.4 91.8 92 92.3 92.7 91.7 90.8 92 94.2 100.1 109.5 126.4 148.7 161.5 161.2 159.5 159.8 155 146.5 137.8 132.7 137.9 144.3 151.1 155.7 148.9 139.8 123.8 95.5 68.8 50.3 42.2 42.8 38.1 38.1 38.1 38.1 38.1 38.1 38.1 38.1 38.1 38.1 38.1 38.1 38.1 38.1 38.1 42 42.5 40.6 39 40.6
50.6 48.4 47.8 46.8 46.3 45.6 44.6 43.2 43.2 43.2 43.2 43.2 43.2 43.2 43.2 43.2 43.2 43.2 43.2 43.2 43.2 56.9 63.2 69.3 80.2 90.4 101.4 111.5 123.7 138 152 160.6 164 169.3 173.5 173 180.4 186.2 192.8 198.7 204.8 211.2 217.1 224.9 234.1 242.5 250.2 254.9 256 258.3 256.7 252.1 250 250.5 246.2 239.6 227.6 221.7 216 206.7 200.3 194.3 182.7 173.5 159.6 146.2 149.2 156.8 147.1 132.3 131 135.6 140.7 148.3 155.8 164.1 171.9 182.7 189.7 197.5 205.6 213.9 216.3 215.3 219 222.1 223.7 217.8 210 203.3 197 186.9 181.8 180.6 181.3 181.2 180 179.4 179.4 173.4 169 167.2 170.5 168.3 162.8 153.4 149.5 143.8 136.1 128.7 126.1 119.1 117.9 113.3 106.5 105.8 106 101.3 89.6 81.6 71.2 65.5 65.5 65.5 65.5 65.5 65.5 65.5 68.2 68.6 68.2 67.5 69.5 70.7 72 72.5 75 82.2 92.1 98.8 106.5 110.8 110.6 110.2 108 103.1 99.2 94.6 91.8 90.7 90.5 89.9 89.2 88.3 87.6 88.2 93.5 103.1 120 141.8 158.9 157.3 155.9 154.3 149.7 144.6 136.1 132.6 124.3 127.8 131.5 139.9 133.1 123.9 110.2 83.6 66.9 52.3 38.1 38.1 38.1 38.1 38.1 38.1 38.1 38.1 38.1 38.1 38.1 38.1 38.1 38.1 38.1 38.1 38.1 40.8 42.4 42.1 41 40.7
51.5 49.3 47.8 46.9 46.8 46.1 44.7 43.2 43.2 43.2 43.2 43.2 43.2 43.2 43.2 43.2 43.2 43.2 43.2 43.2 43.2 56.3 64.6 70.8 81.7 89.5 98.7 105.1 118 133.9 146.3 151.6 155.9 162.6 165.6 169.3 176.5 183.9 191.9 199.4 206.7 213.6 220.2 228.1 237.2 245.5 252.1 255.7 257.7 257.5 255.3 252.6 249.1 243.9 239.6 231.4 225.2 220.8 213.9 202.9 197.1 188 175.5 163.2 152.9 147 156.3 155.4 145.3 128.4 132.7 134.1 137.7 145.5 153 160.5 169.1 177.4 187.6 194.8 201.7 207.8 209.2 213.9 217.9 221.2 220.9 215.6 205.8 201.4 198.2 187.6 185.3 187 189.1 189.3 186.6 184.7 181.5 176.5 171.7 166.7 166.3 164.7 164.8 162.6 159.2 153.1 145.9 136.2 138.3 129.8 125.3 121.2 117.6 114.8 112.8 110.7 100.3 90.8 80.2 70.6 66.3 65.5 65.5 65.5 65.5 65.5 65.8 65.2 65.7 66 67.9 67.6 69.1 71.5 74.3 82.5 92 101.5 112.5 116.7 116.2 113 107.9 103.9 100.4 98.4 97.1 91.8 89.4 89.4 88.6 87.9 87.2 91.6 93.8 108.5 113.3 133.7 147.3 149.5 146.4 143 138.4 136.4 134.6 129.5 119.9 112.3 114.5 113.8 105.9 90.1 72.1 56.9 49.9 38.1 38.1 38.1 38.1 38.1 38.1 38.1 38.1 38.1 38.1 38.1 38.1 38.1 38.1 38.1 38.1 38.1 38.1 38.1 42.4 43.3 42.6 41.6
51.4 49.8 50.2 47.5 46.1 44.3 44.2 43.2 43.2 43.2 43.2 43.2 43.2 43.2 43.2 43.2 43.2 43.2 43.2 43.2 43.2 55 65.6 74.1 82.6 85.7 90.2 99.9 111.7 126.4 137.7 145.3 151 158 159.6 167.5 176.4 185.5 194.9 202.6 210.4 217.2 224 231.9 240.2 247.3 252.7 257.3 258.7 257.1 255 252.6 247.4 241.3 234.8 228.9 224.6 219.8 208.1 200 191.1 179.5 168.7 155.7 144.7 150 152.7 146.1 131.7 125.2 131.6 132.5 140.8 148.6 157.1 164.1 172.1 179 185.8 194.3 200.2 205.1 208.2 212.4 217.3 220.7 218.7 211.6 203.6 202.5 198.1 191.4 192.5 195 195.1 194.5 191.4 187.8 184.9 179.4 173.7 169.7 171.6 172.5 172.7 169.4 164.6 159.1 155.2 153.3 145.9 134.8 132.3 129.4 123.2 119.9 115.2 112.6 107.1 102 92.1 77 67.5 65.5 65.5 65.5 65.5 65.5 65.5 64.4 65.8 66.4 66.2 66.2 67.8 71.1 77.8 86.1 94.5 105.1 114.4 119.3 117.5 113.8 112.3 108.6 104 103.2 100.7 97.1 96.2 92.4 89.5 87.3 87.1 91 94.3 106.8 109.5 121.7 127.2 137.4 136.2 133 126.2 126 123.8 123.9 115.2 106.6 100.2 91.6 82.9 68.3 52.3 42.6 46.7 38.1 38.1 38.1 38.1 38.1 38.1 38.1 38.1 38.1 38.1 38.1 38.1 38.1 38.1 38.1 38.1 38.1 38.1 38.1 43.1 47.7 46.4 44.1
50.1 49.7 47.8 46.5 45.2 44.1 43.2 43.2 43.2 43.2 43.2 43.2 43.2 43.2 43.2 43.2 43.2 43.2 43.2 43.2 45.8 54.3 64.4 73.7 78.1 76.5 90.9 100.5 109.4 122 134.9 143.1 148.7 155.7 162.6 170.5 179 188.4 197.8 206.2 214.2 221 228 236.4 244 250.7 256.4 258.6 258.6 256.8 255 252.6 247 239.8 231.9 226.9 222.8 214.3 202.8 192.4 181.3 170 158.9 148.4 139.4 147.2 139.8 135 125.6 122.3 127.5 132.9 143.5 152 159.6 167.3 177.2 184 189.6 193.7 198.2 204.1 208.4 211.9 216.8 218.8 215.8 208 203.4 203.1 199.6 197.2 196.9 198.3 198.8 198.5 195.9 191.4 187.2 182.8 178.5 172.4 178.4 180.9 178.2 174.1 171.1 170 170.5 169.1 164.5 149.5 139 131.8 128.7 123.9 127.1 123.6 113.7 105.6 96.2 86.8 73.4 66.5 65.5 65.5 65.5 65.5 64.7 64.5 64.8 66.5 66.6 66.5 69.4 75.3 83.9 92.7 96.4 105.2 115 125.5 122 115.9 112.7 111 108.1 106.3 103.7 101 99.2 90.9 88.6 86.4 87.2 88.5 91.9 99.1 100.9 114.3 124.5 128.4 124.9 125.6 120.4 114 110.5 109.6 106.7 102.4 93.6 81.5 75.3 64.4 49.1 38.1 38.1 38.1 38.1 38.1 38.1 38.1 38.1 38.1 38.1 38.1 38.1 38.1 38.1 38.1 38.1 38.1 38.1 38.1 38.1 38.5 46.1 53.3 50.1 47.8
52 49 46.6 45.8 44.6 43.2 43.2 43.2 43.2 43.2 43.2 43.2 43.2 43.2 43.2 43.2 43.2 43.2 43.4 45.8 48.1 55.3 64.1 67.8 73.7 86.8 95.5 110.3 118.1 119 134.1 144.3 151.9 158 166.6 174.9 182.8 192.1 201.4 210.3 218 224.6 231.5 239.5 247.1 254 259.1 260 258.7 257 254.2 251.5 246.1 237.9 232.2 226.4 220.5 211.9 202 191.5 175.2 162 153.3 143.2 134 138.9 138.4 138.1 122.8 122.7 127.1 133.5 140.7 151 161.8 171.9 178.4 185.7 192.9 197.7 202.3 205 209.2 212.5 215.3 215.6 212.5 205.3 201.6 202.1 202.2 200.5 200.8 202.4 202.5 201 197.9 196 190.7 188.3 185.3 180.4 184.7 186.4 187 186.3 188.6 187.6 183.5 181.8 173.9 159 147.4 136.8 133.2 128.7 135.2 129.4 115.8 109.7 100.9 87.4 78 69.9 65.7 65.5 65.5 65.5 65.5 65.5 65.5 66.4 68.8 68.7 71.7 78.1 82.1 89.6 96.4 105.7 114.3 118.8 119.5 118.7 118.8 114.5 110.9 108.1 105.7 103 98.1 89.9 87.3 86.1 86.4 87.8 91.4 97 99.7 103.4 114.3 118.7 121.2 116.9 112 105.4 103.1 101.3 98.4 93.8 83.5 70.7 62.3 53.9 45.5 38.1 38.1 38.1 38.1 38.1 38.1 38.1 38.1 38.1 38.1 38.1 38.1 38.3 38.1 38.1 38.1 38.1 38.1 38.1 38.1 39.6 46.4 50.4 51 48.7
51.4 49.6 47.8 46.5 43.4 43.2 43.2 43.2 43.2 43.2 43.2 43.2 43.2 43.2 43.2 43.2 43.2 43.2 43.2 45.3 48.4 56.5 58.7 71.5 84 95.5 108.1 116.3 126.4 131.3 132.5 143 151.5 161.6 172.3 180.4 187.6 196.6 205.7 215.3 221.7 228 234.8 242.3 249.8 256.6 260.3 260.7 259.7 257 252.3 248.7 243.6 236.8 231.5 226.8 221.2 213.7 205.4 196 178.8 164.1 154 143 128.6 125 136.9 133.6 118.7 121.8 124.8 134.7 144 154.2 163.7 174.4 181.9 189.7 196.4 202 207.4 208.9 211.9 211.5 210.9 210.6 207.6 202 199.5 201.4 204.5 202.9 205.6 206.3 205.7 203 200 197.5 195.5 191.6 187.7 183.3 190 194.9 200 202.6 201.7 201 195.8 192.4 176.1 168.4 155.5 141.6 136.5 130.5 135.2 129.7 119.5 114.5 106.8 99.2 88.7 79.6 72 70.9 73.9 69.9 65.5 65.5 65.5 65.5 67.2 67.4 69.5 72.2 79 90.1 97.6 104.5 113.5 124.1 132.3 129.8 124.2 118.5 113.6 110 107.5 103 97.5 90.9 87 86 86 87.8 93.1 94.2 97.9 102.3 106.9 111.8 112.2 110.3 106.8 102.1 97.9 91.3 91.5 85 74.8 67 59.9 51.8 44.6 38.1 38.1 38.1 38.1 38.1 38.1 38.1 38.1 38.1 38.1 38.1 38.1 38.1 38.1 38.1 38.1 38.1 38.1 38.1 38.1 42.2 44.7 50.9 50 52
51.9 50.4 47.8 43.8 43.2 43.2 43.2 43.2 43.2 43.2 43.2 43.2 43.2 43.2 43.2 43.2 43.2 43.2 43.2 46.7 52.7 58.4 68.8 80.2 90.6 102.7 114.1 122.4 131 138 142.4 145.9 152.7 168.1 178.7 185.7 192 200.6 210.3 219.6 225 231.2 237.9 244.8 252.1 258.4 261.5 262.1 259.7 255 252.9 249 241.2 236.8 232.6 228.6 225.6 221.6 213.5 200.2 184.8 167.8 156.1 146 127.6 122.1 126 121.6 117.8 120.9 126.2 134.8 144.9 155.8 166.7 176.8 185 193.5 200 205.2 210.5 212.2 213.8 208.3 204.6 203.5 202.2 198.1 196.4 203.6 207.2 206 206.3 206.3 204.9 202.9 201.5 200.1 197.6 193.9 188.8 189.3 197.5 208 215.2 216.6 211.2 207 201.5 192.7 178.1 174.8 163.8 149.9 137.6 133.3 130 127 124.4 118.8 114.7 108.1 99.7 89.7 82.1 78.7 80.5 77.5 67.8 65.8 66.6 67 65.5 66.3 67.3 70.3 78.4 88.7 97.4 108.3 120.9 132.5 138.3 132.9 128.1 121.3 113.8 110.1 108 102.2 97 93.1 92.4 89 86.3 89.6 93.9 97.1 99.9 103.3 108.4 111.2 111.1 109 104.9 100.2 94.2 85.6 79.2 73 70.4 67.7 61.2 51.5 43.6 38.1 38.1 38.1 38.1 38.1 38.1 38.1 38.1 38.1 38.1 38.1 38.1 38.1 38.1 38.1 38.1 38.1 38.1 38.1 38.1 41.9 45.2 49.1 50.4 53.5
53.5 51.2 46.7 43.2 43.2 43.2 43.2 43.2 43.2 43.2 43.2 43.2 43.2 43.2 43.2 43.2 43.2 43.2 43.2 46.1 53.4 66 77.3 87.1 96.6 108.1 118.1 126.9 135.6 143 149.7 156.6 162.7 174.9 183 188.2 194.8 203.6 214 222.7 228 234.3 240.7 247 254.2 259.8 262.8 263.4 259.6 255.1 252.2 249.7 241.7 237.5 235.3 234.1 233.3 227.9 217.2 204.9 187.9 169.7 154.5 142.5 126.8 120 119.9 118.9 117.5 120.1 124.3 132.2 143.2 156.8 170.4 179.4 189 197.4 203.7 209 211.2 214 211.6 207.6 201.7 196.3 196.1 194.1 200.6 209.7 211.3 210.3 207.5 205.9 204.6 203 201.9 201.1 197.2 192.4 191.8 197.1 208.8 221 224.1 218.4 212.6 204.6 196 192.5 183.3 179 172.1 155.8 141.6 134.1 130.4 134.5 130.2 123.7 120.8 116 110.7 101.5 90.2 81.3 80.6 82.2 72.8 67.9 66.6 65.7 64.8 65.8 66.4 69.1 78.7 89.9 102 111.1 122.2 129.9 135.5 134 129.3 121.6 114.4 108.4 103.8 99 96.7 96 99.8 98.1 88.9 88.1 92.4 96.6 97.2 101.2 108.3 112.7 111.3 108.7 105 101.4 95.3 88.5 78.7 72.5 70 66.5 56.6 49.9 44.5 38.1 38.1 38.1 38.1 38.1 38.1 38.1 38.1 38.1 38.1 38.1 38.1 38.1 38.1 38.1 38.1 38.1 38.1 38.1 39.3 43.6 46.7 48.9 51.9 58.3
52.5 48 45.1 43.2 43.2 43.2 43.2 43.2 43.2 43.2 43.2 43.2 43.2 43.2 43.2 43.2 43.2 43.2 43.2 48.1 60 72.5 84.2 93.5 103.6 113.6 122.2 130.6 140.6 147.7 154.5 162.3 171 177.9 186.3 190.1 197.1 206.1 215.5 223.4 229.8 236.4 242.8 249.1 255.1 260.7 264.3 265.2 259 257.7 256.4 251.9 241.8 240.1 239.9 241.3 239.4 230.2 218.6 204.9 187.6 168.6 151.3 138.5 124.9 119 118.4 117 115.5 118.9 124.6 133.3 143.5 158.5 171.5 184 195.1 202.7 208.5 209.8 209.8 210.4 208 205.4 201.8 195.9 191.7 193.6 205.4 212.4 214.6 214.3 211.9 207.2 204.4 202.2 201.3 199.2 196.4 199.3 202.5 208.8 216.1 222 219 212.8 205 200.3 193 188 184.5 181.3 176.5 161.2 145.9 136 133.5 136.3 136.8 136.4 128.3 118.2 108.3 99 87.7 78.4 77.5 79 71.8 67.9 66.6 65.3 64.4 65.2 66 68.8 80.5 90.8 100.1 110.4 124.5 128.8 133.8 134.4 127 120.2 114.9 107.6 104.1 103 100.7 101.4 104.2 103.6 96.5 86.9 93.3 98.1 94.4 101.7 107.5 111.8 112.5 109.8 105 104.5 100.9 94.3 85.1 70.8 64.4 60.3 56.5 53.6 46.7 39.2 38.1 38.1 38.1 38.1 38.1 38.1 38.1 38.1 38.1 38.1 38.1 38.1 38.1 38.1 38.1 38.1 38.5 43.5 44.6 45.7 49 52 54.7 59.8
54.2 49.1 45.5 43.2 43.2 43.2 43.2 43.2 43.2 43.2 43.2 43.2 43.2 43.2 43.2 43.2 43.2 43.2 43.2 54.4 65.9 77.9 88.6 98.5 109.5 118.8 128.3 136.6 145.5 152.1 159.8 167.4 175.7 183.7 187.2 194.1 203 208.9 217.9 224.6 231.4 238 244.6 250.7 256.8 260.9 262.4 260.8 258.2 260.8 258.1 251.9 246.8 245.7 246.1 245.2 240.9 231.9 218.5 203.1 185.2 166.2 151.7 137.9 124 118.1 117 114 115.3 117.5 123.1 131.7 144.4 160 176.2 192.3 201.5 209 211.9 208 206.4 206.4 205.1 202.2 198.8 195.7 189 199 209 213.3 216.2 216.2 215.6 213.9 212 208.9 206.4 203.2 204.3 208.6 210.3 211.5 212.8 215.7 212 208.1 203.9 198.7 193 190.5 186.8 183.8 178.4 164.9 151.6 140.3 138.9 143.3 141.5 134 124.3 115.4 107.3 98.6 89 79 73.4 72.3 69.9 67.4 67.5 65.8 63.9 64.7 65.7 69.9 81 89.6 97.6 105.5 115.1 121.7 129 131.6 124.9 122.9 119.1 109.8 105 102.8 101.7 101.1 101.8 101.3 95 86.6 88 87.9 94.6 103.1 105.9 108.7 112.7 113.2 113.3 108.6 101.2 96.9 86 73.2 60.4 58.2 55.5 54.3 44.6 39.9 38.1 38.1 38.1 38.1 38.1 38.1 38.1 38.1 38.1 38.1 38.1 38.1 38.1 38.1 38.1 40.3 43.4 45.2 46.9 48.1 54 57.2 59.2 64.2
56.3 50.5 46 43.2 43.2 43.2 43.2 43.2 43.2 43.2 43.2 43.2 43.2 43.2 43.2 43.2 43.2 43.2 48.7 60 72.1 82.8 93 103.7 113.9 122.6 132.6 140.4 149.3 157.4 165 172.6 181 189.6 196.3 200 204 212.2 220.3 226.6 233.9 240 246.6 253 260.8 262.7 265.8 264 264.7 263.5 259.1 253.1 249.9 248.9 250.7 246.5 239.3 228.5 215.4 199.5 183.2 167.4 153.3 136.1 122.4 117.3 115.9 113.5 113.8 116.8 121.7 130.8 145.5 164 183.8 198.7 207.2 211.6 207.7 204.9 204.4 204 202 198 195.3 190.3 191.1 202.8 209.3 213.8 216 218 220.4 222.9 221.2 216.3 211.6 208.6 207.6 209.6 210.1 208.8 209.5 212.2 210.6 210.9 207.7 203 198.4 196.1 190.3 183.6 178.7 168.9 159.4 147.8 144.2 144.8 139.9 133.5 125.7 118.4 110.3 102.8 95.2 81.9 70.3 68 67 66.1 65.8 64.8 64.4 64.8 65.5 69.3 77.6 83.9 91.3 100.8 115.1 122.7 127.1 130.5 128.7 127.6 121.3 109.5 104.6 104.2 104.6 97.8 91.2 88.9 84.3 82.1 83.9 86.2 93 97.8 103.5 107.5 113.1 113.5 108.8 105.6 104 97.1 85.5 72.1 60.2 54.2 50.6 46.6 38.1 38.1 38.1 38.1 38.1 38.1 38.1 38.1 38.1 38.1 38.1 38.1 38.1 38.1 38.1 38.1 38.1 40 43.8 45.5 47.1 50.7 56.1 58.9 62.4 66
56.4 51.5 46 43.2 43.2 43.2 43.2 43.2 43.2 43.2 43.2 43.2 43.2 43.2 43.2 43.2 43.2 43.2 53.4 65.7 78.9 88.3 99.2 109.8 118.9 128.5 135.9 144.8 154.4 163.3 171.1 179 183.6 191.7 195.7 201.8 204.1 209 222.3 229.4 236.3 245.3 250.8 254.9 262.1 265.4 267.2 267.6 267.4 264.6 258.5 252.7 251 251.9 250.9 245.6 236.1 224.7 211.5 196.8 180.1 167.5 155.2 139.5 123.8 118.9 117.1 114.6 111.4 115.7 116.4 127.2 146.4 169 191.7 203.2 207.1 205.1 202.9 202.9 202.9 204.4 203.2 199.1 191.8 186.2 195.1 203.5 210.4 213.5 217.2 222.2 225.7 227.4 226.5 220.6 213.3 209.4 208.7 208.2 207.4 206.8 208.9 211.2 213.8 214.2 211 206.5 202.7 199.7 191.8 183 178.1 174.4 169 156.6 149.6 149.4 145.6 139.1 131.9 125.3 119.9 113.2 100.5 82.4 71.8 69.1 66.4 65.6 65.3 64.6 65.8 63.9 65.4 68.1 73.4 80.1 88.7 101.3 118.7 123.7 126.3 131.3 133.6 128.3 119.3 107.8 101 100.1 100.5 91.9 85.3 82.6 81.7 82.3 85.2 87.4 88.3 94.9 102.6 105.9 110.3 112.8 109.4 105.7 102.4 97.4 89.5 75.7 61.3 51.5 46.4 38.6 38.1 38.1 38.1 38.1 38.1 38.1 38.1 38.1 38.1 38.1 38.1 38.1 38.1 38.1 38.1 38.1 38.1 41.5 43.4 46.8 48.5 51.8 56.6 60.2 63.5 68.8
56.5 50.9 45.5 43.2 43.2 43.2 43.2 43.2 43.2 43.2 43.2 43.2 43.2 43.2 43.2 43.2 43.2 48.8 64 75.6 83.5 94.4 105.6 116.2 126.6 137.2 144.1 152.1 160.5 169.1 176.7 185.1 187.6 195.6 200.4 205.9 210.6 216.9 227.3 232.7 241.4 249.3 253.1 256.7 263.2 269.6 272 273.8 271.3 263.4 259.1 254.8 253.3 253.6 249.5 243.4 234 222.9 208 189.6 182.6 169.6 155.3 141.1 127.8 132.1 129.1 116.4 112.5 113.5 114.1 126 149.4 176.1 195.8 196.4 199.6 198.3 200.1 201.3 203.5 205.8 201.9 196.2 186.4 185 195.2 204.7 212.4 220.2 224.2 227.4 229.5 230 225.5 218.8 210.8 206.5 206.5 206.5 205.3 206.2 208.7 212.9 215.1 214.9 212.4 208.7 206.7 203.6 194.7 187.1 181.7 179.1 174.9 165.3 155.7 156.8 152.5 146.5 141 136.7 130.6 114.7 100.6 88 73.8 66.9 66.4 65.3 64.6 65.4 65.4 65.1 65.6 67 73 79 85.9 98.1 116.5 125 127 132.4 130.7 125.9 116.8 107.7 101.2 100.5 93.7 87.1 83.5 81.7 81.5 83.6 89 88.1 86.8 93.1 99.3 104.6 107.2 113.2 112.9 107.5 104.2 95.5 86.5 73.5 60.3 48.3 39.2 38.1 38.1 38.1 38.1 38.1 38.1 38.1 38.1 38.1 38.1 38.1 38.1 38.1 38.1 38.1 38.1 38.1 38.1 42.6 45.5 49.6 51.4 55 58 61.5 65 71.6
54.4 47.4 43.2 43.2 43.2 43.2 43.2 43.2 43.2 43.2 43.2 43.2 43.2 43.2 43.2 43.2 43.2 58.2 71.5 79.8 88.7 98.9 110.3 123.3 138.1 145.3 153.1 160.9 167.5 175.4 183 190.7 195.9 202.8 208.6 211.5 216.7 224.3 230.6 236.6 241.9 249.2 254.7 259.2 264.1 269.4 272.1 275.7 273.1 269.2 261.3 256.9 254.7 253.9 248.1 241.3 232.1 221.3 207.3 199.1 184.5 171.8 157.1 143.3 130.9 141.8 140.7 124.3 112.7 110.2 113.2 125.7 150.4 173 184.7 187.3 190.4 196 196.3 199 197.1 195.2 190.9 187.9 180.6 184.7 196.9 208.7 218.2 227.8 228.9 231 229.8 226.3 222.1 217.5 211.4 206 205.2 204.6 203 203.3 207.1 211.2 213.5 213.4 211.9 211.1 209.6 208.4 202.5 194.4 186.1 182 176.3 168.1 160.9 161.9 160.3 156.6 151.8 143.8 132.2 123 109.6 86.8 73.4 67 66.5 65.8 64.6 65.4 65.4 64.7 65.2 67.5 73.9 79.7 85 96.2 111.6 124.1 126.4 128 127.6 124.9 113.2 103 99.8 100.1 99.4 92.3 91.3 87.5 82.4 86.1 92 86.5 84 91 98.8 102.6 106.5 112 112.4 111.9 108.2 91.9 81.5 75.5 60.3 46.6 38.1 38.1 38.1 38.1 38.1 38.1 38.1 38.1 38.1 38.1 38.1 38.1 38.1 38.1 38.1 38.1 38.1 40.7 41.1 42.4 46 48.6 51.8 54.4 58 62.6 67.2 74.3
50.1 45.3 43.2 43.2 43.2 43.2 43.2 43.2 43.2 43.2 43.2 43.2 43.2 43.2 43.2 43.2 51.4 64.4 75.3 83.5 94.5 106 117.7 132 145.9 151.7 159.5 169.2 175.7 182.9 188.9 198.1 205.1 208.6 211.7 216.4 223.2 230.6 236.9 242.9 248 251.2 256.7 261.3 266 270.5 273.3 277.3 275.8 272.7 264.6 260 257.1 252.9 247.7 240.9 231.4 218.8 212.4 196.8 184.9 172.9 157.4 142.5 131.2 136.5 143.1 132 118.6 111.3 111 119.9 139.6 154.3 166.3 177.7 191.5 192.9 192.2 191.9 190.2 188.6 188.3 184.8 177.4 188.1 203.2 214.5 224.8 231.2 231.5 228.1 225.2 222.5 221.2 221.6 217.2 206 202.8 201.9 200.9 200.9 203.5 208 211.5 211.7 210.7 211.9 212.9 210.4 206.3 199.3 189.9 181.2 171.8 165.3 163.9 167 167.7 162 149.6 138.6 130 118.5 102.5 85.9 74.4 67.7 65.9 65.5 65.1 65.4 65 65.3 65.7 67.6 77.6 85.8 86.6 95.4 107.5 115.4 120.8 124 122.6 115.5 105.5 102.9 103.6 107.6 109.2 100.6 94.8 89.4 84.6 85.5 89.7 87.3 80.7 88.7 96 102.2 109.8 116.6 114.9 115.6 104.6 92.6 84.3 76.1 59.7 47.2 38.1 38.1 38.1 38.1 38.1 38.1 38.1 38.1 38.1 38.1 38.1 38.1 38.1 38.1 38.1 38.1 38.1 41.8 42 43.5 46.8 48.7 50.8 53.7 59.8 65.2 68.3 73.9
49.7 44.5 43.2 43.2 43.2 43.2 43.2 43.2 43.2 43.2 43.2 43.2 43.2 43.2 43.2 44.8 57.6 68.9 78.2 88.4 101.1 112.6 126.6 140.8 151.3 158.2 165.2 174.7 181.8 187.4 195.1 204.1 210.6 215.8 214.6 220.7 227.5 236.9 243.4 249.5 253.4 257.4 260.1 263 267.6 272.9 278.6 280.8 277.7 275.2 271.5 264.8 259.9 254.3 247.7 239.9 236.2 224.6 209.2 195.9 183.6 171.8 157.4 144.3 132.6 125.8 129.8 136.4 124.4 116.8 108.6 113.9 127.8 140.4 157.3 178.4 190.9 187.9 184.9 183.2 185.5 187.1 185.8 175.9 176.3 195.2 212.6 220.3 230.1 232.4 231.6 225.5 223.6 221.7 220.9 221.1 216.6 205.3 200.1 199.7 199.8 199.5 199.5 204.2 208.8 209.6 209.9 211.2 210.2 207.9 204 196.9 189.6 179 166 158.2 167.3 171.4 164.4 153.2 140.5 132.7 122.6 106.9 94.1 85.1 78.3 70.1 66.4 65.3 63.6 65.2 65.5 65.5 65.8 69.9 78.8 89.4 88.7 92.2 99.6 107.7 117 117.4 112.8 108.2 107.6 105.9 107.3 109.5 110.6 99.7 95.6 91.7 88.7 83.3 75 70.5 76 82.6 91.8 101 106.7 114.1 112.1 113.2 103.9 95.1 85.4 68.8 55.7 39.8 38.1 38.1 38.1 38.1 38.1 38.1 38.1 38.1 38.1 38.1 38.1 38.1 38.1 38.1 38.1 38.1 38.1 41.7 43.1 44 45.3 48 50.2 55.1 62.7 68.8 72.7 78.4
48.3 44.1 43.2 43.2 43.2 43.2 43.2 43.2 43.2 43.2 43.2 43.2 43.2 43.2 43.2 51.2 63.1 71.2 80.7 92.3 105.2 121 135.2 149.6 158.4 165.7 173.4 180.9 186.2 192.6 199.5 208.4 216.4 219.7 219.3 225.7 233.2 242.2 250 255.3 259.5 263.7 266.9 269.5 273 277.2 283.2 284.6 281.1 279.3 276.3 269.1 262.3 253.8 243.9 244.4 240 225 208.9 196.2 187.2 170.8 159.5 149.5 135.4 126.9 119 129.7 126 129.4 113.9 111.2 127.6 134.7 152.1 168.9 181.2 181.1 179.5 177.4 182 186.6 179.9 167.8 179.4 200.9 215.9 224.7 232.1 233.5 231 227.9 224.2 221 218.8 216.4 208.5 202.5 200 199.2 199.2 197.8 196.9 201.3 206 208.6 209.2 208.3 207.8 206.3 201.9 192.6 184.2 170.3 157.9 156.2 165.7 164.1 157.2 148.9 139.7 128.9 113.6 101.2 91.1 85 79.2 72.9 67.4 65.4 64 67.1 70.5 66.6 68.3 76.1 79 88.3 88.2 89.8 95.5 103.8 110.4 111.7 111.4 111.8 110.8 113.6 114.4 109.4 107.5 103.4 101.5 95.3 89.9 83.7 78.2 70.2 65.6 73.6 81.9 95.7 101.7 104.2 104.4 105 91.5 80.5 69.2 59.7 49.8 38.1 38.1 38.1 38.1 38.1 38.1 38.1 38.1 38.1 38.1 38.1 38.1 38.1 38.1 38.1 38.1 38.1 38.1 38.1 42.5 42.9 45.2 48.1 51.7 56 65.3 71.3 79.8 79.5
46.2 43.1 43.2 43.2 43.2 43.2 43.2 43.2 43.2 43.2 43.2 43.2 43.2 43.2 43.2 51.2 63.1 70.2 83.5 97.3 111.4 128.1 142.7 154.9 166 173.4 180.4 186.9 192.7 197.5 202 210 219 224.4 225.4 232.7 239.4 249 256.1 260.3 263.8 267.9 273.1 275.8 278.2 283.9 284.3 286.2 282.9 281.5 277 271.8 262.5 259 250.5 248 238.4 224.3 210.1 196.8 186.6 172.9 161.6 151.2 135.8 124.4 114.1 125.5 130.1 135.1 122.2 104.3 122.2 133.8 147.9 162.2 170.3 173 173.2 174.1 178.8 183.2 169 168.7 185.3 206.4 218.8 228.2 230.8 232 230.4 226.8 222 217.9 215.9 213.7 209.5 209.5 205.6 201.5 199.8 197.5 196.5 199.5 202.7 205.8 206.3 205.8 206.4 204.9 197.1 184.8 170.1 155.9 146.4 152.8 161 160.8 158.9 151.4 141.9 131.1 117.7 106.6 96.5 87.8 80.4 75.1 68.8 66.3 64.2 73.6 78.2 73.1 72.6 75.9 78.4 84.4 85.4 87.7 93.8 101.8 106.2 110.5 113.8 114.7 118.1 121.5 119 114.5 110.2 107.6 106.8 98.7 93.1 88.3 84.2 73.1 63.2 66.8 70.4 79.3 90.5 94.7 93.8 90.6 78.6 63.8 58.3 53 44.9 38.1 38.1 38.1 38.1 38.1 38.1 38.1 38.1 38.1 38.1 38.1 38.1 38.1 38.1 38.1 38.1 38.1 38.1 39.5 41.8 44 47 50.6 55.5 59.4 69.3 75.3 85.1 83.1
46.3 43.2 43.2 43.2 43.2 43.2 43.2 43.2 43.2 43.2 43.2 43.2 43.2 43.2 43.2 48.5 57.9 71.6 86.7 103.5 120.8 135.2 151.3 161.9 172.6 180.5 187.2 193.8 199.3 204.9 210.3 213.5 222.5 230.2 233.4 239.6 245.2 252.5 259.5 262.5 265.6 270.4 276.8 279.9 282.3 286.7 285.7 285.2 283 281.8 276.8 271.8 270 263.7 255.5 249.4 237 224 211.1 196.7 184.8 169.3 153.7 150.1 132.5 123.9 113.4 116.2 125.4 133.3 123.6 103.9 116.6 134.5 139.8 155.2 161.1 163.2 166.6 169.4 174.5 170.8 158.7 173.3 192.1 208.4 220.9 226 228.8 228.8 230.5 223 214.1 215.3 217.8 221.3 215.3 213.7 210.2 204.3 201.2 197.9 195.1 198.8 201.3 203.2 204.2 205.7 204.2 199.9 189.1 177.3 163.3 149.4 139.5 153.4 163.3 162.1 159.3 153.2 144.6 134.9 125.3 115.3 102.1 94.3 89.9 80.6 75.7 69.7 63.5 70.3 78.7 77.3 73.9 76.6 76.4 78.3 81.6 85.6 92.9 101.7 106.9 112 116.9 121.3 125.3 125.3 122 119.8 115.2 113.4 112.5 103.3 97 90.8 86.2 75.4 63.6 62 64.8 73.1 82.3 83.3 84.4 84.6 76 65.7 55.1 46.1 38.1 38.1 38.1 38.1 38.1 38.1 38.1 38.1 38.1 38.1 38.1 38.1 38.1 38.1 38.1 38.1 38.1 38.1 38.7 39.5 45.1 45.4 49.7 58 63.3 67.9 71.8 80.3 90.6 89.6
46.4 43.2 43.2 43.2 43.2 43.2 43.2 43.2 43.2 43.2 43.2 43.2 43.2 43.2 43.2 48.4 57.2 73.4 89 105.5 122.6 141.7 158.8 168.9 180.2 187.9 194.4 201.4 207.5 212.9 218.3 222.5 227.1 232.3 236.9 243.5 249.4 255.9 261.4 264.6 267.6 271.7 279.5 282.3 284.5 286 288.2 288.7 283.2 281.8 278.5 279.6 277.2 270.6 260.4 251.1 237.6 223.4 210.8 196.9 181.9 167.4 152 142.6 127.5 118.4 110.8 107.1 116.3 125.1 116.3 104.3 115.8 133.6 139.5 139.6 148.3 153.9 159.9 167 168.2 158.1 157.5 177 197.1 207.4 216.2 222.6 223.8 221.2 221.4 213.8 212.3 212.4 217.7 217.7 216.8 217.4 213.9 206.6 202.2 198.1 192.9 195.7 199.3 199 201.5 205.3 200.6 194.6 185.6 173.2 157.8 140 143.3 156.5 163.7 163 160.7 156.9 150.7 138.3 127.7 117.1 109.3 105.3 96.3 91.4 85.5 72.4 64.4 65.6 72.4 75.8 72.6 75.2 73.6 75.2 78.1 84.5 94.8 101.7 107.1 112.5 119.5 125.4 127.1 123.9 121.5 120.3 117.2 116.4 113.9 105.9 100.4 94.2 85.5 76.4 66.9 60.3 59.4 69.3 75 73.7 77.7 78.1 72 60.1 50.2 38.6 38.1 38.1 38.1 38.1 38.1 38.1 38.1 38.1 38.1 38.1 38.1 38.1 38.1 38.1 38.1 38.1 38.1 38.1 39.3 42.5 45.3 47.2 54.6 62.9 71.7 75.5 75.2 83.4 94.8 92.7
43.9 43.2 43.2 43.2 43.2 43.2 43.2 43.2 43.2 43.2 43.2 43.2 43.2 43.2 43.2 49.5 59.4 74.7 92.9 110 128.1 148 164.4 175.9 188.3 196.2 202.4 209.8 215.1 220.1 225.5 229.9 233 235.5 240.7 247.5 253.8 259.2 263.1 267.2 269.9 273.4 278.7 282.2 285 285.6 287.7 285.4 281.4 282.3 287.3 290.6 285 276.5 264.6 252 237.7 222.6 209.7 196.1 180.5 166 155.1 140.2 124.7 117.4 108.7 104.6 107.6 111.5 104.5 100.7 117.7 135 137.6 129.8 138.7 146.4 153.3 162.2 160.4 147.7 159.7 181 198.5 205.1 210.6 214.8 215.9 214.3 211.9 211.8 215.7 211.1 213.9 215.4 217.1 219.8 213.9 206 199.2 190 187.8 191.1 193.3 192.5 199.3 203.4 198.5 190.6 180.4 166.9 150.7 137.8 145.6 156.7 161.7 163.4 164.7 162.6 151.3 139.7 134.3 128.4 121.2 111.5 106.2 100.6 86.9 73.9 65.9 63.5 64.5 65.8 66.9 72.4 71.6 73 75.6 84.2 95.3 100.5 106.2 113 119 124.6 126.2 121.4 120 118.9 117.5 115.2 111.3 107 105.2 102.1 89.8 76.5 70.7 66.9 57.1 66.1 69.7 73.5 75.4 73.1 67 58.9 49.1 41 38.1 38.1 38.1 38.1 38.1 38.1 38.1 38.1 38.1 38.1 38.1 38.1 38.1 38.1 38.1 38.1 38.1 39 41.6 45.1 47.3 49.6 58.9 70.2 78.3 80 76.1 85.7 96.2 90.5
43.2 43.2 43.2 43.2 43.2 43.2 43.2 43.2 43.2 43.2 43.2 43.2 43.2 43.2 43.2 52.3 61.4 77.1 96.9 115.6 135.5 154.7 171.8 185.9 198.2 205 210.8 216.9 223.3 229.5 232.4 236.7 240.9 242.8 247.3 251.4 256.4 261.9 264.3 267.9 274.3 279.7 280.6 282.3 284.5 285.1 286.9 285 282.7 288.2 297.1 299.2 289.3 278.6 264 249.5 235.8 221.7 208.6 194.5 179 166.2 154.4 140.9 125.5 116.5 109.1 103.3 101.4 101.7 101.1 104.1 117.6 131.8 132.7 123.4 130.6 138.7 148.5 153.9 150.5 149.1 163.5 184.3 196.8 199.7 201.1 204.7 206.3 207.1 208.2 207.6 208.4 204.4 205 208.1 210.4 212.7 210.4 204.9 194.8 191.2 186.1 186.2 185.8 188.3 197.2 199.7 194.8 185.2 172.7 158.6 144 132.7 144.9 154.3 162.6 167.2 168.8 166.1 159.5 151.6 145.6 136.3 127.1 118.7 108.5 95.8 88.5 78.3 68 66.1 64.4 64.8 65.8 66.1 68.5 71.1 75 81.2 89.9 97 104.4 112.1 118.6 123.9 125.9 120.5 116 115.3 114.4 113.7 112 106.9 103.8 100.9 90.2 79.5 75 72.1 60.5 55.3 65.2 70.4 74.4 70.6 67.8 63.7 49.9 42.5 38.1 38.1 38.1 38.1 38.1 38.1 38.1 38.1 38.1 38.1 38.1 38.1 38.1 38.1 38.1 38.1 39.2 42 46.1 48 47.9 50.9 62.6 75.2 82.1 82.5 78.8 85.9 92.7 90.1
43.2 43.2 43.2 43.2 43.2 43.2 43.2 43.2 43.2 43.2 43.2 43.2 43.2 43.2 48.8 56.5 65.9 81.9 100.5 122.2 143.5 165.1 182.2 197.6 208.4 212.9 217.8 223.6 229.6 235.8 240.4 244.5 248.6 252.8 256 259.1 261.8 263.6 264.9 267.2 274.1 281.9 282.5 282.8 282.6 281.9 281.6 276.6 282.4 296.7 307.2 302.2 289.5 277.2 261.7 248.4 236 219.4 208.1 194 177 164.2 152 137.9 125.1 114.6 107.6 102 99.3 100.4 101.5 104.3 110.6 127 124 117.1 123.1 138.6 149.8 153 143.7 150.2 166.2 186.1 193.1 192.8 192.8 196.1 199 204.3 207.3 204.6 204.6 206.5 204.4 204.4 209.2 206.1 205 202.3 196 193.5 186.8 182.4 182.4 187.2 193.2 192.5 187.6 175.4 161.4 144 137.3 132.9 145.2 157.5 169 171.5 174 169.9 163.1 154.5 144.6 136.6 126.2 115.6 106.5 97.2 85.6 76.8 71.9 72.3 68.6 63.5 66 67.4 74.4 70.7 73.6 76.3 84 93.3 102 111 120 123.3 124.7 117.2 115.5 116.2 116.2 116.4 114.8 109.5 102.1 96.9 89.5 82.3 77.6 72.7 62.3 52.8 60.4 66 69.1 66.8 61.3 58.8 48.4 43.5 38.6 38.1 38.1 38.1 38.1 38.1 38.1 38.1 38.1 38.1 38.1 38.1 38.1 38.1 38.1 38.1 40.4 42.8 46.1 47.4 49.3 52.5 65.5 78.1 82.5 82.7 81.4 83.5 89.7 91.9
43.2 43.2 43.2 43.2 43.2 43.2 43.2 43.2 43.2 43.2 43.2 43.2 43.2 43.6 53.1 61.4 74 89.5 108 130.5 153.3 176.5 199.1 212.4 216.9 219.3 224.9 232.2 237.6 243.7 249.2 254.3 258.3 261.8 263.5 266 266.9 265.3 265.3 266.2 272.8 279.2 281.6 280.9 279.1 275.9 274.7 281.3 290.1 301.6 307 296.8 286.9 273.7 257.5 246 232.9 217.1 206 192.7 177.3 164.4 151 137 127.5 115.8 106.8 103 98.4 98.9 106.2 105.8 108.4 117.8 112.8 110.6 120.4 140.3 151 150.8 136.9 151.2 166.6 182.1 188 187.4 191.3 198 204.4 206.4 206.9 205.1 206.2 205.4 204.4 204.2 203.8 203.2 206.1 205.8 199.1 191.4 182 180.5 181.4 185.2 185.2 184.2 177.9 164.7 149.3 134.6 130.4 131.1 144.5 159 168.3 171.9 173.2 168.2 161.6 150.4 138.6 128.4 118.8 110.5 101.3 91.6 86.7 82.1 78.9 83.9 78.7 64.5 65.6 70.6 81.2 76.7 70.5 71.1 78.3 88.7 97.4 106.3 117.2 121.9 123.5 120 121.3 121.5 120.3 119.2 117.5 111.5 104.4 97.7 91.4 85.1 77 69.2 61.8 56.1 51.7 61.9 62.6 60.9 58.3 54.7 45 41.2 38.1 38.1 38.1 38.1 38.1 38.1 38.1 38.1 38.1 38.1 38.1 38.1 38.1 38.1 38.1 38.1 38.8 42.8 44.6 47.8 51.1 54.5 67.4 80.9 83.5 81.4 82.4 85.4 91.8 94
43.2 43.2 43.2 43.2 43.2 43.2 43.2 43.2 43.2 43.2 43.2 43.2 43.9 48.1 56.1 65.9 80.2 97.4 118.7 141.8 164.4 192 216.1 220.9 225.5 227.7 233.6 241.1 247.8 254.4 259.8 264.2 268.4 271.6 271.9 270.5 268.1 265.8 265.4 266 270.3 276.2 279 278.3 275.7 273.2 277.6 288.3 296.3 301.3 297.8 289.7 280.6 269 253.6 243.4 232.8 217.3 202.5 190.9 173.3 162.1 149.6 137.1 127.5 118.3 107.4 102.7 96.7 104.5 114.8 108.6 106.3 106.3 106.4 104.2 118.4 138.2 149.6 139.6 138.7 153 165.7 176.9 180.2 187.7 196.6 201.9 205.3 204.6 205.6 206.3 206.7 207.2 206.4 205.9 207.1 211.8 209.6 207.3 200.1 187.4 182 180.5 183.2 182.1 179.6 173.7 165.6 153.5 139.1 126.9 118.1 131.6 145.1 158.2 165.8 169.8 167.2 160 150.3 137.9 128.6 122.2 114.6 107.9 101.9 98.3 94.2 90.1 88.3 89 83.9 67.4 63.9 71.1 83.8 82.6 70.2 70.6 73.4 80.3 88 99.6 112 119.1 124.2 125 125 121.9 121.6 121.7 117.7 112.5 106.9 99.9 92.6 82.6 76.3 71.1 63.7 59.1 50.9 52.5 55.2 53.7 51.1 47.8 41.6 38.1 38.1 38.1 38.1 38.1 38.1 38.1 38.1 38.1 38.1 38.1 38.1 38.1 38.1 38.1 38.1 38.8 41.6 44 45.3 48 51.7 55.5 67.1 79.9 81.2 82.1 84 87.7 92.9 94.1
43.2 43.2 43.2 43.2 43.2 43.2 43.2 43.2 43.2 43.2 43.2 43.2 43.2 51.1 59.4 71.1 87.5 107.3 128.8 152.4 178.1 205.3 221.6 228.9 235.1 236.6 243.1 251.2 259.3 264.5 269.7 274.1 277.7 280.6 279.9 276.4 268.1 264.2 264.5 265.8 269.6 273 275.2 275 271.4 271.4 279.9 293.6 297.2 294 289.5 282 274.1 264.4 251.8 240.2 230.2 216 202.9 188.1 172.1 161.6 149.7 137.8 127.6 118.1 108.2 100.9 95 107.5 114.2 104.8 99.1 99.9 96.8 98.3 110.9 133.1 135.6 126.9 136.7 153.3 164.4 172.4 183.7 192.4 196.7 201.6 201.9 202 205 210.1 211.4 208.5 211.4 210.7 211.3 212.3 206.3 203.2 198.3 185.7 182.5 182.7 180.7 175.4 169.1 162.7 154.7 143.2 129.4 119.1 121.8 132.9 141.5 151.8 157.4 155.8 153.4 149.3 140.1 134.6 133.9 129.6 122.6 116 110.1 106.7 99.6 94.4 91.4 89.1 81.3 73.9 67.2 71.2 83 84.4 70 68.3 71.2 77 85 97.3 109.8 118.8 125.7 128.8 124.1 120.5 121.2 119.9 117.3 112.4 106.6 98.2 88.1 84 79.4 74.3 67.8 63.4 50.6 48 48.9 48.6 46.1 44.3 38.1 38.1 38.1 38.1 38.1 38.1 38.1 38.1 38.1 38.1 38.1 38.1 38.1 38.1 38.1 39.2 42.4 48.9 42.5 42.8 44.1 48.5 52.3 55.6 63.2 75.9 77.1 80.4 84.4 88.3 90.9 91.8
43.2 43.2 43.2 43.2 43.2 43.2 43.2 43.2 43.2 43.2 43.2 44.4 45.6 53.8 63.2 76.8 92.3 115.2 137.9 161.4 189.2 214.6 229.4 238 244.3 246.3 252.3 262.3 270.1 275.7 280 282.9 285 285.8 284.2 279.9 270.4 263.2 263.1 264.7 267.4 269.4 271.2 268.2 264.7 270.7 282.8 289.5 287.4 287.1 283.4 276.2 268.7 262 253.8 242.4 230 215.4 200 185.6 171.9 164.1 153.1 141.2 128.1 117 108.4 101.1 94.8 101.3 106.4 98.6 96.8 95.4 92.3 93.3 104.4 119.4 120 124.2 140.4 155.2 166.7 177.5 182.6 188.3 194.8 197.5 200.9 203.7 207.5 215.1 211.3 208 208.1 207.8 207.3 207 202.4 198.4 192.8 186.1 184.9 180.3 175.3 165 154.9 151.9 145 133.3 121.3 111.7 118.9 130.4 137.4 141.5 142 141.9 144.3 140.1 139.5 143.7 141.4 137.7 131.9 125.1 116.4 109.1 103.3 101.2 98.8 90.9 77.7 79.8 73 65.1 77.5 79.3 67.2 65.2 67.7 74.7 83.5 96.2 108.9 117.8 126.6 125.8 121.5 118.9 118.2 118.2 116.8 113.3 105.4 96.3 90.8 86.3 81.8 77 70 61.1 48.9 45.5 44.8 44.9 44.3 41.2 38.1 38.1 38.1 38.1 38.1 38.1 38.1 38.1 38.1 38.1 38.1 38.1 38.1 38.1 43.4 48.7 45.7 45.7 42.5 42.3 43.5 47.7 50.8 54.6 63.8 73.8 75.3 80.9 85.6 86.4 87.9 91.8
43.2 43.2 43.2 43.2 43.2 43.2 43.2 43.2 43.2 43.2 43.2 43.2 47 57.2 69.3 83.4 99.5 122.8 145.6 172.7 200.5 223.7 236.4 247.1 253.9 257.1 264 275.4 280.3 281.3 282.6 287 288.5 288.4 286.6 279.7 271.4 262.5 261.7 263.1 264 265.1 265.6 261.1 263.2 271 279.2 281 280.5 281.2 277.7 270.2 264.1 258.9 252.6 242.4 227.1 210 193.3 183.4 173.8 167.9 155 140.3 127.9 118.3 109.4 101.3 94.3 93.4 94.4 92.8 93.1 91.8 91.5 91.9 101.4 110.8 114.7 131.3 149 160.9 171.4 177.4 183.6 187.6 189.7 195.9 200.9 205.3 210.8 214.4 209.6 206.8 205.9 205.3 203.9 200.7 195.7 194.4 191.1 190.4 188.9 181.2 173.1 161.6 148.6 145.1 136 125.9 115.1 106.6 116.2 124 123.9 125.8 132.4 135.1 133.6 136.5 146.3 152.1 154.5 144.7 136.6 127.9 119.7 116.7 113 110.8 106.3 96.5 79.7 78.3 74.5 69.3 65.9 69.4 65.4 65 65.8 72.7 83.6 96.8 104.9 115.2 116.9 117 116.8 114.9 115 117.6 117.9 113 103.8 97.7 91.7 86.7 81.9 73.4 65.3 55.4 48.1 45.1 43.5 44.8 45 38.1 38.1 38.1 38.1 38.1 38.1 38.1 38.1 38.1 38.1 38.1 38.1 38.1 38.1 38.1 44.8 45.9 45.7 45.8 43.3 42.4 43.7 46.1 49.7 52.9 62.5 72 77.8 82.2 84.2 86 89.3 94.7
43.2 43.2 43.2 43.2 43.2 43.2 43.2 43.2 43.2 43.2 43.2 43.2 50.9 59.6 74 89.8 109.3 131.3 155.4 183.4 209.3 232.1 244.8 255.8 264.1 269.8 276.4 281.4 283.4 284.4 284.8 287.8 289.7 288.8 285.1 278.1 270.5 263.7 260 259.9 260 260.4 258.8 256.3 260.5 267.3 273 274.7 275.7 274.6 270.3 264.8 259.2 254.4 248.6 237.8 222 202.1 189.6 183.2 176.9 168.9 154.6 138.5 125 116.4 110 100.5 93.3 92.5 92 91.4 91.3 91.8 92.8 94.2 99.1 106.8 122.8 140.4 156.1 168.5 174.2 179.4 183.7 185.7 191 195.1 199.3 206.9 213.1 214 210.5 208.9 206.2 201.6 197.2 194.3 194.1 193.6 194.5 196.5 189.7 181.3 172.9 158.3 144.7 138.7 130.3 121 110.2 104.9 111.1 112.3 114.7 121.3 126.4 128.3 131.8 139.5 150.9 158.9 157.5 148.9 138.4 129.8 128 125.3 121.2 116.6 110.6 100.4 85.2 74.3 72 69.6 67 65.5 62.9 64.4 64.2 74.1 90.3 95.3 97.6 101 104.5 106.8 107.9 107.8 106.5 110.6 112.2 106.8 101.6 96.3 91.6 87.1 79.6 70.1 62 54 49.5 44.5 44.7 41.2 39.1 38.7 38.1 38.1 38.1 38.1 38.1 38.1 38.1 38.1 38.1 38.1 38.1 38.1 38.1 38.1 38.1 41.1 42.7 43.9 43.4 42.7 44 46.9 48.9 60.7 69 76.6 81.8 84.3 84.9 88.6 93.3 96.5
43.2 43.2 43.2 43.2 43.2 43.2 43.2 43.2 43.2 43.2 43.2 49.2 54.6 64.6 81.1 97.8 118.3 140.4 166.2 193.8 218.8 239.8 255.4 264.4 272.8 277 278.1 281.3 285.6 284.8 283.5 285.6 288.1 285 280.1 273.9 268.8 262.4 257.1 256.3 255.9 254.4 250.9 251.4 254.2 260.1 265.1 268 267.7 265.4 261 257.3 253.5 249 242.4 231.5 221 201.9 189.5 183.3 177.8 169.5 156.7 137.9 123.4 123.7 115.4 104 92.1 91.9 91.4 90.9 90.6 91.2 92.7 95.1 99.2 115.1 133.6 147.9 161.2 171 174.4 178.5 182.1 182.2 189.1 194.6 200.6 209 213.8 215.9 215.5 214.9 209.1 200 198 196.7 198.2 199.5 199.5 196.3 188.7 181.5 167.4 151.7 140.4 132.6 124.6 115.6 104.4 104.1 109.5 109.2 112.6 117.6 122.5 129.5 135.5 143.4 153.3 157.9 153.8 148.1 143 141.6 137.8 131.2 125.3 118.4 109.8 102.7 90.8 75 71.4 74.5 70.7 69.1 66.9 67 63.3 75.6 82.9 80.5 86.3 93.1 93.9 95 96.6 96.6 95.5 99.9 101 99 97.6 98.7 96.3 90.9 81.8 73.3 65.1 59 52 45.5 42.6 42.3 40.7 38.8 38.1 38.1 38.1 38.1 38.1 38.1 38.1 38.1 38.1 38.1 38.1 38.1 38.1 38.1 38.1 38.1 40.3 41.7 42.7 43.4 45 46.8 53.9 65.3 73.9 80.8 85.1 88.2 89.9 92.4 94.9 100
43.2 43.2 43.2 43.2 43.2 43.2 43.2 43.2 43.2 43.2 48.1 51.8 58.1 72.7 89.5 106.7 126.8 149 176.5 203.5 230.2 249.9 266.6 271.7 277.6 277.6 276.4 277.4 279.6 280.7 280.8 283.2 284.3 280.1 273.4 268.5 263.8 259.1 253.5 253 251.9 248.3 246.6 246.3 248.5 253.6 258.1 258.5 258.8 257.4 251.4 249 245.9 242.1 234.5 228.2 218.5 206.6 192.7 184.1 178.6 169.7 158.2 136.6 126.9 130.5 118.8 106.1 93.3 92.1 91.4 90.8 90.3 90.8 92.8 95 106.7 125.5 144.4 153.4 162.9 169.8 172.5 176.2 179.2 183 190.6 199 205.3 211.2 215.2 220.3 219.7 216.8 205.7 204 205 205.7 205.8 204.1 201.1 197.6 191 178.9 165.6 151.7 139 128 117 109.2 96.6 102.7 103.5 112.2 115 121.8 126.2 133.3 139.1 147.1 154.3 154.4 155 156 155.6 151.4 144 133.7 126.6 121.3 116.8 106.3 95.6 83.4 78.2 82.1 79.7 68.5 67.9 66.8 64.5 62.6 67.4 69.3 76.8 81.1 79.4 81.9 84.6 84.8 85 89.9 93.6 96.5 99.5 101.4 102 96.9 87.7 78.1 69.5 61.4 53.5 47 44.9 41.8 41.1 38.1 38.1 38.1 38.1 38.1 38.1 38.1 38.1 38.1 38.1 38.1 38.1 38.1 38.1 38.1 38.1 38.1 38.1 38.1 41.6 44.6 46.1 47.4 59.4 68.8 76 81.3 89.7 92.9 93.7 95.5 99.6 103.6
43.2 43.2 43.2 43.2 43.2 43.2 43.2 43.2 43.2 43.2 50.8 55.8 66.2 82.7 100.1 115.7 135.4 159.8 186.9 212.7 239 261.4 275.3 277.7 280.9 278.8 276.1 273.1 274.4 276.7 277.3 279.1 279 274.1 265.9 262.4 259.2 254.5 251.9 249.3 247.7 245.3 244.1 243.9 247.9 249.9 251.6 249.6 249.7 247.8 243.3 241.8 239.5 235.6 229.2 225.4 219.4 208 192.6 184 175.1 164.7 153.5 134.5 129 131.4 120 103.5 91 91.5 91 90.5 90 90.5 91.9 99.8 117.4 135.7 147.1 155.4 161.3 166.9 169.6 174.4 179.1 187.8 196.3 205.7 210 213.4 217 220.3 218.8 213.3 212.7 214.2 215.6 209.8 207.5 208.2 206 200.5 188.2 175.1 163.8 149.5 131.5 116.6 107.4 102 92.8 101.6 103 108.6 117.2 125.8 132.5 139.2 146.7 156 163.1 164.7 167.7 167.4 158.6 153.4 144.2 134 131.7 130.2 120 110.4 101 90.4 82.4 81.6 80.2 71.3 66.9 65.5 65.3 64.9 63.4 64.8 67.3 68.5 67.2 70.6 72.9 74.5 77.9 82.5 92.7 98.2 101.5 101.3 101.7 101.6 94.1 82.5 70.6 60.4 55.9 48.9 45.8 43.9 39.8 38.1 38.1 38.1 38.1 38.1 38.1 38.1 38.1 38.1 38.1 38.1 38.1 38.1 38.1 38.1 38.1 38.1 38.1 38.1 41.4 43.9 44.2 55.3 65 71.2 76.5 83.6 95.7 98.4 97.5 94.7 101 106.6
43.2 43.2 43.2 43.2 43.2 43.2 43.2 43.2 43.2 46.4 58.3 64 75.2 92 109.3 124.4 142.3 168.7 196.4 223.3 248.8 274.4 279 280.1 282.4 279.4 276.4 272.3 271.1 272 272.7 274.1 271.5 266.4 258.7 255.6 254.2 253.4 253.3 251.1 247.4 246.5 244.3 243.8 243.4 246.1 244 241.1 241 238.7 236.5 236.8 236.3 231.4 226.1 224.1 215.1 200.7 193.6 188.1 177.1 164.1 149.5 131.8 123.6 125.9 117.1 100.1 90.2 90.5 90.1 89.9 89.9 90.1 93 107.5 125.8 140.5 152 154.6 156.9 160.7 167.4 176 180.7 190.3 201.2 211.2 214.2 215.4 218.5 218.4 218.4 222.2 222.8 223.3 214.5 212.1 215.1 214.3 206.5 196.2 183.9 172.9 161.9 144.3 126.9 110.1 101.9 95.6 90 98.3 108.9 117 125.6 134.1 142.5 150.2 156 165.8 170.7 172.6 171.2 165.4 158.8 152.2 146.5 142 142 132.9 123.8 115.7 107.1 99.4 92.3 94.1 88.7 78.7 69.4 67.3 66.4 65.9 65.7 63.8 63.6 62.9 62.8 64.8 65.5 64.7 69.4 79.3 88.6 93.4 94.5 96.8 106.2 108.4 98.5 83.7 68.4 60.6 56.7 51.8 46.1 44.3 39.9 38.1 38.1 38.1 38.1 38.1 38.1 38.1 38.1 38.1 38.1 38.1 38.1 38.1 38.1 38.1 38.1 38.1 38.1 38.1 40.5 42.8 47.4 57.3 69.6 71.5 75.4 86.9 96.7 98.8 99.1 97.5 105.9 108.1
43.2 43.2 43.2 43.2 43.2 43.2 43.2 43.2 45.8 55.5 62.2 70.5 82.6 97.7 114.6 131.9 152.1 178.2 206.4 233.7 260.8 280.3 282 282.5 282.6 279.1 276.8 270.5 267.2 267.3 266.7 266.1 265.1 260.5 255 252.7 252.8 254.4 256.5 253.7 252.6 251.9 247.7 241.5 241 240.5 237.9 232.7 232.2 229.2 228.2 228.1 232.1 228 224.7 219.7 210.5 206.5 200.2 188.6 172.6 159.2 144.2 128.8 118.7 115.2 112.2 98.2 91.3 89.9 89.8 89.7 89.5 89.9 99.4 116 132.3 145.4 152.7 153.4 153.5 158.4 171.2 177.3 182.9 193.7 204.2 211.6 215 217.3 219.5 223.9 227.8 228.7 227.9 223.1 216.3 219.1 220 216.7 208.3 196.8 183.3 170.6 154.4 135.7 116.6 100.1 93.1 89.5 95.4 107 114.7 122.1 132.9 143.3 151.5 159.6 163.8 169.5 173.6 171.8 173 173.3 170.6 165.2 157.9 151.4 149 141.2 135.3 125.4 116.7 109 96.7 97.4 95.2 84.6 74.5 68.9 67.9 66.5 65.3 64.1 63.6 62.2 62.2 60.9 60.2 60.7 64.5 69.4 76.6 80.5 83.7 97.4 106.2 104.8 92.2 73.5 62.3 58.1 52.2 48.4 46.4 45.4 40.1 38.1 38.1 38.1 38.1 38.1 38.1 38.1 38.1 38.1 38.1 38.1 38.1 38.1 38.1 38.1 38.1 38.1 38.1 38.1 38.1 45 52.4 56.5 63.2 67.1 79.3 91.9 96.9 100.7 100.7 102.8 105.9 109.1
43.2 43.2 43.2 43.2 43.2 43.2 43.2 43.2 48.8 56.7 65.5 78.4 92.7 106.1 123.8 142 164.1 187.1 219.6 250.5 267.2 279.4 284.2 284.6 282.4 277.6 271.9 265 261.5 260.4 259.5 257.8 257.5 254.7 251.4 251.3 252.2 254.6 256.8 255.5 255.7 256 249.9 243.3 239.8 234.9 231.7 226.8 224 221.4 220 219.8 224.2 224.6 222.9 220.6 220.2 212.8 199.8 183.9 168.5 154.5 141.4 127.4 116.7 111.1 106.6 96.9 90.9 89.5 89.2 89 88.7 90.5 105.5 121.4 135.9 148.7 149.9 150.4 150.5 160.3 169.6 177.1 186.5 199.5 205.8 209.8 214.3 217.7 224.9 229.2 231.5 232.2 230.2 224.7 221.8 221.5 224.5 220.2 211.2 198.1 182.4 164.5 142.2 123.3 105.4 91.3 86.8 85 100.7 113.1 122.2 129.4 140.3 150.8 159.8 166.6 169.1 172.3 172.1 175.2 182.8 183.1 178.3 169.7 162.3 164 163.1 154.5 147.2 140 130.2 118.1 100.6 96.3 93.3 87.5 79.6 72.4 68.1 66.8 67.5 67.1 66.1 64.3 63.8 62.8 62.1 61 59.9 63.2 65.7 69.3 74.5 89.2 98 92.5 77.7 64.8 58.2 55 48.9 44.9 44.4 43.1 41.6 40 38.1 38.1 38.1 38.1 38.1 38.1 38.1 38.1 38.1 38.1 38.1 38.1 38.1 38.1 38.1 38.1 38.1 38.1 38.1 50.6 59.6 62.1 68.7 77 84.5 90.4 95.7 96.5 100.8 101.6 105.7 109.6
43.2 43.2 43.2 43.2 43.2 43.2 43.2 43.2 52.7 65.6 78 88.4 99.6 114.4 132.1 151.4 172.1 195.8 226.9 256.9 277 283.9 286.2 288.1 283.4 276.4 268.2 261.2 256.4 254.1 252.1 250.8 248.6 247.6 248.7 250.1 250.9 252.2 253.2 254.4 257.1 257.2 254.2 242.9 235.9 230.3 227.7 221.9 218.1 214.8 213.7 216 218.7 220.9 222.3 224 221.1 211.5 197.2 180.8 165.8 152.9 139.4 126.8 114.9 109.7 102.5 94.7 90.9 89 88.9 88.8 88.6 95.3 109.6 125.2 138.3 147.9 150 150.2 150.1 158.2 167.4 176.4 185.7 196.3 203.1 207.3 212.1 217.3 227.2 229.5 232.1 233 231.2 222.7 220 221.2 225.1 219.8 207.1 193.2 178 156.2 134.2 122.5 101.4 86.4 83.6 87 104.6 116.6 124.6 134.6 147.5 156 163.8 171.7 175.1 174 175.7 182.7 187.3 182.9 176.4 170.7 174 177.7 171.2 166.4 156.7 144 131 117.4 104.4 95.5 93.8 89.3 83.1 76.2 70 69.4 70.9 70.4 68.5 67.8 69.1 69.9 67.1 65.2 61.8 57.5 59.8 61.9 65.4 71.9 76.5 73.8 66.5 61.4 58.6 57.6 53.1 46.2 43.6 41.8 41.7 40.5 38.1 38.1 38.1 38.1 38.1 38.1 38.1 38.1 38.1 38.1 38.1 38.1 38.1 38.1 38.1 38.1 38.1 38.1 38.8 56 65.2 67 69.7 75.5 83.4 87 92.9 96.6 99 101.5 105 107
43.2 43.2 43.2 43.2 43.2 43.2 43.2 50.1 65.5 76 86.6 96.4 107.6 123.4 143.8 166.9 190.6 214.1 238.3 267.3 285.1 286.6 290.3 289.2 282.5 273.7 266.2 260.5 251.8 248.9 246.7 245.6 244 244 245.2 247.1 247.8 248.3 249.3 253.1 257.3 257.5 255.9 244.6 233.8 227.9 224 219.2 215 212.7 211.5 213.9 217.1 220.6 224.6 224.5 217 207.3 192.7 175.7 163.2 150.4 138 128.4 113.7 109.9 100.8 95.6 92.1 87.6 88.5 88.3 88.2 94.2 110.3 125.9 135.7 143.4 151.5 149.8 148.8 158.2 166.1 174.2 182.7 191.8 199.5 207.6 213.1 220.9 226.3 230.1 232 232.8 227.2 220 218.7 221.8 222.7 213.6 201.8 185.7 167.9 149 131.9 118.1 98.8 82.2 81.5 89.3 106.4 118.6 124.9 138.6 150.8 157.3 165.7 177.8 181.4 181.3 179.9 181.4 184.4 182.1 179.7 179.2 186.1 188.8 183.9 171.1 158.3 143 127.9 118.7 106.8 97.3 96.6 92.3 87.2 81.8 74.9 73.4 73.3 72.7 69.6 71.7 73 73.3 72.2 69 66.1 64.2 59.5 55.6 56.9 60.8 63.8 65.8 63.4 62.4 63.2 62.4 59.2 48.5 45.5 43.4 41.1 40.6 38.1 38.1 38.1 38.1 38.1 38.1 38.1 38.1 38.1 38.1 38.1 38.1 38.1 38.1 38.1 38.1 38.1 38.1 43.9 58.3 67.2 71 75.4 80.5 88.2 96.8 99.7 100.8 100.2 100.3 103.3 106.6
43.2 43.2 43.2 43.2 43.2 43.2 43.2 58.7 72.8 83.6 93.4 105.1 121.2 138.6 159.4 184.2 211.5 234 258.3 283.1 291.8 290.3 293.1 289 280.9 270.4 263.2 259.2 251.5 245.2 243.8 242.2 240.5 241.2 242.5 244.1 244.8 245.3 247.8 252.4 256.4 258.1 255.7 249.9 232.2 225.6 221.4 216.3 213.4 212.3 210.1 213.3 216.7 220 221.3 219.9 213.7 202.6 187.3 173.2 159.5 146.5 134.9 123.4 112.1 110.1 107.1 98.2 90.3 86.5 88 87.6 87.9 92.7 108.6 127.7 139 143.1 148.2 144.5 146.9 156.7 166.4 173.9 181.2 189.5 200.3 210.8 217.6 222 226.1 228.5 230.6 231.1 224.6 219.3 215.5 217.2 216.4 209.9 196.8 176.9 156.4 139.4 128 115 96.2 82.1 80.7 92.2 105.9 116.9 127.3 141.2 149.3 157.3 172.9 183.7 183.5 180.3 178.9 180.2 180.3 187.2 183.4 187.6 194.2 191.5 183.7 172.6 159 148 135.2 122.9 108.7 98.6 99.7 96.1 92.2 87.4 79.3 75.7 75.4 73.9 70.1 73.2 74.2 74.7 72.2 71 66.6 63.1 64.8 59.3 55.6 55 57 60.1 61.9 63.4 59.7 60.1 50.4 54.7 56.4 45.9 40.4 40.6 40.4 38.1 38.1 38.1 38.1 38.1 38.1 38.1 38.1 38.1 38.1 38.1 38.1 38.1 38.1 38.1 38.1 38.1 45.8 56.8 68.3 75.3 82.3 87.3 91.5 98.3 104.1 102.4 100.2 101 106.5 110.7
43.2 43.2 43.2 43.2 43.2 43.2 51.4 63.5 76.3 88.9 100.6 115.1 131.1 152 174.3 198.1 224.2 248.2 276.9 292.7 291.3 294.8 294.6 288 278.3 267.7 261.3 255.9 251.6 248.2 244.3 242.9 240.5 238.5 240.3 240.6 241 242.5 247.4 252.9 258.6 258.3 256.7 253.9 237.1 221.8 218.8 214.6 214.1 212.8 209.6 213 216 218.5 219.5 216.1 210.1 199.8 186.1 172.7 158.9 144.1 133.2 122.7 111.6 108.9 103 94.5 88.3 87 87.2 87.1 87.5 90.8 107.5 132.3 141.6 136.8 132.8 136.5 144.2 156 167.6 176.2 183.6 193 204 212.9 217.7 221.1 224 225.2 225.9 226 220.4 213.5 211.9 213 208.6 201.2 184.7 163.8 146.5 132.3 124.1 114.1 96 81.3 81.9 93.6 104.6 117 128.4 137.2 149.3 164.4 180.8 185 180.5 176.7 179.3 179.9 180.2 182.7 180.5 186.4 192.8 192.6 185.4 180.7 170.8 160.2 147.1 129.2 113 101 102.5 100.1 96.3 90.2 81.8 77.1 76.8 72.9 69.8 71.4 72.7 73.7 74.5 69.6 64.7 63.7 61.2 59 57.2 53.1 54.1 56.1 56.4 56.7 53.6 52.2 52.5 55.9 55 47.5 43.9 40.9 39.9 39.7 38.1 38.1 38.1 38.1 38.1 38.1 38.1 38.1 38.1 38.1 38.1 38.1 38.1 38.1 38.1 38.1 51.2 63.6 71 79.5 88 93.5 91.6 96.8 103.7 103.8 99 105.5 115.4 118.2
43.2 43.2 43.2 43.2 43.2 47.7 55 67.4 78.4 90.5 108.2 125.2 144.8 167.8 190.4 211.8 232.4 258.1 284.1 294 292.1 298.7 294.5 286 275 265.8 260.3 256.3 255.9 254.3 246.7 242.8 240.9 239.5 237.6 238 239.1 242.1 247.7 254.6 259.5 258.6 255.7 250.5 237.5 225.2 218.6 216.7 216 212 209 211.9 214.7 217.4 216.6 213.1 207.3 199.1 186.4 172.5 157.5 143 132.6 122.2 110.3 105.7 96.6 89.1 86.1 85 85 86.6 87 88.9 105.4 126.5 131.2 124.2 126.8 135.8 146.1 157.6 169.6 181.6 191.1 197.9 206.2 213.2 215.6 218.1 220.7 221.2 221.3 221.1 213.1 205.9 206.8 208.1 201.1 187.1 171.2 156.8 141.1 129.3 124.3 118 98.7 79.5 83.6 93.3 104.3 117.2 127.4 140.1 157.9 172.1 182.3 183.1 174.6 176 178.8 179.2 180.3 180.3 181.3 186.3 189.3 191.2 190.6 184.6 178.8 164.2 144.9 130.2 116.2 103.8 104.8 104.5 101.3 93.6 83 78.1 75.3 72.2 69.8 70.4 74.2 76 71.7 68.2 67.6 63.5 62.7 62.9 59.2 56.4 53.5 53.3 52.7 50.4 52.3 53.5 51.3 49 47.5 46.5 44.2 40.8 41 39.5 38.1 38.1 38.1 38.1 38.1 38.1 38.1 38.1 38.1 38.1 38.1 38.1 38.1 38.1 38.1 38.1 51.9 64.2 74 85.4 95.3 98.2 94.7 98.7 99 99.9 100.1 108.6 119.6 120.4
43.2 43.2 43.2 43.2 43.2 47.3 57.6 69.9 81.5 94.9 116.7 137.5 161 184.2 204.9 227.7 245.1 268.3 286.7 293.8 294.2 297.2 290.6 283 271.1 264.4 263.6 264 261.2 258.4 246.1 242.2 240.8 240.1 239.9 238.8 237.9 242.5 248.2 254.5 258.2 255.7 250.9 243.4 234.7 225.8 221 219.1 215.4 211.2 207.9 211.1 213.7 215.3 214.6 210.9 206.2 199.9 188.8 175.9 162.9 148.6 134.9 122.7 110.6 100.1 90.2 86.1 85.9 84.3 85.9 86.1 86.7 87.3 99.1 113.8 117.1 121.6 130 139 151.3 163.2 175.3 187.3 192.6 199.7 205.5 210.4 213.7 219 222.2 221.5 217.4 213.2 208.2 202.6 197.2 192.9 184.7 170.7 161.5 153.9 138.5 130.1 123.3 115.3 91.4 77.8 85.7 93.3 104.5 115.3 130.7 147.2 158.7 165 170.6 170.9 171.9 175.7 177.7 179.2 180.2 180.9 185.8 190.4 192.1 191.1 185.3 173.6 168.2 156 143.3 135.3 119.1 107.1 107.3 109.1 106.5 98 86.9 79.9 76.2 72.8 70.3 71.8 73.9 72.2 70.4 69.9 67.1 67.5 65.4 62.6 60.4 57.9 54.9 53.8 53.3 56.1 63.5 65.2 53.3 47 46.2 45.7 44 42.3 42 38.1 38.1 38.1 38.1 38.1 38.1 38.1 38.1 38.1 38.1 38.1 38.1 38.1 38.1 38.1 38.1 41.2 51 63.5 74.6 86.5 94.6 96.2 96.8 97.4 100 102.4 100.9 106.1 114.8 115.7
43.2 43.2 43.2 43.2 43.2 43.2 59.8 72.7 85.6 102 127.8 152.7 176.7 195.5 216.7 240.3 256 275.7 289.2 293.2 295.6 291.7 285.7 279.6 267.3 266.7 267.4 266.3 261.8 252.7 244.1 242.4 242.1 241.1 239.9 238.6 235.7 242.6 249.4 254.2 254.1 251.2 246.2 240.6 234.5 227.7 222.8 219.4 216.1 210.4 206.7 208.5 212.4 213.6 213.1 210.9 206.6 200.9 191.5 180 170.4 156.1 141.2 125.2 110.6 96.8 87.2 85.7 85.4 85.1 85.2 86.6 86.4 87.1 95.8 106 113.5 121.1 128.2 141.8 154.5 167.2 181.5 192.5 196.8 201.1 205.2 210.6 217.3 223.2 224 221.2 215 208 202.9 197.2 190 180.9 170.3 161.4 158.2 154.2 141 130.8 121.5 108.3 82.9 81.3 87.9 93.8 101.6 114.7 132.4 142.7 150.6 157.2 161.1 164.3 168.7 172.5 178.6 179.8 181.7 185.5 192.6 196.7 195.1 186 179.4 172.9 163.6 154.1 143 131.4 120.6 111.6 110.8 111.7 111.2 105.3 92.8 82.5 77.1 73.5 70.9 72.7 72.8 74.2 74.6 72.4 74.8 74.1 68.5 66.1 67.5 60 57.1 59 57.8 65.6 63.5 64.7 53 46.3 45 44.8 41.7 44 40.5 38.1 38.1 38.1 38.1 38.1 38.1 38.1 38.1 38.1 38.1 38.1 38.1 38.1 38.1 38.1 38.1 44.8 50.1 58.9 72.9 83.2 91.9 96.2 98.5 102.5 104.2 102.6 99.6 101.1 107.3 112.1
43.2 43.2 43.2 43.2 43.2 49.7 63.8 77.1 90.8 112 139.6 166.5 186.4 205.3 225.7 245.2 262.8 282.6 288.6 290.7 291.9 286.2 279.7 274.4 266.8 267.8 267.6 266.3 261.8 252.7 250.6 248.3 247.6 246.4 243.1 240.4 238 242.6 248 251 249.2 246.9 244.1 242.2 236.3 230.3 226.1 221 218.6 213.4 203.8 204 210 211 210.8 209 206.8 201.3 192 183.9 176.3 162.5 145.5 128.7 111.3 95.7 86.8 85.4 84.3 83.2 83.2 84 85.8 87.2 94.2 101.8 111.7 121.2 127.8 143.9 156.8 170.2 184.1 192.9 197.9 205.4 211.2 216.3 221 224.9 224.8 219.9 213.4 208.2 201.4 193.5 185.6 174.9 168.2 162.8 162 155.6 143.2 128.8 116.2 98.2 76.8 87.9 97.4 96.9 97.4 114.3 129.1 136.7 142.1 146.9 151.1 155.8 160 171 180.1 182.4 186 187.7 191.8 189.5 183.1 179.6 177.3 169.2 159.2 150.3 146.3 138 128 115.7 115.2 114.2 112 108.6 97.2 85.1 78.6 73.2 71.6 73.1 75.9 78.3 80.5 75.4 74.9 74 71.7 69.6 67.5 63.6 58.8 60.6 67.2 68.6 64.5 55.4 48.2 43.5 43.2 42.4 43.4 44.1 38.7 38.1 38.1 38.1 38.1 38.1 38.1 38.1 38.1 38.1 38.1 38.1 38.1 38.1 38.1 38.1 38.1 49.4 55.7 58.6 68.6 82.9 91 94.8 96.2 100.2 102.1 99.8 99.8 106.1 110.6 113.4
43.2 43.2 43.2 43.2 48.4 55.5 68.1 82.6 97.2 122.8 150.5 174.8 195.6 215.2 232.3 251.3 274.8 284.1 289.4 287.5 286 280.4 272.3 269.9 264 265.1 266.9 266.8 265.5 261.8 259.6 256.1 255.1 251.8 247.3 242.5 236.4 240.4 244.1 246.5 246.8 246.6 246.4 246 239.8 232.9 230.9 227.9 222.1 217.5 205.1 196.4 204.6 207.2 207.8 208.7 207 202.2 195 187.5 178 164.8 149.3 133.9 113 96.9 88.6 85 84.7 84.5 82.3 84 85.8 87.2 92.9 98.8 110.2 121.7 132.3 145.5 158.7 170.9 182.8 189.9 198.3 210.3 219 221.8 225 226.8 224.1 219.6 215.8 211.1 202 192 185 179 173.6 167.4 162.4 153 140.1 124.6 109.7 89.1 77.6 87.6 95.3 93.4 96.8 113.9 126 129.6 133.2 137.5 142.4 149 154.9 167.3 180.7 182.8 182.6 181.4 179.8 177.6 175.6 174.7 169.8 163.1 156.6 157.1 155.6 149.5 132 119.9 118.9 114.4 108.5 106.4 97.3 82.8 77.1 75.8 75.4 76.3 81.1 80.9 79.7 78.6 78.9 79.5 76.2 72.1 72.4 69.7 60.6 59.5 60.5 70.2 60.7 49.2 44.5 42 41.5 44.9 44.7 44.1 38.1 38.1 38.1 38.1 38.1 38.1 38.1 38.1 38.1 38.1 38.1 38.1 38.1 38.1 38.1 38.1 41.7 56 63.3 65.3 71.6 82.1 87.6 93.7 98.3 101.5 101.1 99.9 104.5 113.8 113.9 120
