ncols 200
nrows 103
xllcorner 340000
yllcorner 482250
cellsize 50
206.2 198.4 186.7 183.5 184.2 179.9 170.4 158.7 154.8 145 139.5 133.9 129.3 120.6 113.5 108.7 103 98.4 97.1 96.5 93.3 90.2 80.9 76 77 73.3 67.6 67.9 63.8 61.7 65.8 66.5 69.1 59.7 50.4 38.3 41.1 30.5 15.2 11.1 10.2 10.3 8.9 8.8 7.1 6.5 5.3 5.6 5.9 7.9 8.6 6.7 7.4 8.1 13.8 19.6 28.5 35.3 45.3 44.1 43.1 42.1 42.4 42 45.2 47.3 46.5 44 64.9 79.1 80.7 86.9 97.8 121.4 150.4 162 171.7 176.2 181.4 189.7 197.4 197.8 202.2 201.1 200.1 194.6 191.8 187.1 182 176.7 171.8 170.2 172.4 170.1 167.4 159.3 149.9 141.3 135.7 130 127.5 120.1 109.3 99.7 92.7 86 95.8 95 89.3 77 58.3 52.3 43.7 38.1 32.5 27.4 22.1 16.6 18 15.6 7.4 5.6 7.4 7.2 5.6 5.3 5.2 4.8 5 5.7 6.4 6.9 7.4 8.9 14.8 7.3 4.7 5.3 5.8 5.8 5.1 4.9 4.7 4.5 4.3 4.6 4.6 4.2 4.2 4.3 4.3 4.4 4.4 4.5 4.6 4.6 4.3 4.2 4.2 4.2 4.2 4.3 4.4 4.5 4.6 4.5 4.4 4.3 4.2 4.1 4.6 4.1 6.7 23.7 40.8 47.1 54 58.1 56.8 60.4 61.6 68.8 72.3 78.3 84.4 89.4 94.6 97.9 101.3 106.6 104.1 99.9 89.7 82 77.4 73.9 67.2 61 53.4 52.3
205.1 198.2 190.5 189.2 187.6 182.6 175.8 165.2 159.6 149.2 140.3 139.1 132.4 120.1 112.4 108.4 103.3 99.3 97.6 92.7 90.8 84.5 74.2 68.1 67.9 64.4 66.9 64.7 59.8 65.5 65.7 69.1 60.8 53.8 48.1 41.8 34.5 24.3 11 9.4 12 11.4 8.8 8.4 7.5 8.1 6 4.5 5.4 7.4 6.6 7.7 8.2 9.1 12.6 16 28 35 40.1 44.5 45 42.5 42.7 44.4 44.3 47.7 46.2 47.4 68.3 81.5 82.5 88.3 97.8 121.9 149.4 159.6 168.9 173.8 181.2 191.4 196.2 200.4 202.9 201.3 199.8 195.2 192.6 188.6 183.3 176.3 173 163.2 175.3 175.4 169.9 161 152 144.3 136.1 130.6 126.8 120.1 108.2 99.3 91.8 85.1 89.1 94.3 90 77.8 59.1 54.2 45 39.3 35.8 31 25.1 19.3 18 17.2 7.6 6.7 7 6.6 6.2 5.5 5.3 4.7 3.1 4.3 5.1 5.8 6.6 15.2 19.5 9 4.8 5.5 6.4 4.3 5.5 5.2 5.1 4.7 4.3 4.4 4.9 4 4.1 4.2 4.3 4.5 4.6 4.5 4.6 4.5 4.3 4.2 4.3 4.3 4.3 4.4 4.5 4.6 4.6 4.5 4.4 4.4 4.4 4.3 4.2 4.8 6 20.9 38.1 42.6 50.5 53.2 54.8 60.3 65.2 74.7 77.9 81.8 87.4 93.3 100 103.8 107.9 113.5 108.6 100.3 90.2 84.8 80 76.1 69.7 63.6 54 51.3
204.1 199.7 197.4 195 194 188.5 178.3 172.2 166.3 151.6 143.4 138.4 131.9 123.8 116.4 110.9 103.5 101.7 97.6 93.3 84.8 81 70.3 63.6 59.2 60.9 65 60.8 60.6 61.6 66.7 61.4 55.6 56.1 52.6 49.1 29.4 16.1 10.4 10.6 19 13.5 9.4 8.5 8.2 7.7 6.4 5.8 5.3 5.5 6.1 7.1 8.1 9.9 13 15.7 27.2 34.7 44.4 48.2 47.5 42.9 42.8 46.2 48.3 46.6 48.7 52.1 69.8 82.1 83.9 91 101.4 127.8 153.5 164.9 173.6 175.8 180.7 188.8 195.6 201.9 204 201.2 197.6 196.1 193.7 188.4 183.2 179 174.4 165.1 172.8 174.7 170.6 162.7 154.3 146 137.6 130.9 127.4 119.8 109 98.3 90.7 84.1 83.4 92 88.6 77.1 61.9 54 46.3 40.8 37.3 33.3 26.5 18.4 14.4 13.1 8 6.7 5.9 6.3 5.6 5.5 5 4.6 3.7 3.9 4.2 4.4 7.2 12.1 23.1 11.2 3.5 5.5 6 7.2 5.8 5.6 5 4.4 4.3 4.3 4.7 4.4 4 3.8 4.3 4.8 4.6 4.5 4.6 4.4 4.3 4.3 4.4 4.4 4.4 4.5 4.6 4.7 4.6 4.5 4.5 4.5 4.4 4.3 4.4 4.6 7.2 23.6 33.9 39.5 49.6 52.2 55.2 62.7 70.8 77.6 82 86.1 91.6 97.6 104.1 109.8 116.8 118.2 111.8 102.5 90.5 86.5 83.2 79.1 72.2 67 56.5 49.9
203.9 198.3 199.3 199.3 195.6 189.3 181 174.4 166.3 153.1 142.9 136.5 131.3 128.5 124.4 114.2 109.3 105.2 100.4 90.8 77 77.6 65 58.9 57.5 62.3 62.6 54.4 62.9 55.4 65 57.2 56.4 57.4 52.1 47.2 31.1 17 11.2 11.4 14.6 7.9 6.5 6.5 6.8 7.1 6.2 5.4 5.9 6 9.4 7.1 8 12.9 18.9 20 29.9 38.2 42 46.1 43.9 44.7 46.4 47 44.8 45.6 53.6 54.6 71 84.1 85.5 92.1 102.6 131.7 151.8 164.2 174.5 178.7 180.5 191.2 195.3 200.7 205.4 204 198.1 194.3 192.7 187.7 186.2 181.2 175.8 167.1 159.3 171.6 171.5 163.5 156.7 147.7 139.2 132.1 130.6 121.9 111.3 98.3 91.4 84.8 80 83.4 87.1 74.3 64.8 55.8 47.8 42 39.4 35.1 24.4 26.8 21.7 13.8 10 8.9 6.5 5.3 5.4 5.2 5 4.8 4.2 4.2 4.4 4.6 4.6 7.2 7.8 5.5 6.5 5.5 6.2 5 6 5.2 4.6 4.3 4.3 4.2 4.6 4.6 4.3 4.1 2.8 4.4 4.7 4.6 4.6 4.4 4.4 4.4 4.5 4.5 4.5 4.6 4.7 4.7 4.6 4.5 4.5 4.5 4.5 4.5 4.5 4.6 11.6 26 32 39.3 48.9 52.8 57.4 65.6 72.1 78.7 83.6 90.4 95.7 101 107 113.4 120.6 119.4 113 102.1 92 89.3 86.9 82.8 77 70.9 59.5 57.2
201.4 194.4 197.1 198 194.2 188 179.9 174.8 161.7 147.3 142.4 138.2 134.4 134.6 130.6 117.5 109.2 106.5 98.8 88 74.4 64.4 56.8 55.5 57 55.3 51.4 49.8 55.2 48.4 59.2 52.2 51.5 51.5 52.9 45.7 28.1 14 10 9.5 10.3 7.4 6.8 6.4 6.7 7 6.1 5.6 5.5 7.6 9.2 9 9 16.1 21.9 21.8 28.3 36.4 40.9 45.3 47 46.1 43.1 41.8 44.8 54 55 54.8 73.3 86 88.4 96 102.7 129.2 154 165 174.4 180.1 180.6 191.2 195.9 201.7 206.9 208.7 203.4 194.6 188.2 186.6 186.5 181.9 176.3 168.5 159.8 167 165.5 167.2 159 150 141.3 137.6 131.8 124.1 116.6 102.3 92.9 85.6 79.2 77.9 78 73.7 64.7 54.6 48.3 42.6 39.7 35.8 32.3 34.2 28 20.8 15.7 12 8.3 4.9 5.1 5.1 4.9 4.5 4.8 4.6 4.7 4.7 4.7 5 6.5 5.7 5.4 5.5 6.4 5.8 5.4 4.9 4.4 4.3 4.2 4.2 4.5 4.8 4.6 4.5 4.3 4.6 4.7 4.6 4.5 4.5 4.4 4.5 4.5 4.6 4.6 4.7 4.8 4.7 4.6 4.6 4.6 4.6 4.6 4.5 4.5 4.7 15.2 23.7 29.9 39.1 48.6 55.2 62.3 66.7 74.4 80.6 89.4 95.3 99.6 102.7 109.5 115.6 123.4 118.9 111.9 100.2 93.5 91.7 90 86.2 81.8 76.6 67.8 58.6
201.3 190.6 190.5 193.7 191.1 185.1 176.1 167.8 155.1 145 142 137.4 134.3 134.1 129.9 118.7 111.3 108.2 93.5 82.8 75 62 59.7 53 51.5 49.5 51.9 48.4 47.2 46.1 49.5 48.6 46.2 48.3 45 38.4 24.9 12.1 9.7 9.4 10.1 10.6 7.3 6.6 6.6 6.9 6.2 5.8 5.9 9.1 7.6 11 11.4 24.9 25.6 27.3 32.8 34 41.1 45 47.2 44.3 43.3 43.4 52 55.2 56.2 57 75.7 87.2 87.4 96.8 101.7 125 157.9 170.3 174.7 181.2 181.9 189.4 193.4 201.6 208.6 212.3 206.9 198.7 188.7 185.9 186.8 180.8 177.4 169.5 160.7 152.3 164.9 166.9 160.9 152.2 144.1 141.5 134.3 128.8 122.8 112.4 95.1 86.7 80.3 76.8 75.6 70.6 63 54.6 49.2 43.4 39.3 35.6 39.1 42.5 34.6 26.5 19.8 14.6 10.2 6.6 5.3 5.1 5.2 5.3 5 4.7 4.7 4.8 4.8 5.8 8.6 7 6.1 5.9 6.5 5.9 5.3 4.7 4.4 4.3 4.2 4.4 4.7 4.9 4.8 4.5 4.3 4.5 4.7 4.6 4.5 4.5 4.5 4.6 4.6 4.7 4.7 4.7 4.8 4.7 4.7 4.7 4.7 4.6 4.6 4.6 4.6 5.4 16.2 22.1 28 40.2 50 58 64.7 69.5 77.1 86 93.9 99.6 101.7 105.6 111.5 118 122.2 116.2 108.9 100.6 97.1 96.7 94 89.4 88.1 85.3 73.1 55.7
195.6 186 187.6 187.8 186.3 179 170.2 159.7 152.8 146 142.6 137.9 136.8 133.7 127.3 121.6 111.3 103.5 98 83.6 76.6 73.6 65.8 58.1 46 49.2 47.5 41.9 40 41.5 44.8 44.3 44.5 42.1 38.9 29.4 15.2 10.9 9.5 10.7 11.1 9.6 8 6.7 6.7 6.7 7 8.1 6 9.2 8.8 10.7 20.4 25.9 26.2 28.8 41.1 34 38.4 39.9 40 40.1 46.8 48 53 56.1 57.3 58.9 77.8 87 87.2 95.8 98.4 117.9 158.6 171.8 176.2 180.2 184.4 190.1 191.2 199.9 209.4 213.9 208.9 201.2 192.1 183.2 187.1 181.5 175.9 170.6 161.4 153.6 158.9 164.4 162.4 153.8 147 144.6 137 131.2 126 117.6 102.6 88.4 82.1 76.7 73.4 69.7 63 58 53 47.6 43.1 39.8 41.8 47.2 39.8 31.4 24.3 17.9 12.6 8.5 4.5 5.7 5.4 5.1 4.8 4.9 4.9 5 5.1 8.6 12.1 11.4 7.2 6.1 6.1 5.6 5.3 4.6 4.3 4.2 4.3 4.6 4.8 4.8 4.6 4.5 4.3 4.3 4.4 4.5 4.5 4.5 4.6 4.6 4.7 4.7 4.8 4.8 4.8 4.8 4.8 4.7 4.7 4.7 4.7 4.7 4.6 7 13.8 20.8 27.5 44 54.6 62.8 67.8 74.6 82.6 90.3 98.4 101.1 102.6 107.3 112.5 117.7 119.5 113.2 109.7 104.1 102.1 101.5 98.5 94.5 94.4 85.2 70.2 51
190.7 186.9 184.2 182.9 179.5 173.6 162.8 157.9 153.7 147.7 143.8 140.3 139.3 133.5 127.8 116.1 111.7 105.4 92.1 93.2 89.2 76.2 67.6 61.3 47.7 45.8 42.3 36.3 31.2 34.9 36.2 36 42.9 37.3 29.7 20.1 13.9 13.7 15.9 13.3 9.1 9 8.5 7.6 7.4 7 9.3 8.6 11.3 10.2 7.7 12.5 23.7 25.7 25.2 29.8 44.2 49.1 39.2 37.6 41.4 41.5 43.5 49.1 53.5 55.2 55.4 61.2 81.6 86.8 85.9 94.6 94.2 110.2 147.5 173.4 177.4 182.8 185.4 191.4 190.6 199.4 206.5 213.8 209.5 199.5 190.9 182.8 179.6 181.4 175.6 170.8 163.3 155.5 146 162.8 164.2 156.1 147.6 146.3 139.6 133.4 129.4 121.9 113.3 92.1 83.6 79 75.3 72.6 65.8 62.1 58 52.1 47.5 44.7 42.2 47.6 46.3 34.9 26.9 19.4 13.7 9.7 5.2 5.7 5.4 5.1 4.8 4.7 3.1 5.3 5.2 11.4 17.3 13.4 7 5.7 5.9 5.8 5.1 4.4 4.3 4.3 4.6 4.7 4.7 4.6 4.5 4.3 4.2 4.2 4.3 4.4 4.5 4.6 4.7 4.7 4.8 4.8 4.9 4.9 4.9 4.8 4.8 4.8 4.8 4.8 4.7 4.7 4.9 5.5 15.2 21.5 36.2 51 58.8 66.5 72.8 79.8 88.3 94.8 100.5 101.8 102.8 107.4 112.5 117.3 116.5 114.8 113.1 108.9 106.3 105.6 103.4 100.7 97.4 69.7 60.1 50.7
193.3 186.5 179.1 175.4 174.9 170.5 159 157.6 152.9 149.9 145.7 142.4 139.1 132.6 127.7 118.1 112.5 103.5 104.7 103 92 77.1 71.8 66.1 52.5 42 36.3 32.8 31.2 29.9 30.4 32 35.7 27.2 21.5 16.2 18.7 13.5 10.9 10 9.4 10.4 10.3 9.1 7.4 8.1 10.7 6.2 11.4 10 7.3 14.8 22 23.9 26 30.4 43 49.5 49.9 39.5 39.5 39.7 47.4 48.9 50.1 52.8 53.8 59.6 80.2 86.4 85 91.8 92.3 101.8 132.1 173.4 179.7 181.8 182.8 183.7 189.3 196.2 203 211.2 209.8 198.4 187.4 186.1 183.9 181.5 176 172.2 165.3 157.4 148 163.3 165.5 157.6 149.7 146.3 141.6 135.1 132.3 124.2 112.9 98 87.7 81.5 77.5 75 68.2 64.6 61.2 56.8 52.5 48.1 44.5 44.4 49.3 39.4 29.2 21.1 15.5 10.9 6.2 5.5 5.6 5.5 5.4 5.2 5 5.4 6.4 15.1 14.5 6.1 6.1 5.7 6.9 5.8 4.9 4.3 4.2 4.5 4.6 4.6 4.6 4.5 4.3 4.2 4.2 4.3 4.3 4.5 4.6 4.7 4.1 4.8 4.8 4.8 4.9 4.9 4.9 4.9 4.9 4.9 4.8 4.8 4.8 4.8 5.3 4.7 12.8 23.8 42.4 51.8 60.9 69.8 77.5 84.9 94.6 99.3 100.4 101.5 103 107.3 111.8 116 118.3 118.9 119 117.3 114.5 111.1 105.6 100.4 89.4 67.8 57.8 54.1
189.7 182 175.4 173.4 173.4 168 161.5 159.3 152.5 148.2 146.4 142.8 135 129.9 126.4 118.4 113.7 112.9 111.9 102.7 90.6 79 70.5 63.2 55.1 47.2 36.4 32.9 29.2 30.5 31.9 29.7 28.8 23 16.7 13.5 12.8 10.3 10.3 9.7 11.8 10.9 10.9 8.5 7.2 7.4 7.8 4 11.3 7.6 6.9 19.1 25 23.6 24.8 31 42.4 46.3 49 45.1 38.6 41.8 45.5 48.6 53.6 50.1 49.9 59 81.8 83.9 84.4 88.4 90.2 95 115.7 157 176.6 177.8 178 178.4 184.3 190.9 197.3 207.1 207.8 198.6 186.9 185 184.4 180.4 177.3 171.9 167.4 158.6 149.8 161.6 166 158.2 151.4 146.6 144.6 141.1 134.2 127.2 124.2 100.1 92.5 84.5 80.3 77.7 69.7 66.3 63.3 60.1 54.8 51.7 48.5 43.6 45.2 43.7 33.4 24.2 17.5 12.2 7.9 5.3 5.5 5.5 5.2 4.8 5.1 5.4 6.7 6.1 4.9 4.7 6.6 6.3 4.5 6 4.7 4.3 4.4 4.4 4.5 4.5 4.5 4.3 4.2 4.2 4.3 4.3 4.3 4.5 4.6 4.7 4.7 3.4 4.4 4.8 5 5.1 5 5 5 4.9 4.9 4.9 4.9 5.2 5.7 5.1 12.8 27.8 43 50 62.3 71.8 81.4 90.3 97.7 99.1 99.8 100.5 104.3 108.6 112.8 116.8 121.6 122.4 122.5 121.1 117.7 112.6 103 92.1 77.6 63.7 59.4 54.5
184.1 176 173.5 176 174.4 167.2 163.1 159.1 153.4 146 141.5 137.6 132.7 130.6 125 124.3 121 115.7 112.2 104.4 95.1 79.7 70.6 61.7 55.4 47.3 38.7 34.1 28.1 29 33.6 33.5 23 16.9 13.7 12.6 11.7 10.4 9.3 9.8 14.8 12.9 8.7 8.1 8.2 10.4 9.7 4.9 9.2 5.8 7.2 18.5 28.2 25.7 26.6 31.6 43.2 49.2 51.3 53.5 46.5 44.2 45.1 49.9 49.2 51.1 51.1 57.1 81.3 78.4 83.1 83.6 88.5 89.9 97.7 120.8 159.6 172.3 172.4 173.1 178.3 186.5 194.2 200.7 203.4 198.5 187.4 183.3 179.4 183.1 178.5 172.8 168.1 160 151.6 168.4 168 159.7 152.1 152.4 149 143.5 136.6 130.5 124.9 103.5 97.4 90 85.4 79.8 72.7 68.2 64.4 61.1 59.8 55.8 51.6 44.9 42.3 43.5 36.3 28.1 20.6 12.9 6.9 5.3 5.4 5.2 4.8 4.7 4.7 4.7 4.4 5.4 4.7 5.5 5.4 6.4 7.1 7.2 4.9 4.3 4.3 4.3 4.4 4.4 4.3 4.2 4.2 4.3 4.4 4.4 4.4 4.5 4.6 4.7 4.7 4.5 4.6 5.2 5.1 5.1 5.1 5 5 5 5 5 5 5.5 5.2 8.5 11.1 31 41.5 49.9 61.3 71.4 82.2 90.8 96.9 98.4 99.1 99.7 103.7 109.9 113.9 117.4 119.4 121 121.8 119.5 113.1 107.3 94.6 82.1 69.8 59.4 57 53.6
179.5 173.2 172.7 177.4 173.1 167.8 163 158.7 151.6 145.4 136.7 133.9 133.4 132.6 133.2 129 123.5 120.4 116.6 106.9 97.1 82.2 73.2 66.1 60.6 52.8 42.3 31.3 24.2 30.6 31.7 27.4 21.9 20.9 22.7 18.6 18.3 14.1 10.9 9.9 13.2 10.7 10.9 9.9 11.9 10.5 8.7 6.4 5.4 6.4 8.5 18.6 29.1 27.4 28 31 45.1 52.4 53.3 54.7 52.7 49.4 51.6 53.4 53.8 53.8 52.5 51.5 76.7 72.3 81 80.6 86.4 86.6 88.6 94.5 118.9 162.3 166.4 171.3 176.3 182.1 190.4 195.3 200.4 198.7 187.7 186.6 178.3 181.9 175.2 173.7 165.8 161 154.8 167.4 171.1 162.3 154.9 156.1 152 147.4 140 134.3 128.9 106.2 101.3 96.5 92.2 84.9 76.6 72.7 66.3 63.7 60.8 59.2 54.6 48.6 44 42 40.1 32.7 24 16.2 9.3 5.4 5.3 5.1 5.1 5.1 5.1 5.1 4.9 4.1 5.6 6.2 5.6 6.4 6.5 6 4.9 4.5 4.2 4.2 4.3 4.3 4.1 4.2 4.3 4.4 4.4 4.5 4.4 4.5 4.6 4.7 4.7 4.5 5.1 5.2 5.2 5.2 5.4 5.2 5.1 5.1 5.1 5.1 5.3 5.3 5.9 10.8 9.8 33.4 38.8 48 59.5 68.9 79.6 90.2 95.6 95.4 96.8 98.1 102.5 109.7 114.5 117 118.4 119.1 118.3 111.6 104.4 96.4 81.5 67.3 60.4 59.6 55.1 53.9
178.4 175.4 174 174.6 172.8 166.7 163.8 158 153.3 146.3 136.2 135.6 138.9 137.5 136.9 132.3 129.6 126.7 122.4 108.7 95 85.4 80.7 75.4 63.5 54.1 41.4 33.1 24.6 27.7 29 28.5 21.9 30.7 27.2 23.4 15.8 12 9.5 8.9 10.9 9.2 9.2 8.7 10.5 8.5 9.8 6.7 5.5 7.3 7.3 17.4 29.4 27 27.8 32.1 45.9 50.9 54.9 55.2 64.9 51.8 52.9 55.4 55.4 54.9 53.5 51 74.4 71.1 76.8 80.5 84.3 83.1 85.1 86.6 94.1 129 160.5 166.4 174.3 179.3 186 187.7 196.2 196.9 187.7 181.2 180.6 179.3 180.4 172.5 168.3 163.2 157.4 165.1 175.5 167 159 158.9 153.8 150 144.1 138.8 133.6 117.7 104.9 100.2 95.3 87.6 78.4 73.7 69.4 69.3 65.4 61.4 56.4 52.7 48.1 43.5 39.2 33.5 26.1 20.6 13.7 7.6 5.6 5.4 5.6 5.5 5.5 5.4 5.3 5.4 3.5 6.7 5.8 6.5 6.7 5.5 5.5 5.1 4.6 4.2 4.2 4.1 4.2 4.3 4.4 4.4 4.5 4.6 4.5 4.5 4.6 4.7 4.7 4.7 5.1 5.1 5.2 5.2 5.4 5.4 5.2 5.1 5 5 5.2 5.4 5.6 8.2 9.7 31.6 36.4 44.9 57.1 66.9 77.4 87.5 92.3 92.7 93.1 94.4 101.6 107.8 111.4 114.5 116 110.6 103.1 98.9 92.9 82 62.7 57.4 56.6 53.9 48.1 42.4
175.5 174 172.1 173.2 169.3 165 162.6 158.4 152.6 147.3 139 143.2 142.1 140.7 140.9 135.6 134.4 130.8 125.2 113.1 97.5 89 86.6 77.9 65.5 55.1 46.5 38.5 27 23.5 26.2 26.1 24 29.1 21 14.6 12.9 8.8 8.8 8.2 11.8 8.3 8.7 9.2 9.3 10.6 11.1 6.1 5 6.8 6.9 12.9 25.1 26.1 26.5 33.2 45.6 48.8 56.2 57.1 64.8 60.7 54.4 55.3 56.2 56 54.1 51.2 65.1 71.4 74.8 77.8 79.1 79 78.9 81.5 81.2 104.3 135.8 158.1 166.2 171.6 179.5 181.4 190.7 191.4 188.3 181.6 180.1 177.6 179.8 173.4 169.1 163.6 159.4 161.3 179.8 172.3 164.6 161.6 157.4 154.9 149.3 143.5 139.4 125.6 109.3 103.2 99.5 94.1 88.1 82.4 74.7 75.2 71.4 64.7 58.9 56.4 52.2 47.4 42.5 37.1 32.1 25.7 17.2 9.1 5.4 5.9 5.6 5.9 5.8 5.9 5.9 5.7 5.7 4.7 4.4 4.6 5.2 6.2 6 5.6 5.2 4.8 4.4 4.2 4.3 4.3 4.4 4.5 4.6 4.6 4.5 4.5 4.6 4.6 4.7 4.8 4.9 5.3 5 5.2 5.4 5.2 5 5 5 5.1 5.1 5.3 5.3 5.3 10.9 29.7 34.9 45.4 55.8 64.3 75 83.9 87.4 89.3 90.7 91.3 95.4 102.3 104.8 103.9 98.7 93.1 89.6 87.1 82.4 70.2 56.4 56.2 55.3 53.7 49.5 43.8
174.8 173 172.3 169.8 166.5 163.7 162 158 154 146.6 146.8 145.4 145.3 148.3 142.8 137.9 137.3 130.8 124.8 117.6 104.9 91.5 89.5 77.6 67.3 60.4 50.7 38.9 29.6 21.7 21.9 20.9 25.6 23.1 18.6 18.6 16.8 8.5 9 8.5 7.9 8.1 9.3 9.6 8.4 14.6 12.7 6.3 5.1 10.3 7.5 10.9 23.4 23.2 25.3 33.5 47.3 51.6 52.4 58.1 63.5 70.1 56.2 54.9 55.2 54.2 52.9 51.4 64.6 74.7 79.6 78.1 80.6 72.8 71.6 75.6 78.1 84.5 110.3 144.3 159.7 165.2 171.9 177.4 184.2 186.9 189.5 181.2 176.5 178.7 180 174.9 167.1 164.1 162 156.8 183.2 177.6 169.3 167.6 162.1 159.7 153.7 147.8 143.2 132.4 116.7 110.7 104.5 99.4 95 91.6 79.3 80.5 76.1 70.6 64.1 58.3 55.8 51.5 45.3 41.1 35.9 28.4 17.9 11 8.2 5.6 5.3 5.4 5 5.3 6.3 5.8 6.5 5.7 5.6 5.9 6.4 4.8 6.5 6.2 5.7 5.4 4.6 4.5 4.5 4.4 4.5 4.6 4.7 4.7 4.6 4.6 4.6 4.6 4.7 4.7 4.7 5.1 5.1 5.2 5.1 5 5 5 5 5 5.1 5.2 5.3 5.2 8.7 28.1 34.2 44.3 53.1 61.2 70.3 78 81.6 84.4 85.5 86.2 87.7 91.1 90.6 87.6 83.6 83.3 80.6 76.4 72.8 60.9 54.2 53.6 53 51.6 47 44.5
173.7 171.6 170.8 169.9 170.9 167.7 160.8 156.8 153.5 147.5 147.6 145.9 147.2 147.9 143.2 138.5 138.5 134.8 126.8 118.9 107.6 89.4 82.9 75.3 70.1 61.2 52 41.9 33.1 18.2 17.1 16.4 15.8 16.5 16.2 12.6 10 7.6 8.9 9.2 8 7.4 8.3 11.3 7.7 12.1 15.9 5.4 5.8 10.2 7.5 11 22 23.3 25.5 34.1 45.6 52.6 53.5 56.7 61.7 70.2 54.7 59.3 57.5 55.2 54.7 51.9 65 78.4 79.1 77.3 78 73.4 70.9 72.7 72.6 77.7 94.6 133.4 152.9 159.1 167 173.3 178.9 183.4 189.1 181.3 177.3 172.6 174.8 176.9 169.1 164.4 161.8 158.2 183.5 180.8 172.7 172.1 170.5 165.6 159.2 150.5 147.4 134.3 121.2 114 110.3 104.3 99.3 96.3 85.6 81.8 81.1 75.9 70 62.4 56.8 51.1 43.3 41.5 36.8 26.1 21.3 16.6 11.8 6.2 5.4 5.3 5.9 5.9 5.9 5.2 6.6 5.3 5.4 5.7 6.1 6.4 5.4 6.7 6.3 5.6 4.8 4.7 5.1 5 4.7 4.7 4.7 4.8 4.7 4.6 4.6 4.6 4.6 4.7 4.6 4.9 5.1 5.1 5 4.9 5 5 5 5 5 5.1 5.3 5.4 9.9 26 32.9 43 51.9 58.1 67.6 75.7 79.7 82.2 81.9 81.8 80.3 79.7 80.2 79.2 75 75.5 73.9 70.2 67.4 54.3 50.9 50.3 50 47.6 43.4 40.7
173.9 170.4 169.5 170.8 170.2 167.3 161.1 157.5 158.2 155.1 150.9 147 146.2 145.3 142.7 139.7 139.3 132.9 127.4 121.9 105.7 91 83.5 78.4 70.3 60.2 52.6 44.1 36.3 23.6 14.5 14 12.3 10.9 10.4 8.5 7.9 6.9 7.9 8.8 7.4 7.9 6.6 9.2 7.5 12.8 10.3 5.3 6.7 8.8 8.3 10 20.5 22.6 24.4 33.1 42 50.9 55.1 57 63 73.7 62.1 59.5 58.2 58.7 57.7 53.5 63.5 78.5 80 77.8 77.4 73.8 68.1 65.7 65.8 69.6 81.1 120.7 143.9 155.5 164.9 170.9 174.5 182.1 187.6 182 176.3 174.1 173.6 178 170.7 163.7 163.1 162 180.3 184.8 177.1 170.6 173.5 167.5 162.7 151.3 140.6 118.7 122.1 117.9 113.9 108.1 104 100.2 89 85.4 84.9 80.7 74 67 60.8 54.5 45.9 40 35.5 30.3 25.2 19.9 14.6 7 5.9 5.9 5.8 5.8 5.6 5.5 4.9 4.9 5.2 5.5 5.8 5.8 6 6.4 6.7 5.8 5 4.9 5.3 5.6 5.5 5.2 4.9 4.9 4.8 4.8 4.7 4.6 4.6 4.6 4.7 2.9 5 4.9 4.9 4.9 4.9 4.9 5 5 5 5 5 5.4 11.9 23.2 29.3 39.8 49.9 55.9 65 75.7 80.2 81.1 78.1 74.9 76.8 77.9 75 73.6 68.2 69.3 66.2 64.7 62.2 50 47.6 47.8 48.1 43.2 41 38.8
173.9 169.4 169 170 169 166.6 165.8 167.9 161.7 155.8 152.2 147.6 145.4 142.8 141.7 143.2 138.2 132.7 129.1 122.1 107.8 91.9 83.5 80.6 70.5 61.1 54.3 46.2 38 27 19.1 13.3 11.9 10.4 9.3 8.4 7.5 6.7 6.5 6.9 7.3 8.4 6.8 6.5 7.3 8.1 6.8 5.3 7 11.3 7.8 10.4 19.5 21.1 23.9 33.2 41.5 49.2 53.9 54.6 65.9 76 75.6 62.3 62.2 62 60.7 54.2 61.4 78 79.6 79.4 77.1 72.8 65.6 63.8 62.1 66.1 73.7 103.9 137.2 153 158.6 166.6 171.2 182.8 184.4 185.3 178.1 173.7 175.6 179.7 174.9 168.3 164 164 172.3 179.6 171.2 166.3 164.6 163.9 166.2 154.3 122.9 117.8 127.1 123.3 120.7 113.6 104.3 105 97.4 90.6 90.7 86.1 79.2 73 66 59.3 52.1 44.3 39.4 34.1 29 24.5 12.1 7.6 6.4 5.7 5.7 5.5 5.2 4.9 5.3 4.6 5 5.1 5.1 5.2 5.5 6.1 4.7 6 5.2 5.1 5.5 5.8 6.2 6 5.6 5.1 4.9 4.8 4.8 4.7 4.7 4.6 4.6 4 4.9 4.9 4.9 4.9 4.9 4.9 4.9 5 5 5 5 5.3 12.7 21.8 26.8 37.2 47.8 53.7 63.8 72.3 79.8 79.4 75 71.1 70.8 72.7 71.4 66.4 63 62.6 59.6 60.1 59.1 50.4 48.2 46.2 44.2 39.7 37.9 37.4
171.9 168 167.4 170.6 168.8 169.5 168.1 167.8 161.5 156 151.7 148.6 144.6 140.8 140.1 139.2 133.5 129.2 128.5 118.8 104.9 91.3 83.1 80.3 71.7 62.9 54.5 44.7 33.1 22.5 17.5 14.2 11.6 10.3 9.5 8.6 7.8 6.9 6.2 6.6 7.1 8.4 8.5 8.5 7.8 8 9.3 5.8 5.9 7.3 7 12.4 19.1 20.7 26.1 33.3 42.9 51 53.2 53.5 65.2 81.3 82.7 69 61.7 63.1 59.9 55.6 57.3 73.3 81.1 79.8 77.3 72.9 66.8 60.7 59.6 63.1 70.9 84.9 126.2 147.1 151.7 160.6 171.9 179.6 182.2 178.4 179.5 175.9 179.4 180.6 179.8 173.6 166.8 163.3 164.7 180 174.6 152.3 141.2 146.8 157.3 141.3 113.2 109.4 132.5 127.7 123.1 116.7 108.6 102.3 102.8 93.8 93.6 91.1 85 78 73.2 67 56.4 46.2 42.3 38.8 34.8 29 15.7 10.3 6.7 5.3 5.4 5.2 4.9 4.6 5.2 5.1 4.6 4.7 4.9 5.3 5.4 6.1 6.9 6 5.8 5.7 5.8 6.1 6.3 6 5.5 5.1 4.9 4.9 4.8 4.6 4.6 4.6 4.6 4.5 4.8 4.9 4.9 4.9 4.9 4.9 4.9 5 5 5 5 5.1 11.6 21.4 26.6 32.5 41 49.7 61.9 71.1 78.6 77.2 72.1 67.5 63.9 65.6 62.9 59.3 60.3 57.3 54.9 55.4 56 51.4 46.2 44.5 43 39.1 36.2 35.3
170.1 166.9 166.1 168.6 166.2 167.5 166 163.2 158 155.6 152.6 148.9 142.3 141 137.6 133.2 129.6 127.8 123.3 116.3 101.5 86.1 81 78.6 71.8 63.1 52.4 41.9 32.9 23.2 21.1 15.4 12.1 10.3 9.9 9.6 9.2 8.3 6.3 6.8 7.3 7.3 7.7 8.1 8.5 8.1 8.9 7.5 5.4 6.8 6.6 14.4 19.8 20.8 27.5 34 43.5 50.8 51.6 53.4 64.4 82.3 86.7 84.3 62.3 61.5 62.7 56.7 55.8 74.6 79.3 78 74.3 73.7 67.5 60.6 59.3 56.9 65.2 80.9 114.1 143.7 148.1 158.7 174.2 177.9 181.1 176.6 172.7 172.3 179.3 179.4 183.8 177 170.4 164.6 163.7 163.6 152.8 145.8 139.3 131.9 125.6 121.5 117.9 111.8 125.1 134.4 128 121.6 114.5 107.7 100.7 94.7 97.5 96.3 91.5 85 79.3 70.1 60.1 51 44.1 41.5 39.7 34.2 23.5 14.7 6.8 5 5.3 5 4.8 4.5 5.1 4.9 4.4 4.7 5 5.2 5.4 5.9 6.4 6.9 6.4 6.3 6.1 6.2 6.2 5.9 5.5 5 5 4.9 4.9 4.8 4.7 4.4 4.4 4.4 4.8 4.8 4.9 4.9 4.9 4.9 4.9 5 5 5 5 5 10.9 22.2 28.5 34.2 39.5 47.6 57.5 68.3 75.3 75.4 69.5 64.5 60.3 58.4 56.6 56.8 58.1 53.9 51.6 52.4 53.8 52.5 47.9 43.1 41.4 39.3 36.1 34.6
169.8 166.6 165.4 165.3 165.4 166.3 164.2 161.9 154.8 153.2 152 148.8 147.3 144.7 139.6 133.1 127.3 123 118.7 110.2 94.4 84.8 79.7 77.1 70 61.8 52.5 45 36.4 26.5 18 15.5 12.2 10.1 9.1 8.8 8.4 8.1 9.5 8.7 5.8 6 6.4 6.8 7.2 7.1 8.4 6.3 5.7 7.7 6.8 17.4 19.8 21.7 28.4 34.2 45.5 49.9 51.7 54.5 62.1 80.1 86.4 88.7 71.9 68.8 63 56.9 55.8 62.3 75.8 75.4 74 72.1 66.7 59.8 58.7 54.8 59.8 71.3 106.6 141.3 148.8 163 174.7 175.1 180.6 175.4 173.1 169.7 176.8 179.3 187.6 182.4 175.4 168.2 163.9 165.2 159.3 150.2 143.2 135.3 128.3 123.6 120.2 113.3 112.4 137.6 134.7 127.9 120.8 114.3 107.6 98.5 94.8 91.9 90.4 85 81.3 73.4 65.1 58.4 51.6 44.1 42.1 40 29.4 15.3 7.3 6 5.1 4.9 4.7 3.6 5.2 4.9 3.8 4.8 5 5.2 5.4 5.8 5.8 6.5 6.5 6.4 6.3 6.1 6.1 5.9 5.4 5.1 5 5 4.9 4.8 4.8 4.7 4.5 4.3 4.8 4.8 4.8 4.8 4.9 4.9 4.9 4.9 5 5 5 5.8 11 22.4 29.1 35.7 41.9 47.8 55.4 64.3 67.3 66 63.6 62 57.2 56.7 55.9 56.8 57.4 52.5 49.8 49.8 50.2 50.6 48.5 44.2 41.3 40.1 37.5 35.3
171.4 166.9 165 164.7 167.2 167.9 165.1 162.5 154.8 153 153.1 152.3 148.8 145.2 140.6 135.8 129.3 121.5 115.3 108.3 100 84 76.8 71.3 68.1 61.7 55.4 50.1 38.5 28.6 22.9 15.4 12.3 10.2 8.5 8 7.6 8.4 8.1 7.4 6.5 5.8 6 6.1 6.3 6.6 8 5.2 6.3 5.8 7.3 19.4 19.5 23.5 28.3 34 45.1 50.9 54.7 58.2 65.8 77.1 84.5 84.9 80.8 73.8 65.8 57.2 55.8 55.8 69.5 74.7 74.8 71.2 68 60 56.4 53.4 55.7 60.3 89.2 132.8 148.5 165.5 172.6 172.8 174.8 174.7 172.6 169.9 175.4 183.1 185.4 185.6 178.5 171.5 166.2 161.6 157.9 154.5 146.9 139.3 132.4 127.4 121.4 117.5 115.6 137.7 141.2 135.7 128.8 121.6 115.3 105.7 95.8 96.7 93.3 89.5 84.6 80.3 73.6 66.4 59.3 51.1 45 44 35.3 20.2 12.2 6.7 5.5 5.5 5.4 5.3 5.5 5.1 4.8 4.8 5 5.2 5.4 5.2 5.6 6.2 6.7 6.4 6.3 6.1 6 5.8 5.3 5.1 5.1 5 4.9 4.9 4.8 4.8 4.7 4.6 4.7 4.7 4.7 4.7 4.7 4.7 4.8 4.8 4.8 4.8 4.8 7.2 14.7 24.1 31 36.6 42.9 47.9 52.8 60.4 63.7 63.1 57.3 56.4 54.4 57 54.4 54.2 55.5 51.1 46.9 45.5 45.7 45.8 47.9 42.6 42.8 41 39.3 36.1
172.3 166.5 164.5 165.7 168.3 170.4 163.3 159.3 155.9 154.6 154.9 154.4 153 149.6 142.9 137.9 129.1 121.1 113 107.2 98.5 84.4 79.4 77.6 69.2 64 56.9 47.9 39.2 26.7 21.6 15.7 12.4 10.3 8.6 7.2 7.3 7.2 6.5 6 5.5 5.3 5.7 6.2 7 6.4 7 5.4 5.9 5.8 8.4 17.3 19.8 23.3 28.6 36 42.2 50 52.4 56.6 66.5 76 82.1 85.1 79 75.4 65.3 58.2 56.8 55.8 61.7 69.5 73.1 70.9 68.1 59.6 54.3 52.6 50.8 52.5 60.8 106.6 142.3 157.1 165.4 165.3 167.3 173.7 170.9 168.4 168.1 183.3 183.3 188.1 183.4 175.3 169.5 163.2 156.3 148.9 144.5 143.4 137.8 131.1 126.1 120 120.4 135.9 147.5 143.7 136.7 129.7 119.4 106.6 98.6 94.5 99.4 95.8 91.2 86.9 80.7 73.4 64.7 56.4 47.6 44.9 38.5 25 17.5 9.9 6.7 5.7 5.4 5.1 5.8 5.3 4.9 3.8 5.4 5.6 5.4 5.3 5 5.9 6.4 6.6 6.4 6.1 5.9 5.7 5.3 5.1 5.1 5 5 4.9 4.9 4.8 4.8 4.7 4.7 4.7 4.7 4.7 4.8 4.8 4.8 4.8 4.8 4.8 4.8 8.2 19.7 26.1 34.2 37.5 42.9 46.1 50.5 56.4 57.7 53 52.5 53.7 51.2 51 51.1 51.5 51.8 48.7 44.6 43.3 42.5 43.7 44.4 41.2 43.9 43.7 42.1 38.7
170 167.6 164.2 163.7 166.4 165.4 160.6 158.3 156.1 156.4 155.9 157.6 158 154.2 148.6 141.2 133.2 124.2 115.7 107.8 95.5 86.9 81.9 77.4 70.8 63.1 54.2 44.3 35.4 30.2 22 14.5 11.8 10.8 9.4 7.5 6.6 6.4 6.1 5.9 5.6 5.2 5.3 5.5 5.8 6 6.6 6.9 5 5.5 8.3 14.4 19.1 23.9 29 35.6 42.5 50.8 52.8 54.4 64.4 74 74.3 77.5 77.7 81.7 66.7 62.1 59.8 55.8 62.7 66.5 71.5 71.6 68 59.7 54.1 52 49.6 49.3 50.8 74.2 91.6 106.4 141.3 151.9 161.7 167 167.7 165 166.3 179 182.4 183.6 182 176.9 173.9 168.7 161.9 152.8 144.7 140.5 138.3 137 132.2 124.8 121.3 138.2 144.4 150.4 145.2 133.7 119.1 111.9 104.6 92.9 91.2 99.9 96.5 91.9 86.3 77.9 66.5 58.5 49.1 43.9 37.6 28.3 19.6 12.2 7.1 5.8 5.8 5.7 6 5.4 4.9 5.6 5.6 5.5 5.4 5.4 5.3 5.5 5.8 5.1 6.4 6.1 5.9 5.6 5.2 5.2 5.1 5.1 5 5 4.9 4.8 4.7 4.6 2.8 4.7 4.7 4.7 4.7 4.7 4.8 4.8 4.8 4.8 4.8 10.6 20.9 29.3 34.7 38.4 42.6 44.3 47.8 52.1 47.7 45.3 49.1 49.4 49.3 47.5 48.1 49.3 48.8 45.8 43.1 41.5 40.9 40.8 40.6 42 44.4 45.7 45.1 42.7
173.6 170.1 163.9 163.2 163.5 163.8 161.2 158.7 156.2 157.3 157.5 159.8 157.8 157.3 152.9 147.3 136.2 126 118.5 109.3 96.1 93.1 87.2 78.2 69.9 61.1 53 46.4 37 26.9 18 13.7 11.4 10.3 9.1 7.2 7.3 6.5 6.4 6.2 5.9 5.4 6.2 6.4 6.6 6.9 5.9 5.7 5.3 5.6 8.7 14.5 19.4 24.7 30.9 37.8 47.8 55.3 55.7 55.4 60.9 69.6 71.5 73.4 75.6 77.6 75.4 61.9 61.9 58.1 64.4 66.2 72.5 71.5 68.3 59.7 54.6 50.8 49.1 48.1 45.8 57.6 67.4 66.9 79.1 111.5 153.4 160.3 158.7 153.6 169.8 180.7 183.3 183.2 179.1 183.1 182.5 177.5 171.1 162.6 154 146.6 138.9 140.3 138.4 131.9 121.6 140.8 145.1 151.8 150.6 133.8 127.4 119.6 111.3 99.6 92.1 88.4 92.2 92.7 87.8 79.5 65.1 55.8 50.2 45.1 39.7 31 24.9 18.1 6 5.7 5.4 5.1 5.4 5 4.9 4.8 5.5 5.5 5.5 5.4 5.3 5.3 5.7 6.2 6.4 6.2 5.8 5.6 5.3 5.2 5.2 5.1 5.1 5 4.9 4.7 4.6 4.8 3.3 4.7 4.7 4.7 4.8 4.8 4.8 4.9 4.9 4.9 5 11.4 25.2 31.5 35.4 39 41.7 42.9 45.7 47.5 46 41.9 39.1 43.3 46.6 44.4 45 46.7 48.5 45.2 42.2 39 38.5 39.8 40.8 41.3 43 45.6 48.3 45.9
175.1 172.3 164.9 162.7 162.6 161.6 160.4 158.9 157.7 160.1 162.1 163.3 161.2 159.3 156.2 150.2 136.8 130.3 119.1 109.3 96.7 95.7 88.9 80.3 67.5 60.8 55.1 46.7 33.8 21.4 17.3 14 11.8 10.6 8.2 6.9 6.7 6.4 6.4 6.4 6.4 5.4 6 6.2 6.4 5.5 5.1 4.6 5.7 5.7 9.5 15.3 17.1 21.8 30.8 37.8 51.8 60.9 62.9 61.2 65.8 72.3 74.6 75.7 76.7 77.2 80 64.7 62.9 59.2 65.3 67 71.3 69.6 65.3 59.8 54.1 50 49.8 50.5 46.3 47.9 55.2 57.3 57.7 72 96.3 131.7 149.9 141.9 166.4 175.7 184.3 185.3 178.7 178.6 178.6 179.8 176.2 169.1 161.9 155.1 148.2 142.7 143.8 137 127.2 139.8 148 149.2 147.6 140.9 134.5 125.8 117.3 106.8 98.4 92.7 87 85.3 81.8 73.3 65 56.7 51.1 44.7 38.5 32 26.6 18.3 5.6 5.3 5.1 4.9 5.3 5.1 5 4.8 6.4 5.6 5.6 5.4 5.3 4 5.8 6.3 4.8 6.3 5.7 5.5 5.3 5.3 5.2 5.1 5 4.9 5 5.1 5 5 4.9 4.6 4.6 4.6 4.6 4.7 4.7 4.8 4.8 4.9 7.1 14.6 26.7 32.9 37.2 40.1 40.7 41.2 42.4 42.4 45.1 40 36.5 39.4 41.4 42.2 42.6 46.1 46.5 44.1 42.6 38.3 37.5 37.6 40.8 40.5 41.3 44.3 46.9 45.5
176.9 174 166.9 161.7 160.6 159.4 158 156.6 157.5 162.4 167.1 168.8 164.4 159.8 155.8 147.7 138.7 128.7 119 108.4 98 95.7 88.9 76.3 67.9 59.6 53.1 41.7 31.4 25.2 18.1 17.1 12.4 9.2 7.4 6.9 6.9 7.1 7.8 7.8 7.2 4.6 5.7 5.9 5.9 5.2 4.7 5.4 6.6 6.1 8.9 16.2 16.5 20 28.4 34.5 54 64.3 67.8 66.9 67.3 74.3 82.4 80.9 76.5 78.9 76.8 73.5 64 63.5 67.4 68.6 68.5 67.5 62.4 57 52.5 48.2 49.3 47.5 42 43.2 50.9 54.2 55.9 59.3 68 92.8 127.1 137.2 160.5 168.4 184 185.6 181.7 178.8 175.5 174.7 174.3 175.8 168.2 163.1 158.3 151 140.5 136.3 131.4 132.7 148.2 153.2 155.1 149.1 140.2 129.7 122.6 114.2 106 100.3 91.1 85.2 79 70.6 63.9 46.2 33.7 27.7 25.3 18.5 14.1 7.6 5.3 5.1 4.9 4.7 5.2 5.6 5.7 5.6 5.4 5.6 5.5 5.4 5.4 5.3 5.5 6.1 6.7 6.5 5.8 5.4 5.4 5.3 5.2 5.3 5.2 5.2 5.1 5 5 4.9 4.8 4.7 4.5 4.5 4.5 4.5 4.6 4.6 4.7 4.8 9.8 19.8 31.2 35 38 39.7 39 40.1 39.8 41 43.3 39.5 36 33.6 41 40.5 43.5 46.7 44.6 42.4 43.4 41.4 39.8 38.5 39.5 39.2 40.6 43.5 45.5 44.1
177.4 174.2 169.8 163 159.7 158.5 156.4 156.3 159 164.5 172.7 172.3 164.9 156.7 154.1 147.1 137.5 126.5 119.4 107.9 99 95.5 88.3 79.1 67.4 55.4 49 41.3 32.7 24.2 18.1 13 9.8 8.9 8.3 8.2 7.9 8.3 7.9 7.8 7.2 6.9 5.8 5.6 5.3 5 4.6 5 7.6 5.7 9.6 16.7 19.3 20.1 24 33.6 55.8 68.1 73.1 72.3 72.5 77.6 82.5 83 76.6 82 79.9 80.7 69.1 66.9 71.1 73.1 68.8 60.1 54.2 52.3 48.7 45.8 46.4 44.8 39.9 39.3 46.7 50.2 53.3 53.8 59.1 74.7 105.4 130.7 151.4 159.8 173.4 181.7 182.2 184.2 179.5 176.3 175.4 172.4 167.1 170.1 163.3 159 151.3 139.6 136.8 128.4 140.6 152.3 158.9 156.1 147.1 137.4 128.5 122.1 111.5 101.8 93.6 89.5 77.4 68.7 60.2 52.1 36.3 25.9 14.9 7.6 5.6 5.8 5.5 5.3 4.9 4.6 3.5 5.4 5.1 5 4.9 6.4 5.3 5.2 5.1 5.1 5.4 6.1 6.9 4.7 6.2 5.4 5.4 5.4 5.3 5.2 5.2 5.1 5.1 5 4.9 4.9 4.7 4.9 4.7 4.5 4.4 4.4 4.4 4.5 4.7 4.8 12.7 24.7 32.3 36.5 39 38.8 37.8 38.1 39 39.7 41.4 38.5 34.8 32 38 41.5 44.1 46.2 43 41.6 41.9 42.8 44.3 39 39.8 39.9 40.4 42.7 43.5 41.7
176.4 172.8 169.3 163.8 160.6 157.7 155.1 154.6 156.2 161.1 170.9 166.3 158.5 154.5 150.7 145.8 138.1 125.8 118.1 106.2 98.5 94.1 90.9 80.2 63.2 51.9 45.6 39.1 32.3 23.3 16.9 12.2 10.8 9.2 9.2 9.3 9.6 15.2 12.6 8.8 9.1 7.5 6.5 7.2 6.3 5.1 4.9 4.8 7.2 6.3 9.8 17.8 22.8 22.5 25.6 32.6 56.9 71.8 80.6 81.1 79.6 85.8 88.1 87.9 77 79.8 83.3 79.6 74.6 74.2 75.1 71.8 66.5 58.9 53.5 48.1 46.6 45.4 44.7 40.7 37.2 38.2 44.8 47.8 50.2 51.6 55.1 66.7 92.8 131.9 146 153.6 165.2 179.8 181.9 187.8 183 178.7 175 176.6 171.9 167.8 170.7 155.8 154.9 141.6 134.6 127.2 131 148.8 157 157.6 150 141.1 128.1 121.3 110.5 101.6 95.5 89.2 78.7 75.8 68.1 56.4 40.4 24.7 11.9 5.9 5.5 5.4 5.3 5.1 4.9 4.8 4.5 5.2 5.1 5 4.8 4.8 5.1 5.1 5.1 5.2 5.3 6.1 6.9 6.3 5.7 5.5 5.4 5.3 5.2 5.2 5.1 5.1 5 4.9 4.9 4.8 4.7 5.2 5 4.7 4.4 4.3 4.4 4.5 4.6 4.7 13.9 26.7 34 38 38.3 37.4 36.7 37.1 39.7 38.2 38.7 37.3 34 31.9 34.8 38.3 43.8 44.7 41.4 40.2 40.1 42.2 44.7 38.3 43.7 40.7 40.8 41 38.4 38.6
175.8 172.1 168.9 165.2 162.3 158.8 156 153.1 154.8 158.1 160.5 159.2 155.5 149.9 144.7 140.4 131.9 124.1 114.5 103.5 97.4 92.2 90.2 79.3 64.8 55.3 45.2 39 31.7 23.5 16.9 14.1 12.5 10.9 9.5 9.6 11 15.2 11.4 7.6 6.7 6.3 5.6 8.9 6.1 4.8 4.7 4.7 10.8 6.7 10.2 16.2 22.6 25.6 27.3 33.6 56.6 72.8 85.4 88.7 88.4 93.9 95.3 94.1 82.4 79.7 77.9 75.6 85.3 82.3 81.1 79 66.3 55.8 43.5 38.9 41.4 43.4 42.4 39.8 36.9 37 41.5 44.7 47.7 49.3 50.8 61.4 81.1 119.4 140.7 149.3 159.7 173.7 184.2 187.9 184.1 182.2 180 175.5 177 172.3 166.7 160.6 154.6 147.6 135.7 129.9 125.9 133.4 144 149.4 141.3 135.1 125.5 119 107.9 104.2 101.1 96.8 90.1 83.8 73.9 59.4 44 25.9 11.3 6.1 5.4 5.2 5 4.9 4.8 4.7 4.7 4.9 4.8 4.7 4.8 4.8 5.3 5.1 5.2 5.2 4.7 5.9 7 6.1 5.9 5.8 5.4 5.2 5.2 5.1 5.1 5 5 4.9 4.8 4.8 4.9 5.5 5.2 4.9 4.5 4.4 4.5 4.5 4.6 6.9 18.6 30.4 35.6 37.6 36.5 35.6 35.9 35.2 37.2 36.7 35.9 36.4 34.4 32.4 31.9 35.1 42.2 42.6 38.9 38.4 38.1 38.8 39.7 38.3 40.5 40.9 41 41.8 40.2 38.5
175.7 173.1 170.6 165.8 162.4 158.1 155.9 153.5 153.1 158.1 159.3 155.6 149 139.5 133.5 132.7 126.9 118.5 109.9 100.6 95.3 89.9 84.6 74 65.6 53 44 39.4 35.4 26.9 19.4 15.1 13.7 12.3 10.9 10.3 13.3 8.5 7.9 6.8 6.9 6.3 5.7 9.4 5 4.5 5.1 5.6 8.7 7.3 9.8 16.1 22.9 26.1 30.7 37.4 59.9 72.7 85.6 94.9 96.7 100.2 102.1 98.2 84.2 80.7 82.4 78.2 83.1 86.1 88 88 69.1 47.8 40.1 36.4 38.2 39.8 40.8 38.2 37.6 37.1 38.5 41.7 45.1 47.5 48.7 52.3 71.2 105.3 136.5 147.2 156.9 170.1 185.8 186.3 184.4 184.6 183.9 179 175.6 171.2 170.2 162.6 153.1 143.8 137.6 131.1 125.2 124.2 125.3 129.4 127.7 123.3 114.2 114.4 114.6 111 106.3 105.4 101.4 92.2 79.8 63.4 48.4 27.1 11.4 6.2 5.4 5.1 5 4.9 4.9 4.8 4.7 4.7 4.7 4.7 4.8 4.7 4.7 5.1 5.2 5.2 5.3 5.8 6.6 4.8 6.2 6 5.6 5.1 5.1 5.1 5 5 4.9 4.9 4.9 5 5.1 4.2 5.1 4.7 4.6 4.5 4.5 4.7 4.7 9.1 25.1 33 36.5 35.6 35 34.1 34.4 33.3 32.5 33.7 34.3 32.3 32.7 31.2 29.9 33 39.1 40.2 36.9 36.4 35.3 37.3 36 38.9 42.8 42.3 41 41.6 42.2 41.6
176.8 174.3 171.9 166.7 163.1 163.8 160.8 157.5 151.3 158.7 157.8 147.9 138.8 132.6 125.5 120.4 115.1 111.2 102.9 101.7 93.2 84.1 80.4 71.6 60.7 48.4 43.2 38.9 31.1 24.4 22.2 17 14.7 13.1 11.2 10.5 10.8 8.1 9 6.3 6.2 6 5.2 7.1 4.9 5.3 5.7 6.1 6.3 7.4 10.5 19.4 24.3 27.5 33.1 41.4 62.3 75.3 86.2 94.8 104.2 105.1 107.8 104.3 94.1 85.9 84.5 82.4 80.3 87.3 95.4 91.1 62.7 49.4 44.3 35.9 35.8 38.1 39.6 38 35.9 37.1 36 38.8 42.4 45.3 47.7 48 69.7 98 127.1 143.4 154.4 167.5 183.7 188.9 190.5 186.7 183.4 178.8 175.1 171.4 169 164 156 148.3 141.1 135.5 125.1 125.8 125.7 124.6 126.5 124.4 121.3 121.6 122.2 117.5 109.7 103.7 106.5 99.1 87.8 65.7 50.7 27.8 11.5 6.2 5.1 5.1 5.1 5 4.9 4.8 4.6 4.9 4.7 4.8 4.7 4.8 4.9 5.2 5.2 5.3 5.3 5.6 6.3 6.9 5.4 6.3 5.7 5.5 5 4.9 5 4.9 5 5.1 5.1 5.2 5.2 3.6 4.9 4.8 4.7 4.6 4.5 4.7 4.9 13.2 27.5 33.2 34.4 33.7 33.5 32.6 32.5 31.6 31 30.8 30.7 30.4 30.4 30.2 28.9 30.5 36.9 38.2 34.7 34.2 32.5 34.2 35.9 36.4 38.5 39.3 40.3 41.2 41.8 41.3
177 175 171.8 169.5 170.7 169.3 168.3 163.3 149.4 158.2 151.2 141.1 132 121.3 115.2 108.7 100.5 95.2 94.7 98.8 91.3 83.3 74.7 64.2 57.9 50.1 44.7 36.9 31.6 25.2 20.1 17.4 15.1 13.1 11 10.8 9 7.5 7.1 6.4 5.4 5.1 5.1 6.5 6 7.1 5.1 5.3 5.3 8.8 12.7 20.2 27.2 28.4 36.1 47.4 66.5 78 85.3 95 104.5 107.9 110 105.6 97.5 92 87.3 83.7 80.2 82.5 91 91.4 67.6 43.2 43.6 34.9 33.4 36.9 37.7 37.5 35.3 35.2 34.8 35.7 39.7 42.4 45.1 47.2 70.3 95 127.2 145.1 153 163.4 179.9 190.8 195.7 190.7 187 181.4 177.8 174.7 173.6 169.9 161.8 152.3 143.8 137.5 130.1 127.1 129 129.8 133.5 128.9 125 126.9 124.8 118.7 112.7 105.9 102.4 101.4 90 66.2 49.1 31.3 8.4 5.3 5 5.1 5.1 5 4.9 4.8 4.9 5.2 4.3 4.8 4.8 4.8 4.7 5 5.2 5.5 5.6 5.9 6.3 6.7 6.6 6.5 5.8 5.5 5 4.8 4.8 4.9 4.9 5 5.2 5.2 5.1 5.4 5.1 4.9 4.8 4.7 4.6 4.6 5.6 21.1 30 32.5 32.7 31.8 31.6 31.2 30.6 30 29.6 28.3 28.8 28 27.5 27.3 27.8 28.3 33.4 33.8 32.5 32.4 30.5 33.1 33.8 33.2 34.1 37.5 38.6 39.9 42.3 43.1
176.9 174.8 173.6 173.5 174.4 174.5 173.2 168.4 155.1 146.5 141.5 132.8 124.4 132.6 131.7 124.1 114.4 103.8 89.3 87 80.9 74.7 65.7 59.4 54.3 49.6 42.6 36.1 26.3 24.7 21 17.9 14.5 12.9 10.8 11 8 7 6.5 6.4 6.6 4.7 4.9 4 3.5 5.6 4.9 4.9 5.3 14.8 19.2 22 24.8 28 29.9 51.2 69 79.9 86.5 92.7 103.2 111 113.9 103.7 94.2 89.2 85.9 87.5 79.4 80.5 83.3 86.7 75.9 45.4 40.8 33.6 32.6 33.6 37.2 37.4 35.5 34.1 34.1 35.4 37.4 39 41.6 47 65 93.1 127.7 145.9 153.8 161.8 174.4 192 196.9 194.8 190.1 184.9 181 178.4 178.8 175.4 166.4 155.6 147.4 142.4 133.3 129 131.7 135.7 135.9 133.3 128.2 128.7 126.5 121.7 115.6 109.4 102.3 95.4 88.8 73.6 54 32 5.9 5 5 5 5.1 5 4.9 5 5.1 5.1 5.2 4.6 4.6 4.4 4.3 4.7 5.7 5.9 6.1 6.3 6.6 4.8 6.3 6.2 5.7 5.3 5.1 4.9 4.9 4.9 4.9 5 5 5.1 5.1 5 5.1 5 4.9 4.8 4.7 4.6 8.3 22.8 28.6 31.2 31.5 30.6 29.8 29 28.4 27.8 26.8 27.1 26.5 26.5 24.5 26.4 26.4 26.8 31.3 31.5 30.3 30.4 30.2 31.6 31.3 30.5 30.1 33.9 38.2 38.8 40.7 43.2
176.9 176.3 176.7 177.3 178.3 178.8 178.3 172.7 166.3 159.4 150.2 148 145.7 143.2 137.2 134.1 118.5 102.9 97.6 87.2 76.1 70.8 62 54.6 50.6 46.9 42.3 37.6 33 29.5 19.7 17.9 12.4 11.4 10.9 9 7.5 6.6 6 6 9 7.1 4.8 5 5.3 5.8 5.6 5.2 7.9 18.7 22.9 23.8 26.4 29.7 30.2 51.9 71.9 83.2 89.8 95.3 104.1 110.4 116.8 107.1 96.7 90 85.8 84.9 79.7 80.4 80.5 83.1 79.1 51.1 38.9 33.4 32.2 32.2 39.7 38.6 36.1 33.7 34.2 35.2 35.9 35.1 38.2 44.9 56.7 90.8 123.5 143.2 154.6 161.2 170.9 183.7 193.8 191.5 192.8 187.7 184 183 184.7 178.9 169.6 159.4 152.9 147.8 136.4 131.5 135.4 142.8 142.2 137.4 131.5 127.9 128.1 123.7 118.5 113.4 106.1 91.5 85.6 81.7 62 24.8 9 4.9 4.9 5 5 5 5 5.1 5.1 5.1 5.1 3.7 4 3.8 3.9 4 6.1 6.4 6.5 6.7 6.7 6.5 5.9 5.7 5.6 5.2 5.2 5 5 4.9 4.9 4.9 4.9 5 5.2 5.2 5.4 5.3 5.2 5.1 5 4.9 12.7 20.9 26.1 27.8 27.7 26.5 25.3 24.1 23.2 22.5 21.9 24.4 24.1 22.2 20.7 18.8 19.6 24.5 28.9 29.5 27.9 26.1 28.9 26.5 28 27.4 28.1 30.8 35.7 38.6 40.6 41.9
179.1 179.1 180.3 181.2 182.4 183.9 182.9 177 170.2 165 159 156.9 153.5 149.1 147.4 140 118.7 102.6 96.8 90.5 81.3 75.9 69.3 65 58.9 50.3 47.5 43.9 34.9 24.1 18.5 13.9 13.7 10.9 10.2 8.2 7 6.8 6.9 5.5 5.5 4.9 4.5 5.3 5.6 5.7 5.7 5.3 10.6 19.9 24.9 24.5 26.6 30.1 31.3 51.1 74.6 88.8 93.7 99.4 105.5 113.6 114.7 110.9 100.8 92.6 89.1 88.5 80.3 80.1 79.4 80.1 79.9 53.9 44.4 34.2 32.3 33.3 37.5 38.4 36.6 35 33.5 35.8 35.2 32.1 34.5 41.2 52.1 86.5 119 142 155.2 162.9 171.5 173.3 181.1 186.7 191.6 187.5 186.8 186.4 185.7 182.4 172.1 164.2 154.8 152.2 139.4 135 138.9 149.9 147.8 144.2 137.2 132 130.4 126.9 121.9 119.2 108 94.3 82.8 74 58.8 17.2 5.2 4.7 4.8 4.8 4.9 5 5 5.1 5.1 5.1 5.1 4.7 5.1 5.4 5.5 5.8 6.8 7.2 7.3 6.3 5.8 6.1 5.5 5.3 5.3 5.1 5.3 5.1 4.7 3.8 4.1 4.8 4.9 5 4.9 4.9 4.9 4.9 4.9 4.9 4.9 4.8 11.7 19.2 24.5 24.2 23.9 22.7 21.8 21.4 20.3 17 15.1 14.8 16 14.8 14.6 14.7 15.6 19.3 25.1 28 22.6 27.6 23.7 24 26.3 26.8 26.1 28.3 32.8 37.2 40.9 39.4
181.8 181.5 183.4 185.3 186.9 188.5 189.2 181.4 174 169.5 165.4 162.8 160.1 155.4 152 139.8 120.1 105.9 97.2 91.1 84.3 77.4 72.6 68.4 58.1 48.1 44.2 39.9 35.6 28.2 21.5 15.9 13.7 11 9.5 8.4 7.3 6.3 5.7 5.1 4.7 4.5 5.4 5.7 5.8 5.7 5.4 6.5 13.3 21.4 24.6 24.7 27.1 29.1 30.6 46.9 72.7 90.1 95.5 99.7 106.5 116.4 114.8 115.4 104.9 94.6 91.7 88.9 85.3 81.5 81.1 79.6 75.5 66.2 40.7 35.4 32.9 34 37.5 37.2 38.1 34.7 34.6 36.4 34 31.7 31.2 36.7 47 73.5 109 135.6 153.4 162.8 171.7 174.3 178.7 181 182.8 184.6 188 187.9 189.3 184.6 175.4 164.5 155.2 151.1 144.9 140.3 146.4 155 158.8 154.2 146.6 139.6 133.1 130.8 129.4 124.9 112.6 99.4 83.8 54.5 24.7 8.3 5.1 4.7 4.6 4.7 4.8 5.4 5.2 5 5.1 5.2 5.3 5 5.3 5.6 5.7 5.8 6.5 7.3 4.4 5.7 5.2 3.7 3.2 5.3 5.3 4.9 4.7 4.7 4.6 4.5 4.6 4.8 4.9 4.9 4.8 4.8 4.4 4.4 4.4 4.4 4.6 4.9 9.5 15.7 19.4 20.8 20.4 20 19.5 19.1 17.9 14.3 12.2 11.8 12.3 11.6 11.5 11.7 12.6 14.2 16.6 23.2 27.6 23.4 21.9 22.8 24.4 26.1 24.1 26.5 30.5 35.2 36.9 36.7
184.6 186.2 188.2 190 192 195.7 193.7 184.3 177.3 173.3 171.1 169.5 166.6 157.4 150.8 134.4 118.2 109.3 98.9 90.8 83.9 77.6 72.8 63.4 56 46.7 43.6 38.2 35.1 32.2 21.2 15.2 12.6 10.5 9.4 8.4 7.5 6.5 6.1 5.5 4.8 4.2 5.3 7.5 8.1 6.2 5.1 9.3 14.3 21.5 23.5 23.2 26.5 28.2 30.4 41.6 69.8 84.1 91.8 98.1 106 113.6 116.2 119.5 109.3 98.8 90.9 89.3 88.2 84.6 85.9 86.3 80.4 76.7 46.7 35 32.6 36.7 38.4 39.5 39.6 34.9 34.7 36 33.2 31.6 31.4 34.1 42.4 65.1 98.3 129.7 144.9 157.4 169.8 175.1 178.9 182.3 179.9 179.4 186.8 186.3 188.3 184.6 177.4 168.9 162.1 157.6 152.1 145.9 148.7 161.8 165.9 161.5 156.7 148.8 143.5 139 135.3 130.4 118.9 94.4 54.8 13.2 7.6 7 4.9 4.6 4.5 4.6 5.9 5.6 5.3 5.1 5 5.1 4.3 5.5 5.5 5.9 6 6 4.8 6.6 4.3 5.6 5.8 4.4 5 4.8 4.9 4.8 4.7 4.7 4.6 4.6 4.7 4.8 4.9 4.9 4.8 4.7 4 4 4.1 4.3 4.5 4.7 6.3 9.6 12.6 14.3 14.4 14.4 14.4 14.8 13.3 11.5 11.2 12.7 12.4 10.5 11.1 11.2 11 10.8 20.9 25.5 26.5 22 21.2 21.5 22.9 24.3 24 25 27.5 29.7 32 31.7
187.7 189.6 191.5 195.2 198.6 200.2 196.4 188.5 182.2 178.9 176.3 171.9 165.9 158.2 148.1 134.7 121.9 112 101.4 91.3 84.5 77.2 68.6 62.8 53 46.5 42.8 35.9 34.9 28.8 23.4 15.1 12 10.2 9.6 8.6 7.2 6.3 6.3 5.9 4.8 4.7 3.1 6.4 6.5 5.6 6.6 10.3 14.6 20.6 20.2 21.2 24.5 26.9 30.4 36.9 67.3 81.7 91.9 98.6 105.1 109.6 117.8 113.9 112.8 104.2 94.4 91.2 85.8 87.8 91.2 90.3 86.6 81.3 60.5 34 33.1 39.2 41 41.7 37.2 35.3 33.7 35.2 33.1 30.9 30.1 33.8 39.7 57.3 86.9 115.3 132.8 149.7 167 178.5 182.4 186.4 184 179.6 185.9 189.9 189.6 187.4 180.4 172.1 166.3 161 159.5 152.5 154.9 167.2 171.2 166 159.5 155.9 152.9 149 138.2 132.8 119.4 62.1 25.5 9.9 6.3 5 4.6 4.4 4.4 6.3 6 5.8 5.5 5.2 5 5 5.3 5.5 5.7 6.1 6.4 4.2 6.4 7.4 6.9 6.3 6.1 4.5 4.6 4.2 4.4 4.5 4.7 4.7 4.6 4.7 4.7 4.8 4.9 4.8 4.7 4.6 3.4 3.8 3.9 4.1 4.2 4.4 4.9 7.5 10.5 10.4 10.4 11.9 11 10 9.8 10.2 10.6 13.5 12.9 10.9 11.7 11.7 16.6 12 14.7 22.2 22.5 19 19.5 20.1 20.4 22.6 24.3 20.9 23 25.6 29.1 25.9
190.2 192.1 194.4 198.4 200.1 200.4 198.3 193.1 187.6 182.9 178.4 170.9 163.7 153.1 144.7 134.5 120.6 112.6 100.7 91.6 83.1 75.2 68.7 60.6 49.5 45.1 38.9 34.6 32.1 28.7 23.6 19.2 15.4 10.8 9.5 8.5 6.7 6 6 6 5.3 5.6 5 4.9 4.8 4.8 5.4 10.6 14.8 17.3 16.7 20.6 23.3 26.9 33 33.4 65.6 82.5 89.3 98.5 105 108.1 115.5 114.9 111.9 107.6 97.5 87.1 89.3 86.2 92.6 91.9 89.7 86.7 62.9 34.1 34.2 40.2 40.9 41.7 34.9 34.1 34.6 33.6 31.7 30.6 29.7 32.7 37.7 47.1 74.6 104.9 134.9 149.8 164.7 176.8 185.7 190.1 186.1 184.7 191.2 193.4 188.4 187.2 180.9 174.9 169.6 164.1 163.6 155.7 159.1 171.5 175.1 169.3 164.3 161.7 156.1 146.2 138.9 131.5 101.5 39.1 17.4 7.9 5.6 4.6 4.8 6 6.4 6.5 6.2 5.9 5.7 5.4 5.1 4.9 4.7 3.3 5.7 5.8 5.6 6 6.7 7.7 6.5 6.1 5.7 5.7 7.1 7 6.7 6.8 6 6.2 6.2 6.3 6.4 6.4 6.5 6.2 5.2 4.5 3.8 3.8 3.7 3.9 4 4.2 4.6 5.1 6.7 9.4 8.4 9.9 9 8.4 8.9 9.1 9.8 12.1 11.2 11.8 13.5 14 10.2 8.1 12.4 19.1 17.8 15.4 16.7 18 18.5 24.9 23.9 19.7 18.4 20.8 18.1 19.5
192.4 194.9 197.6 199.7 199.9 199.7 199.3 195.5 190.9 185 178 167.6 158.4 150.1 141.6 133.2 121.5 114.1 103.3 92.1 83.6 74.7 68 59.9 53.2 45.4 39.7 34.4 30.7 27.5 23.2 18.7 15.4 11.5 9.4 8.2 6.7 6 5.5 5.5 4.9 5.1 4.6 4.6 4.5 4.6 4.8 12 13.9 11.9 14.3 17.3 21.9 29.4 33.6 33.4 61.3 81.1 87.9 96.5 101.4 106.8 116.2 117 112.1 109.5 100.3 90.5 89 85.9 90.7 90.3 85 87.7 66.6 34.3 33.6 40.4 40.6 40.2 34.5 35 35.7 33.3 31.7 30.1 28.8 31.2 38 43.6 64.4 94.3 133.8 152.7 163.2 175.7 187.3 192.6 189.8 188.1 191.2 194.1 191.1 188.3 183.6 177.7 170.7 165.8 167.7 162.8 163.1 175.5 178.6 174 168.5 163.5 154.6 147.2 141.1 123.8 72.4 29.9 14.2 6.8 4.8 4.7 4.6 6.7 4.7 4.9 5.1 5.2 5.4 5.5 5.2 3.2 5.1 5.3 5.6 5.8 5.7 5.9 6.8 6 5.7 7.4 7.7 7 4.1 4.2 4.3 4.3 4.6 4.8 4.6 4.7 4.7 4.7 4.8 4.6 4.4 4.3 4.3 4.1 3.7 4.1 5.1 6 6.5 6.8 6.5 6.3 6.5 7 7.5 8.3 9.3 9.7 9.9 9.9 9.9 10.1 9.8 9.3 8.1 8.6 9.7 13.9 14.1 12.2 12.5 15.2 15.6 22.4 23.9 16.7 11.4 8.2 7.6 8.2
193.7 195.8 199.1 200 199.7 198.9 198.7 198.4 193.4 186.4 175.8 164.6 157.2 148 138.9 129.7 119.9 111.4 103.5 94.1 83.5 75.6 67.7 60.1 54 46.5 41.1 37.6 33 26.7 22.4 18.8 14 10.9 9.1 7.9 7 6.3 5.6 5 4.9 4.3 4.4 4.4 4.6 4.7 4.8 7.7 10.7 10.7 13.5 15.3 18.1 28.4 34.3 35 61.6 79.9 88.8 93.9 100.3 106.9 114.4 119.3 112.1 107.5 101.7 94.5 87 86.5 90.4 87.6 80.8 83.1 63.7 35.3 33.1 38.7 39.8 38 34.7 35.6 36.7 34.2 31.8 30.2 29 30 38 45.1 52.7 82.3 121 152 160.5 172.1 187.9 194.1 193.1 191.5 191 192.2 193.5 191.3 186.2 178.8 171.9 168.3 166.6 169.8 163.4 175.7 181.9 177.6 170.7 164.8 155.8 150.9 140.1 103 44.2 18.4 8 5.6 4.8 4.7 4.7 4.8 4.7 4.7 4.9 5 5 5.1 5.2 4.9 5.1 5.3 5.5 5.7 5.8 5.9 7.3 4.2 7.7 4.8 4.6 4.8 4.4 4.5 4.5 4.5 4.5 4.6 4.6 4.7 4.7 4.8 5 5 4.5 4.4 4.4 4.3 4.4 4.5 4.6 4.7 4.7 4.9 5.1 4.8 5.2 7.9 8.8 8.2 9 10 10.2 9.6 9 8.1 6.9 7.3 7.5 7.7 8.4 10 9 8.7 8.8 9.6 10.2 8.1 8.3 7.5 8.7 8.4 10.9 7.6
195.7 199.8 203.4 203 200.8 200.2 201.9 200.7 193.4 185.2 175 163.8 156.8 147.2 138.8 128 118.3 110.1 102.4 93.8 84.2 75.7 69.8 63.7 53.6 47.9 42.3 36.1 31.8 26.4 20.7 16.6 13.2 11.5 10.2 7.9 7.3 6.6 5.9 5.2 4.6 4.3 4.4 4.5 4.7 4.8 4.9 5.4 8.8 9.1 10.3 14.8 16 18.9 35.3 36.4 65.5 80.5 91.6 97.4 102 107.9 115.6 120.8 112.4 104.7 99.5 99.5 90.5 86 89.6 85.1 79.1 76 61.7 37.5 32.8 35.3 34.4 34 33.2 34.7 36.5 35 31.8 30.7 29.9 29.7 35.3 45.1 52.6 68.2 106 146 159.2 168.1 183.1 191.9 191.2 193.4 192.8 192.2 195.3 194.3 190.1 182.6 176.6 170.8 167 173.7 164.6 169.5 178.9 181.1 175.5 167.8 160 152.6 105.9 48.4 25.5 14.7 7.6 5 4.8 4.8 4.8 4.6 4.7 4.4 4.7 4.9 5.1 5.2 5.2 4.9 5.1 5.3 5.5 5.7 6.4 7.4 6.9 -2.8 5.6 5.2 4.7 4.7 4.6 4.6 4.6 4.6 4.6 4.6 4.6 4.7 4.9 5 5.1 5.3 5.3 4.5 4.4 4.4 4.5 4.6 4.6 4.7 4.8 4.8 5 4.8 6.2 6.6 6.2 6.4 8.8 10 9.1 8.5 8 4.5 6.4 6.9 7.1 6.8 7.4 7.5 7.1 7 7.7 9.3 8.3 7.7 7.8 6.5 9.3 10.7 16.5 13.5
197.7 202.1 208.2 208.1 205.7 207.6 208 204.2 197.6 186.4 173 165.2 156.6 146.9 138.2 128.1 118 109.3 102.1 93.8 87.4 81.8 74.2 65.8 58 51.5 42.2 34.5 31 25.5 19.5 15.4 12.4 10.4 9.2 7.4 6.6 6 5.4 4.7 4.3 4 4.3 4.6 4.8 4.9 5.1 6.2 6.9 7.8 8.7 11.6 16.1 17.9 28 37.5 67.2 81.5 93 101.9 103.7 109.6 116.2 120.7 114.3 106.8 96.7 101.3 94.7 84.9 88.5 84.1 78 68.4 57.2 39 34 34.1 32.7 32.1 32 34 37.1 35.2 32.1 30.6 30.3 30 30.9 40.6 50.4 62.4 89.9 131.7 155.1 164.8 176.5 186.1 189.5 194.2 195.6 194.3 197.7 198.1 194.8 185.8 177.8 171.3 165.6 167.5 169.3 166.6 175.6 180.2 179.2 163.4 108 63.6 44.1 30.6 25.6 16.2 9.1 5.5 5 4.9 4.9 4.4 4.5 4.4 4.4 4.6 4.8 5.1 3.3 5 5.2 5.3 6.1 7.3 6.3 6.3 -2.8 -2.8 5.9 5.3 4.8 5 5.1 5.1 5.2 5 4.9 4.8 4.7 4.7 4.8 5.1 5.3 5.4 5.6 5 4.4 4.5 4.6 4.6 4.7 4.7 4.8 4.8 4.8 6.3 9 8 6.6 6.1 7.1 7.8 7.2 4.1 7.6 7.4 7.2 4.1 6.8 6.2 4.8 6.5 7.4 7.9 8.3 5.1 5.1 5.5 5.4 9.1 13.7 16.3 19.2 21
199.6 204.6 208.7 215 216.2 214.6 211.9 211 204 188.3 174.9 165.6 156.6 148.9 138.7 128.2 116.5 109.2 105.9 99.6 92.9 86 78.2 69.8 62.3 54.3 44 38.3 31.4 27.3 20.5 14 10.7 9.6 8.2 7 6 5.7 5.6 4.8 3.5 4 4.2 4.7 4.9 5 6 6.4 6.7 7.1 10.2 10.2 15.8 20.5 21.8 41.1 64.5 82.5 93.8 103.2 104.8 111.1 118.1 123.3 115.8 108.8 99.1 98.9 97.6 86.2 88.1 85.2 78.1 71.4 53.7 39.5 35.3 33.3 32.1 31.6 32 35.1 38.2 35.6 33.9 32.8 31.7 30.8 31 36.8 46.9 59.4 75 118.7 152.8 162.9 172.8 183.1 190.4 194.7 196.1 194.5 198.4 198.9 195.8 185.1 177.7 169.2 161.7 163.5 172.2 166.7 174.3 180.9 170.7 110.2 54.4 43.7 39.9 32.5 22.9 13.1 6.8 5.5 5.9 5.2 5 4.4 4.4 4.4 4.2 4.4 4.6 5.1 4.8 5.1 5.3 7.3 5.4 6.8 7.4 7.1 -2.8 -2.8 5.8 5.3 4.8 5.6 5.5 5.3 5.2 5.1 5 4.9 4.8 4.8 4.7 4.9 5.1 5.3 5.5 5.2 4.4 4.5 4.6 4.7 4.7 4.8 4.8 4.8 5.2 5.8 9.4 8.1 6.4 7.3 8.3 7.6 3.9 7.6 7.4 7.3 7.2 7.2 6.9 6.5 6.9 7.6 7.7 8.2 8.4 9.1 10.1 11.4 14.4 16.1 17.8 19.5 21.3 22.1
201.7 205.6 214.1 218.6 216.7 214.2 212.9 213.3 208.1 191.5 177.8 166.6 159.6 152.4 139 128.3 122.4 117.8 111.2 104.6 97.9 90.4 82.3 74.1 65.9 55.9 47.3 39.4 32.2 28.7 21.2 14.3 11.9 10 7.7 6.8 5.9 5 4.2 3.9 4.6 4.6 4.7 4.7 5.1 5.5 5.8 6.2 6.5 6.8 9.3 10.1 14.7 18.3 22.8 40 63.7 81.8 94.4 102 104.7 111.9 119.1 123.9 118.1 110.7 102.6 97.4 94.7 88.4 88.9 88.1 80.4 69.5 46.8 41.5 37.2 34.3 32.1 31.5 33.3 35.8 38.3 38.6 36.3 33.9 32.8 31.7 31.1 36.3 39.9 52.3 67.8 105.7 145 160.3 172.3 184 191.6 193.7 194.3 191.5 194.4 195.8 193.2 185.9 178 170.7 163.4 159.7 170.6 168.8 170.1 175.4 140 78.1 53.1 45.7 39.2 28.2 15.4 7.2 6.5 5.3 4.5 4.3 5.4 4.5 4.2 4.2 4.1 4.2 4.4 5.4 5.4 7.5 5.1 5.4 5.8 6.1 6.2 6.3 -2.8 6.4 5.8 5.3 4.8 5.6 5.5 5.3 5.3 5.2 5.1 5 4.9 4.9 4.8 4.8 5 5.2 5.4 4.7 4.3 4.5 4.7 4.7 4.8 4.8 4.8 5.1 5.1 5.5 7.6 7.2 7.5 7.4 7.8 3.8 7.4 7.3 7.3 7.2 7.2 7.2 7.1 7.1 7 7.6 7.9 8.3 8.7 9.4 10 12.5 15.2 17 18.9 20.1 21.3 22.4
201.5 206.8 214.3 217.1 213.5 212.2 214.8 215.2 207.7 189 177.7 167 161.5 153.1 140.3 132 129.1 123.4 116.7 110.1 103.4 92.7 83.1 76.7 69.4 59.3 49.9 41.6 32.7 27.1 19.6 15.3 12.4 9.8 7.5 6.6 5.7 4.7 4 3.7 4.3 4.4 4.4 4.6 5.2 5.1 5.4 5.8 6.1 6.6 6.7 12.5 13.9 13.2 24.3 34.5 60.6 80.5 94.3 101.7 102.4 111.4 118.2 122.4 118.1 111.9 105.9 98 94.3 88.3 89.5 88 80 65 46.6 41.7 38.5 35.6 32.9 31.8 32.1 33.9 37.6 39.9 38.2 34.2 32.4 32 30.9 34 37.5 46.6 59.8 87.4 125 146.6 160.2 175.1 187.7 194.6 194.8 191.4 189.4 191.3 190.8 185.3 177.1 171.5 163.2 155.1 160.8 168.5 162.7 157.7 103.1 63.4 56.8 40.9 28.8 17.9 8.8 6.9 6.1 5.1 4.8 5 4.7 4.5 4.3 4.3 4.3 4.7 5.4 7 6.6 5.1 5.3 5.4 5.8 6.1 6.2 6.4 -2.8 5.1 6 5.5 4.9 5.6 5.5 5.5 5.4 5.3 5.2 5.1 5 5 4.9 4.9 4.9 5 5.2 5.2 4.2 4.3 4.6 4.8 4.8 4.8 5 5 5.1 5.3 5.1 7.3 7.4 7.3 7.2 7 7.3 7.3 7.3 7.3 7.2 7.2 7.2 7.2 7.5 7.6 8 8.4 9.1 9.6 9.8 13.2 16.1 18.4 20.4 21.5 22.8 24.2
201.6 206.3 212 213.7 212.2 214.1 214.5 210.6 200.7 187.4 178.6 166.6 159.8 151.6 143.3 138 138 130.9 122.1 115.4 108.2 97.7 87.4 77.9 70.5 62.2 51.9 42.7 32.6 23.5 19.5 14.8 11.9 9.6 7.3 6.4 5.4 4.4 3.6 4 3.7 3.7 4.1 4.5 5.6 5.4 5.2 5.4 5.7 6.3 6.9 12.5 14.7 13.5 19.1 27.4 54.5 76.1 93.4 104.4 107.8 115.5 119.1 120.2 120.1 113.4 107.3 99.7 94.9 88.7 90.7 87.2 77.8 59.2 46.6 41.7 39.3 37.5 34.8 32.9 31.9 33.1 37.6 40.9 40.7 38.4 32.6 31.5 30.7 28.3 31 38.9 49.6 71.9 107.8 136.9 153.8 162.2 174 187.5 194.3 193.6 191 183.3 184.3 185.5 177.2 169 158.7 152.5 151.5 152.2 143.7 113 79.8 60.3 42.7 28.1 21.8 14.6 9.4 7.4 5.8 5.4 5.3 5.1 4.9 4.7 4.8 4.5 4.5 4.6 7.3 5.4 4.9 5.2 5.4 5.5 5.8 6.1 6.3 6.4 -2.8 5.2 6.1 5.4 4.8 5.6 5.6 5.6 5.5 5.4 5.3 5.2 5.1 5.1 5 5 5 5 4.9 4.8 4.3 4.3 4.5 4.8 4.9 4.9 5.1 5.5 5.7 5.9 6.1 5 6.7 7 3.8 7.4 7.3 7.3 7.3 7.3 7.3 7.3 7.2 7.3 7.6 7.9 8.2 8.8 9.1 9.4 9.7 12.7 16.3 19.9 21.8 23.1 24.6 26.4
201.1 204.1 207.5 208.3 208.6 211.7 214.1 205.4 193.6 182.1 174.1 166.4 158 149.1 144 140.8 142 138.1 130.5 122.9 112.3 101.2 88.1 77.7 70.8 57 49.5 44.4 37.7 29.3 19.3 14.5 11.6 9.3 7.1 6.1 5.1 4 3.3 3.1 3.1 3.5 3.9 4.4 6 5.8 5.6 5.5 5.3 5.9 6.5 10.8 14.8 11 18.4 22.6 46.5 70.4 86.6 100 109.6 119.5 122.9 119.2 123.3 116.5 110.7 105.4 98.8 94.7 93.3 90.6 78.5 57.3 48.5 42.2 40.3 38.5 36.2 33.6 32.9 33.7 37.8 41.6 41.5 39.3 32.9 31.2 29.1 28.1 26 28.8 41 57.8 89.9 122.7 149.9 157.8 163 172.9 183.6 186.7 184.9 178.6 174.5 177.5 175.7 168.1 158.9 149.3 146.3 143.7 121.5 85.1 65.8 47.1 35 28.1 22.2 17.8 12.3 8.1 6 5.2 5.7 5.1 5 5.1 5.1 4.7 7.6 6.5 5.7 5.2 5.1 5.3 5.6 5.8 5.8 6.1 6.3 6.3 6.7 -2.8 -2.8 4 4.2 5.5 5.5 5.5 5.5 5.5 5.4 5.3 5.2 5.2 5.1 5.1 5.1 5 5 5 4.5 4.6 4.8 4.9 5 5.2 5.4 5.7 5.9 6.1 6.3 6.5 4.4 7.1 5.3 7.4 7.4 7.3 7.3 7.3 7.3 7.3 7.3 7.6 7.7 8 8.6 8.5 9 9.5 9.7 11.9 15.8 19.7 23.1 25.1 26.9 28.7
203 204.2 204.8 204.9 204.3 206.7 208.1 199.7 184.3 172.5 169.5 163.7 156.8 151.3 147.7 143.4 140.4 136.5 132.6 126.8 117.1 100.8 90.5 76.2 69.7 66.5 59.1 50.6 41.5 31.6 26.4 19.7 12.8 9.8 6.9 5.7 4.6 3.6 3.1 3.1 3.1 3.4 3.8 4.3 6.4 6.3 6.1 5.2 5.1 5.6 6.1 6.9 12.1 12.3 9.2 19.9 35.3 53.8 76.3 95.6 109 119.6 124.6 121.3 126.4 119.9 113.8 107.6 101.5 97 93.8 93 82.7 58.1 48.6 43.2 41.9 40.3 37.4 34.9 33.9 34.8 36.3 42.7 45.2 40.5 32.4 32 30.5 28.6 27.1 25.6 30.5 48.5 70.1 109.6 136.3 154.2 157.5 163.1 171.4 184 179.6 176.1 171.4 168.8 170.5 166.5 160 149.4 127.4 108.9 85.5 66.6 56.2 44 37.1 30.8 23.4 18.9 12.5 10 6.6 5.9 5.2 5.2 5.2 5.2 5.3 8.6 4.5 4.6 5.1 5.2 5.1 5.4 5.7 5.9 6.2 6.1 6.3 6.2 -2.8 -2.8 -2.8 4 4.1 5.5 5.4 5.4 5.4 5.4 5.4 5.4 5.4 5.3 5.2 5.3 5.8 4.2 5 5 4.8 4.9 5.1 5.3 5.3 5.3 5.5 5.8 6 6.3 6.5 6.7 6.6 3.7 7.2 7.3 7.3 7.4 7.3 7.3 7.3 7.3 7.3 7.6 7.8 8.1 9.1 9.6 8.9 8.6 9.6 12.7 15.2 19.7 23 25.4 30.4 31.4
206.9 208.2 205.6 203.3 203.8 205.3 201.2 193.1 181.3 169.4 167.7 163.7 158 154.6 149.6 148.7 141 128.4 126.3 113.7 109.3 102.6 91.6 82.2 76 70.2 60.9 51.8 45.6 37.8 31.3 26.8 19.4 11.7 7 6.2 4.2 3.5 3.1 3.2 3.8 3.5 3.7 4.1 6.9 6.7 5.2 5.5 4.9 5.2 5.8 6.6 7.4 9.6 8.8 17 26.8 43.1 63.4 86.3 107.6 118.9 124.8 123.6 124.4 120.5 114.8 108.8 103.1 99.1 94.7 92.5 79.8 57.8 50.3 45.5 42.5 41 38 35.7 33.8 34.5 36.7 40.5 45.5 38 32.5 30.5 28.9 27.4 26.3 24.9 24.8 39.5 56.6 85.9 121.8 149.9 156.2 159.5 164.9 171.9 177.3 174.8 171.7 165.6 162.7 161.1 158.3 141.7 103.2 83.6 75.9 57.1 49.9 40.1 31.2 23.1 16.7 13.7 10.7 7.7 7.1 6.5 5.9 5.4 5.3 5.5 8.7 4.8 4.7 4.6 4.8 5 4.7 5.1 5.5 5.9 6.3 6.4 5.8 -2.8 -2.8 4.3 4.5 4.9 5.1 5.5 5.5 5.5 5.5 5.4 5.4 5.4 5.3 5.3 5.3 5.2 5 5.1 5.1 5 5.1 5.3 5.5 5.7 5.7 5.7 5.6 5.8 6.1 6.4 6.6 6.9 6.9 3.6 7.1 7.3 7.2 7.3 7.4 7.3 7.3 7.3 7.4 7.7 7.9 8.2 9.6 10.7 9.9 8.6 9.3 13.2 16.6 19.8 22.9 28 33.1 36.5
208.7 209.6 206 202.4 201.8 202.6 199.5 190.3 178.1 170.5 166.2 164.2 161.6 158.2 154 144.9 139.2 128.5 127.9 118.5 108.1 103.3 97.8 91.2 84 76.5 69.2 59.7 52.8 47.7 41.3 31.8 19.6 14.1 9.4 6.4 3.7 3.8 3.6 3.6 4.2 4.8 4.4 4 7.3 5.1 5.6 5.3 4.8 5.3 6 6.4 6.9 6.9 7.6 11.3 29.8 35.8 56.5 78.9 106.2 116.4 123.5 119.8 122 117.6 112.9 108.1 103.1 99.2 95.3 89.2 76.3 59.7 54.2 49.2 45 41.9 37.1 35.1 33.5 34.3 36 39.4 43 39.2 34.1 30 27.6 26.1 25.3 25 24.9 27.5 44.1 66.3 107.9 135.2 151.2 159 162.4 165.2 170.5 171 168.7 162.6 156.5 151.5 138 116.8 89.3 79.6 59.3 48.3 42.9 35.3 28.1 21.1 15.2 11.1 8.5 7.9 7.3 6.7 6.1 5.5 5.4 8.7 5.1 5 4.9 4.8 4.8 4.7 4.9 5.3 5.6 5.9 6.2 -2.8 -2.8 -2.8 5 5.2 5 5.4 5.6 5.6 5.5 5.5 5.4 5.4 5.4 5.3 5.3 5.3 5.1 5.2 4.8 5 5.1 5.2 5.3 5.7 5.9 6.1 6.1 6 6 6 6 6.3 6.6 6.9 7.2 7.3 6.9 7.3 7.3 7.2 7.3 7.4 7.4 7.3 7.4 7.7 8 8.9 12.7 14.7 10 8.2 9.4 13.4 17.3 20.8 25.5 30.6 35.7 40.8
207.6 207.5 203.2 199.9 198 198.6 195.5 186.8 173.2 169.3 165.8 163.9 162.3 158.8 160.9 151.8 141.5 133.9 127.2 119.2 117.7 113.9 106.8 99.1 90.1 83.1 75.1 67.7 60.7 51.2 42.6 30.8 22.9 14 7.3 5.2 4.2 4.3 4 3.6 4.6 5.2 5.8 5.6 8.3 5.8 5.8 5.5 6.8 6.2 6.8 6.3 6.6 7.4 7.8 8.7 35.4 35.6 49.6 64.4 91.9 103 117.1 112.1 117 114.1 109 102.7 100.5 96.6 93.4 84.8 74.6 63.6 59.2 52.9 47.4 45.8 42.9 37.2 34.8 33.5 33.9 35.9 40.1 37.1 33.9 30.2 26.8 24.9 24.7 25.1 25 25.5 32.7 52.1 84.2 116 138.7 155.2 164.3 163.4 162.1 161.8 160.5 151.8 136.5 126 105.9 94.5 75.1 55.9 45.3 40.3 35.5 34.9 25.5 19.2 12 8.8 8.1 7.6 7.3 6.8 6.2 5.4 8.7 6.2 5.3 5.2 5.2 5.1 5 4.9 5.2 5.5 5.8 6 6.3 -2.8 -2.8 -2.8 -2.8 -2.8 5.5 5.7 5.9 5.6 5.5 5.4 5.4 5.4 5.3 5.3 5.4 5.3 5 5.2 5.2 5.2 5.3 5.4 5.5 5.9 6.3 6.5 6.4 6.4 6.4 6.3 6.3 6.3 6.5 6.8 7.2 6.5 6.9 7.3 7.3 7.2 7.2 7.3 7.4 7.4 7.4 7.8 8.1 11.7 16.5 14 9.1 8.5 9.4 13.1 18 25.9 31.9 33.2 36.3 39.8
204.6 203.8 199.4 194.7 192.3 191.9 186.8 177.2 171.7 167.6 166.1 165.4 164.4 166.2 162 155 144.2 134.5 127.2 128.5 124.6 120.8 113.6 103.2 94.1 86.3 78.1 72.3 63.4 52.3 37.1 23.6 10.4 5.9 4.2 4.4 4.3 4.6 4.3 4 5 5.6 6.2 6.7 7 8.9 5.9 6 8.5 8.3 7.9 6.3 7.5 8 8 10.2 17.3 33.8 44 46.7 65.6 85.8 113.2 112.3 111.6 108.4 103.7 99.7 98.2 96.2 95 85.3 78.3 62.7 62.9 55 48.1 47.1 47 41.5 35.8 34.9 34.4 34.6 39.4 35.6 31.4 29.3 26.2 23.4 23.7 25 25.3 26.4 26.1 36.6 54.5 84.2 126.3 147.1 159.2 157.6 152.4 150.2 146.1 135.3 118.1 102.9 94.8 71.2 57.5 49.5 44.5 37.2 30.7 27.7 22.4 15.9 10.3 8.4 7.8 7.4 7.4 7 6.5 9.1 8 6.7 5.3 5.3 5.2 5.1 5.1 5 5.2 5.5 5.8 6.1 6.4 7.4 -2.8 6.5 6.3 -2.8 -2.8 -2.8 6.1 5.7 5.6 5.4 5.4 5.3 5.3 5.4 5.4 5.3 5 5 5.5 5.4 5.5 5.6 5.7 6.1 6.5 6.8 6.8 6.8 6.7 6.7 6.7 6.6 6.6 6.8 6.9 6.2 4.7 7.2 7.3 7.2 7.2 7.2 7.3 7.4 7.5 8 10 13.2 15.1 10.9 8 8.1 10.2 13.4 22.1 33.4 38.7 38 38.8 42.5
204.1 204.8 198.1 191 186.3 184.1 179.5 175.8 171.3 169 169.9 170 169.6 171.1 168.2 155.1 140.8 136.1 137.4 136.5 133.1 124.9 120.2 111.7 99.3 88.9 79.2 71.7 61.3 46.7 25.6 14.1 10.1 4.5 4.5 4.2 4.2 3.5 4.5 4.4 5.4 6 6 6.8 7.9 6.7 5.7 5.7 8.5 11.4 12.8 6.9 8 9.1 9.8 15.9 18.2 35.9 44.2 46.4 48.9 58.6 92.2 116.7 113.3 108 105 100.9 97.8 93.7 91.2 84.3 76.2 60.4 61.5 55.1 48.8 48.8 49.8 46.2 35.6 37.9 37 36.8 40.1 39.1 31.8 28.7 22.9 20.8 20.2 20.9 23.2 23.8 26.3 28.2 41.6 68.4 107.1 134.3 147.1 149.8 143.2 130.8 117.4 106.3 92.9 79.8 67.2 57.6 52.3 47.7 41.1 31.8 33 27.4 22 16.3 11.5 9 8.2 8.5 7.9 7.5 9.3 8.3 7 6.1 5.3 5.2 5.2 5.1 5 5 5 5.2 5.4 5.6 5.7 5.9 6.3 7.3 7.2 7.1 7.1 -2.8 -2.8 5.8 5.7 5.5 5.4 5.3 5.3 5.4 5.5 5.2 4.9 5.3 5.4 5.9 5.7 5.8 5.9 6.3 6.7 6.6 6.7 6.7 6.7 6.7 6.7 6.7 6.7 6.8 6.7 6.6 7.5 4.5 7.3 7.3 7.3 7.2 7.2 7.1 10.9 13.5 14.6 15 11.3 8.5 8.2 8.2 11.3 16.3 28.8 40.3 42.4 40.3 41.6 47.6
207 201.1 199.1 190.1 184.4 180.6 176.4 175.6 172.6 173.8 176 174.3 179.8 177.3 163.6 153 145.8 145.4 143.7 140.8 136.9 132.7 125.6 118.2 100 90.3 79 69.6 53.8 40.7 25.4 13 9 6.3 5.1 4.6 4.1 4.4 4.6 4.9 6.7 6.3 5.9 6.6 7 6.2 6.1 6 8.4 12.8 9.9 11.1 9.3 9.8 14.8 19.8 20.9 34.7 45.9 48.3 44 58.6 77.2 103.3 111.7 106.3 104.3 101.1 97 93.7 88.9 82.3 72 55.4 57.7 53 47.7 47.9 50.8 42.5 37.5 40.7 40.4 38.7 41.2 39.3 34.4 32.3 30.5 27.6 23.5 23.1 20.1 20.9 28.8 23.5 34.5 53.4 84 117.4 142.7 145.1 140.5 114.4 94.7 83.3 65.1 55.4 54.6 49.8 44.2 41.9 35.1 26.4 25 31.5 21.7 16 11.2 8.8 8.5 8.8 9.1 9.5 9.7 8.6 6.5 5.9 5.6 5.3 5.1 5 4.9 4.9 5.1 5.3 5.5 5.6 5.7 5.7 5.8 6.3 6.1 6.8 7.8 7 -2.8 6 5.9 5.7 5.5 5.4 5.5 5.6 5.7 5.2 5.6 5.7 5.7 5.8 6.3 6 6.1 6.5 6.5 6.4 6.6 6.6 6.6 6.6 6.6 6.8 6.7 6.6 6.5 6.5 6.4 7.9 4.5 7.1 7.1 7.3 7.3 9 13.8 16.6 16.9 14.6 9.6 7.5 7.7 8.5 15.1 23.1 36.2 44.4 44 42.5 43.8 49.6
201.9 201.2 198.3 191.4 184.9 183.3 180.2 178.6 178.3 178.7 179.5 182.4 187.6 182 169.4 160.8 153.9 153.3 147.9 140.8 141.8 139.8 131.6 118.7 100.4 83.1 73.6 62.1 54.5 43.4 30.7 15.1 9 6.1 4.7 4.2 4.1 4.3 4.5 4.4 6.5 8.3 6.2 8.9 5.9 5.9 6.8 6.3 7.9 9.7 9.5 11.2 13.7 11.5 15.3 21.3 24.8 30.6 42.5 48.2 45 55.7 63.8 95 108.1 105.7 108.4 111.1 106.7 101.7 93.6 80.8 70 50.9 51.5 49.7 45.1 47 49.7 44.6 39.3 43.9 45.6 41.9 42.1 42.4 41.5 39.8 36.6 30.2 24.4 20.5 23.3 20.3 24.9 23.4 35.5 44.3 66.1 93.8 127.7 144.9 134.3 93.1 74.7 65.1 55.3 47.8 41.7 33.9 32.2 29.5 24 20.7 20.8 24.7 19.2 15.6 10.2 8.3 8.5 9.1 9.3 9.8 10.1 8.3 6.5 6.2 5.9 5.6 5.3 5 4.8 4.8 5.2 5.3 5.5 5.5 5.5 5.5 5.5 5.7 5.8 6.4 6.8 8 7.2 -2.8 6 5.7 5.5 5.7 5.7 5.9 6 5.3 5.9 6 6.1 6.1 6.2 6.6 6.3 6.5 6.3 6.2 6.5 6.5 6.5 6.5 6.8 6.7 6.5 6.4 6.4 6.3 6.2 6.2 8.2 4.4 7.4 7.3 7.4 10.1 17.8 22.5 21.2 15 9 6.8 7.5 12 18.7 27.7 39.5 48 47.2 46.6 48.5 51.9
200 202.2 198.9 193.1 188.5 189.2 187.4 181.4 180.7 180 181.3 186.3 184.9 178.1 173.4 166.4 166.6 162.2 154.2 150.5 149.5 144.7 134.1 120.1 100.8 83.7 74 64.7 56 45.4 39 16.5 7.9 5.6 4.4 4 4 3.3 5 5.6 6.1 6.1 6.1 7.1 6.8 7.2 6.2 6.1 7 8.3 14.4 12.1 12.5 11.3 9.5 16.8 25.4 27.6 39.5 47.4 44.6 54.8 58.2 88.7 105.3 109.7 113 117.5 111.8 107 96.4 72.6 60.7 52.6 46.4 44.3 41.4 44.1 46 43.6 39.9 49.6 49.5 45.1 47.7 47.5 45.5 43.2 40.1 32.4 25.8 20.5 21.3 20.5 24 23.5 37.8 40.4 52.1 72.1 96.8 118.4 100.8 73.2 62 55.8 46.1 35.6 31.3 27.4 26.4 22.1 16.9 12.3 12 16.9 13.4 11.7 9.9 8.3 8.8 9.3 9.1 9.4 9.4 8 6.4 6.2 6 5.8 5.6 5.3 5 4.8 5.2 5.3 5.4 5.4 5.4 5.4 5.4 5.4 5.5 6.1 6.2 6.8 7.7 -2.8 -2.8 5.7 5.8 5.9 6 6 6.2 6.1 6.2 6.3 6.4 6.5 6.6 6.6 7.2 7.3 7.5 6 6.4 6.4 6.8 6.8 6.7 6.6 6.3 6.3 6.2 6.2 6.1 6.1 6.6 6.7 7.1 7.5 8.3 11.3 21.7 27 24.3 16.4 8.2 6.5 8.2 16.9 22.5 31.9 41.8 51.6 51 50.2 52.1 53.7
200.3 201.4 197.9 193.7 194.8 194.5 192.6 182.4 180.5 180.2 183.7 184.7 182.5 182.3 174.4 171.1 176.8 167.3 163.9 161.5 158.9 149.3 137.6 122.5 104.1 84.6 75.2 67 57.9 43.8 29.9 13.7 7.5 6.9 5.9 4.5 4.7 4.7 4.7 4.7 5.2 5.8 6.3 7 7.3 7.2 6.1 6 8.6 10.9 13.3 11.8 9.5 9.6 12.7 16.7 21.3 27.4 36.8 40.3 45.7 50.3 58.4 83.4 105 111.6 115 115.1 112.4 108.1 102.2 67.1 57.8 52.3 46.1 39.7 36.7 39.2 42.1 41.5 49.6 51.2 47.2 48.2 51.3 51.2 47.8 44.3 40 31.9 27.3 20 23.7 22 18.8 22.6 33.8 41.5 49.2 56.4 68.5 79.8 75.9 60.5 49.9 38.4 30.2 23.1 18.2 15.6 12.9 10.2 6.8 5.9 6.7 6.3 6.6 7 8.5 8.8 9.1 9.1 8.9 8.7 8.5 6.1 6.1 6.1 6 5.9 5.7 5.4 5.2 5 5.2 5.2 5.2 5.2 5.2 5.2 5.2 5.2 5.3 5.7 6.1 6.6 7.8 -2.8 -2.8 5.9 6 6.1 6.2 6.3 6.3 6.6 6.6 6.6 6.7 6.8 6.9 -2.8 -0.7 -2.8 -2.8 -2.8 8.2 6.8 6.7 6.6 6.6 6.3 6.1 6.1 6.1 6 5.9 5.9 6.3 7.9 7.5 8 9.8 15 24.9 28.5 25 14.7 7.7 6.7 9.1 17.2 23.9 34.4 42.2 51.6 52.9 50.4 53.7 56.3
199.3 199.7 196.6 197.1 198.5 193.6 187.9 181.8 179.4 181 181.3 184.6 185.7 177.7 177.8 177.9 177 174.4 174.6 174.2 170.9 156.7 142.9 124.7 104.4 86.4 72.7 66.1 57.2 47.8 28.2 17.3 9.3 6.6 5.7 4.6 4.7 4.7 4.7 4.7 6.4 5.4 5.3 6 6.2 6.6 6.5 7.1 8.2 10.4 14.2 14.8 10.2 14.9 16.6 18.4 28.1 30.3 33.5 38.3 47.2 46 56.6 79.7 103.9 110.6 113.7 114.9 114.5 111 100.2 72.7 57.5 51 44.1 38.8 34.4 35.3 42.6 43.8 50.7 49 46.7 49 49.3 53.2 47.5 45.1 41.8 32.5 22 23.4 19.9 20.4 18.4 18.9 27 36.9 42.8 48.1 50.8 55.4 52.5 42.2 33.8 24.7 18.7 15.3 15.6 12.5 9.8 8.3 5.8 6.1 6.7 6.6 6.6 6.6 8.7 7.2 7.9 8.5 8.9 8.8 7.6 5.6 5.6 5.5 5.5 5.4 5.3 5.3 5.2 5.2 4.9 4.9 4.9 4.9 4.9 4.9 4.9 5.1 5.1 5.6 6.1 6.7 7.2 -2.8 -2.8 6.5 6.5 6.5 6.5 6.6 6.7 6.8 7 7 7 7.1 -2.8 -2.8 6.5 6.3 -2.8 -2.8 -2.8 6.7 6.6 6.5 6.4 6.1 5.9 6 5.9 5.9 5.8 5.8 6.1 5.4 7.6 7.5 10.1 17.2 27 28.6 23.3 11.2 6.2 7.5 11.7 19.8 26.1 34.1 42.9 55.9 52.1 52.2 54.8 57.7
200.2 198.1 198.6 194.3 193.6 188.8 182.7 180.7 183.4 184.2 185.6 188.1 186.9 184.1 183.6 183.8 179.3 179.5 185.4 181.9 178.1 164.4 142.7 122.3 104.2 85.7 72 66.4 54.2 40.6 22.8 15.7 8.3 6.7 5 4.7 4.6 4.7 4.7 5.7 5.7 5 5.3 6 6.6 6 6.4 6.4 7.3 11.9 11.5 9.6 11.1 11.4 14.5 23.4 32.1 33.3 35.8 42.3 40.7 42.6 51.7 73.8 103.9 104.8 112.5 113.7 115.2 111.7 100.2 80.3 56.1 48.4 40.6 35.3 30.5 35.3 37.7 45.1 48.4 49.1 45.8 44.2 50.8 54.4 48.1 45.3 39.8 34.3 23.4 23.1 22.9 27.9 22.2 17.3 20.2 32 38.5 44.5 42.9 40.5 36.6 31.3 22.6 18 12.6 10 10.9 8.9 7 6.6 5.9 6.4 6.8 4.6 4.9 7.3 5.4 5.8 6.2 6.6 8.1 8.9 7.3 5.6 5.4 5.3 5.3 5.2 5.2 5.1 5.1 5.2 4.6 4.6 4.6 4.7 4.8 5 5.1 5.1 5 5.4 5.9 6.5 7.2 -2.8 -2.8 6.4 6.6 6.9 7.1 7.2 7.2 7.2 7.3 7.4 7.2 7 -2.8 -2.8 6.8 6.1 6.4 -2.8 -2.8 3.8 8.1 6.4 6.1 5.8 5.7 5.8 5.8 5.7 6.5 5.6 4.5 6.1 6.7 6.9 10.5 18.7 27.2 26.9 18 7.8 6.4 7.6 14.3 20.9 26.6 35 44 56 51.4 55 58.7 59.7
194.3 193.5 194.2 190.8 187.8 184.4 178.2 180.6 179.6 183.7 183 185 188.8 184.3 188.9 187.7 181.3 180.8 183.8 181.5 177.2 165.7 141.9 121.1 101.5 83.9 70.9 64 52.1 35 16.4 10.2 7.4 5 4.6 4.6 4.8 5.1 5.5 6.7 5.8 5.6 9.5 11 6.3 6.1 6.4 6.4 8.7 10 12.9 11.7 11.1 11.3 11.3 21.1 32.4 35.2 36.8 40.2 38.5 41.5 45.7 67.7 104.4 102.1 110.1 110.2 108.2 104.7 97 86 54.7 41.8 36.3 31.3 29.2 31.3 35.6 44.9 48.1 51.1 46.7 44.6 46.4 52.4 49.6 48 44.6 33.1 25.7 26.6 24.2 23.3 18.1 20.5 17.6 27.1 40 41.8 38.8 33.9 30.6 29.9 18.8 14.2 11.2 7.5 7.1 8 6.7 6.9 4.5 4.6 5.6 5.7 4.8 4.9 5.2 5.5 5.9 6.3 7.4 9.1 7.5 5.8 5.1 5.1 5.1 5 5 5.1 5.1 4.7 4.5 4.6 4.7 4.9 5 5.1 5.1 5.1 4.9 5.2 5.7 6.3 7 7.4 -2.8 -2.8 6.5 6.5 6.8 6.9 6.9 6.9 7 7.1 7 -2.8 -2.8 6.5 7.1 6.1 6.5 6.9 7.2 7.2 3.9 5.8 7 7 7 6.7 6.4 4.6 5.1 6.7 6.8 6.7 6.5 6.5 9.6 18.2 25.5 23.4 14.6 6.1 6.4 6.8 12.5 20.3 25 34.4 47.8 56.3 51.9 56.1 61.6 64.2
190.4 190.4 189.9 187.1 183.9 180.7 176.3 177.1 177.5 178.5 176.7 182.3 179.9 178.2 185.2 183.4 181.3 179.8 184.5 180.5 173.2 161.7 139.3 118.5 98.1 79.3 61.5 60.6 48.5 29.8 13.5 8.3 6.9 4.8 4.5 5.3 5.6 4.9 5.8 6.2 5.6 5.7 9 8.9 6.3 6.4 6.3 7.3 9 13.4 15.3 12.4 10.8 11.1 12.5 11.6 30.4 32.8 36.1 38.1 36.3 38.4 44.5 57.3 90.1 99.1 109.7 111.7 109.2 103.7 93.8 86.9 62.5 40.3 33.4 29.1 28.5 28.3 39 47.9 46.4 48.1 45.7 43.1 48.3 51.9 49.9 47.1 49 35.9 22.8 20.6 20.8 18.3 20.4 21.5 17.6 25.5 36.8 38.8 35.2 31.5 29 23.6 16.3 12 9.1 6.5 6.5 4.8 4.5 4.3 4.3 4.4 6.5 5.1 4.9 5.3 5.1 5.4 5.7 6.1 7.2 8.7 7.8 6.3 4.9 4.9 4.9 4.9 4.8 4.8 4.7 3.6 4.4 4.8 4.9 5 5.1 5.2 5.1 5 4.9 5.1 5.5 6.1 6.6 6.8 -2.8 -2.8 -2.8 6.3 6.4 6.5 6.5 6.6 6.7 6.9 6.8 -2.8 -2.8 6 5.8 6.2 6.6 7 6.9 6.9 7.2 7.9 7.2 6.6 4.3 4.4 4.4 6.9 6.7 6.4 6.5 6.6 6.6 6.4 8.6 17.9 22.6 18.6 12.8 6.2 6.7 7.1 10.5 18.1 26 39.3 51.6 54.6 51.9 57.4 63.7 67.6
184.1 184.4 186 181.3 180.8 178.2 178.2 178.1 176.7 173.9 170.2 171.7 169.9 167.8 172.8 172.4 174.4 171.3 175.5 177 168.9 152.9 135.1 113.4 93.4 70.7 52.1 55.9 31.7 16.8 11.5 7.7 6 4.7 5.1 5 4.9 5 5.4 5.8 5.3 5.8 6.4 6.9 6.7 6.7 6.5 7.9 11 11.3 13.7 11 11 11.4 12.8 11.6 25.9 30.1 36.7 34.9 34 34.9 42.3 49.3 68.6 86.4 108.2 112.5 109.9 109 103.1 95.5 78.2 47 33.7 29.3 28.5 28.9 32.6 42.3 44.9 46.4 42.6 46.1 46.1 49.4 50.1 46.4 48.4 35.8 23.1 20 19.1 15.4 17.5 16.9 17.2 19.8 30.4 35.2 32.9 30.9 26 17.2 13.6 10.4 6.9 6.3 6.1 4.9 4.3 4 3.9 6.4 5.7 5 5.2 5.6 5.9 5.7 5.6 5.9 6.9 8.2 7.8 6.1 5 5 5 5 5 5 5 4.5 4.5 4.9 5 5.1 5.2 5.1 5 5 4.8 5 5.4 -2.8 -2.8 -2.8 -2.8 -2.8 -2.8 -2.8 -2.8 6.1 6.3 6.4 6.5 6.6 6.4 -2.8 -2.8 6.8 5.9 6.3 6.7 6.6 6.6 6.6 6.8 6.6 6.5 6.2 6 5.6 6.7 6.7 6.5 6.2 6.1 6.2 6.3 6.4 7.1 14 16.3 11.7 7 6.3 6.3 6.7 8.3 15.5 28.2 41.8 53.9 52.8 51.9 60.6 66.2 68.5
180.2 180.4 179.4 179.9 179.4 179.1 180.5 177.9 174.3 171.5 171.2 167.6 163.4 159.3 159.4 159 160.1 161.6 164.8 157.7 146.7 137.2 127.7 104 86.8 62.4 41.1 37.8 24.7 14.1 7.5 6.5 6 4.5 4.9 5.1 4.9 4.9 5 5.4 5.4 5.5 5.5 6.5 6.6 6.4 7.3 8.3 13.5 11.8 11.1 11.1 10.2 10.2 9.5 12.9 20.5 25.2 30.7 38.3 36.4 33.3 45.2 48.1 56.4 76.2 102 111.5 113.2 112.5 106.9 103 90.3 58.4 40.4 31.7 29.6 29 33 40.9 41.1 44.9 41.7 42.3 42 40.5 41.4 42.7 43.9 36.5 25.4 22.4 22.6 16.2 12.2 20 14.5 18.1 24.7 32 29.5 30.4 19.9 11 11.7 11.2 6.6 5.8 5.4 5 4.2 3.9 6.2 5.1 4.9 4.9 5.4 5.8 6.2 6.5 6.3 7.5 7.6 7.7 8.4 6.1 5.4 5.1 5.2 5.2 5.2 5.2 5.3 4.7 4.9 5 5.2 5.2 5.2 5.1 5 4.9 5.5 -2.8 -2.8 -2.8 -2.8 -1.3 -2.3 -2.5 -2.8 -2.8 -2.8 6.1 6.1 6.1 6.2 6.3 -2.8 -2.8 6.5 6.7 6.1 6.4 6.4 6.3 6.3 6.3 6.4 6.3 6 5.7 5.4 5.4 6.7 6.5 6.3 6.1 5.8 5.9 6 6.1 6.2 9.1 9.8 6.9 6.6 7.1 7.3 8.7 9.2 13.1 27.6 45.4 52.1 47.7 54.8 64.7 70.6 73
176.7 176.7 178 180.2 180.9 180.6 179.5 177.1 177.3 177.6 173 166.7 160 155.6 151.5 149 149 150.2 147.7 140.7 134.6 122.7 111.1 91.7 70.2 52.7 35.5 31.3 19.8 11.4 7.2 5.8 5.7 4.4 4.8 5.1 5 5 5 5 5 5 5 5.8 6.2 7.1 8.5 7.9 10.2 9.9 11.5 12.6 12.7 12.6 10.8 10.2 21 23.5 28.1 37.7 38.2 34.4 44.9 46.7 50.1 68.2 88.9 109.6 112.8 114.1 111.7 107.7 99.4 73.7 47.3 36.8 33.7 28.9 31.2 37.6 39 43.4 39.5 37.9 38.6 35.8 40.1 40.4 38.3 32.1 28.2 25.7 20.1 15.3 12.4 9 8.9 17.7 18.1 25.6 24.6 22.6 17.8 12.5 10.5 8.2 6.4 5.1 4.6 4.2 3.8 4.7 5.1 5 5 5 5.3 5.8 6.3 6.8 7.1 8.5 8.6 8.7 8.6 7.3 5.8 5.3 5.3 5.4 5.4 5.4 5.3 4.7 4.9 5.1 5.3 5.2 5.2 5.1 5 -2.8 -2.8 -2.8 -2.8 -2.8 6.3 5.2 5 5.1 -2.8 -2.8 -2.8 -2.8 6.4 6.3 -2.8 -2.8 -2.8 6.1 6.2 6.4 6.2 6.2 6.1 6 6 6 5.9 5.7 5.4 5.4 5.6 5.7 6.4 6.2 6 5.8 5.6 5.6 5.7 5.7 5.8 6 6.2 7.1 9.2 10.1 15.9 16 13.4 11.1 26 41.3 46 46.8 60.9 70.8 77.4 77
176.7 176.7 179.3 182.1 181.5 181.5 182.7 182.6 183.9 183.3 175.1 166.9 159.8 153.9 148.5 144.2 139.6 135.3 132.3 128.2 120.8 108.8 94.2 76.6 60.5 45.8 33.8 29 17.6 9.9 7.9 6.5 4.9 4.3 4.7 5.4 5 3.4 5.3 5.9 5.2 5 5.1 5.7 7 13.2 8.8 7.9 9 13.6 9.3 12.3 11.3 10.6 8.3 8.4 17.9 20.9 26.5 33.7 36.8 35.1 42 43.6 44.8 55.2 78.8 103.6 112.2 116.3 117.1 114.4 107.9 86.7 47.5 35 33.3 28.5 32.7 37.5 42.3 40.7 38.1 36.3 36.5 36.7 33.6 35.3 31.9 29.5 28.7 23.9 21.6 22.1 20 12.3 7.4 11.5 16.1 19.8 17.8 18 14.6 15.2 12 6.9 6.3 5.5 4.1 4.7 4.4 4.5 5.1 5.1 5 5.1 5.2 5.7 6.2 6.7 7.1 8.6 8.7 8.7 8.6 8.5 7 5.5 5.5 5.5 5.4 5.3 5.2 4.8 4.8 5 5.2 5.4 5.4 5.3 -2.8 -2.8 -2.8 6.1 6.3 6.4 6.7 6.6 6.4 6.6 8 6.7 -2.8 -2.8 -2.8 -2.8 -2.8 -2.8 6.3 6.1 6 5.8 5.5 5.5 5.5 5.7 5.7 5.7 5.5 5.4 5.6 5.7 5.9 6 6.2 6 5.8 5.6 5.4 5.2 5.3 5.4 5.4 5.5 6.5 9 12.1 17.1 24.6 24.4 16.8 16.1 25.9 31.6 36.8 50.5 66 77.6 85.9 90.6
176.7 176.7 180.1 183.7 184.6 187.2 187.2 188.3 188.5 186.4 176.8 168.2 163.1 156.2 151 141.3 135.5 129 124.6 118.9 110.4 97.5 84.6 69.4 56.9 46.3 34 26.7 17.2 8.6 6.9 5.4 4.7 4.7 6.3 6.3 5.5 5.5 5.9 6.7 6.5 5.4 5.1 5.5 11.6 15.6 11.4 8.3 8.4 12.2 9.7 10.1 10.5 10.6 13.6 7.3 14.8 20.4 26.4 32 37.1 35 37.7 40.6 44.4 44.1 63.9 88.5 105.1 112.7 116.5 116.6 112.4 90.8 52.4 31.6 26.7 31 32.5 33.5 36 36.1 35.4 35.4 37.2 36.8 34.3 32.9 32.2 30.6 26.8 24.1 27.6 27.6 18.2 10.4 6.8 6.8 9.7 14.6 15.9 14.2 12.5 11.3 11.3 7.1 6 5.3 6.5 4.3 4.6 4.7 5.2 5.2 5.2 5.3 5.4 5.6 6.1 6.6 6.8 8.8 8.8 8.7 8.6 8.5 7.5 5.8 5.5 5.5 5.4 5.3 5.3 4.5 4.7 4.9 5.1 5.4 5.6 5.5 -2.8 -2.8 4.9 6.1 6.3 6.1 6.6 6.6 6.6 6.8 6.6 6.9 6.6 6.6 6.2 5.1 5.1 5.3 6 6.1 6 5.6 5.4 5.4 5.4 5.4 5.4 5.4 5.5 5.6 5.7 5.8 6 6.1 6.1 5.9 5.6 5.4 5.2 5 5 5 5 5.1 5.6 10 15.5 22.9 32.2 32 17 16.7 23.9 32 39.4 55.1 68.4 81 90.6 98.6
176.7 178.2 182.4 188.1 194 196.8 197.7 198.8 194.2 191.1 181.8 173 167.1 157 148.4 140.5 138.8 134 127.3 118.1 109.2 98.1 87.3 73.5 57.2 45.1 30.5 23.2 13.4 8.6 6.5 5.2 5.4 5.1 6.7 10 9.9 9.1 7.9 10.1 6.7 5.6 5.7 5.1 7.5 12.1 8.5 8.2 7.5 11.5 12.1 9.4 11 12.2 14 6.9 13.3 22.6 29.8 31.5 39.5 38.2 30.6 36 42.6 41.2 45.4 67.8 86.9 102.5 113.4 113.5 107 89 47.6 27.9 24.3 26.3 30.3 30.2 34.1 35.2 36.8 36.4 36.9 37.1 33.3 25.1 28.3 31.9 32.2 28.4 29.5 27.6 17.4 7.5 7.1 6.8 7 7.9 16.8 17.4 11.7 6.5 7.5 6.6 5.6 6.6 4 4.3 4.6 4.9 5.2 5.2 5.3 5.4 5.5 5.6 6 6.4 7.3 8.9 8.8 8.7 8.7 8.6 7.7 5.6 5.3 5.4 5.4 5.5 3.3 4.4 4.6 4.8 5.1 5.4 5.6 -2.8 -2.8 5.1 6 6.5 6.2 6.2 6.5 6.5 6.5 6.7 6.9 7.1 6.9 6.7 6.4 6.4 6.9 7.1 6.8 6.3 5.8 5.4 5.4 5.4 5.4 5.5 5.4 5.3 5.3 5.5 5.6 5.7 5.8 5.9 6 5.8 5.6 5.4 5.1 4.9 4.9 5.1 5.2 5.2 6.8 14.9 22.8 31.2 43.2 37.8 19.3 16.4 22.5 30.7 42.1 57.2 69.5 82.4 95.8 104.7
176.7 180.8 186 198.5 203.2 207.3 205.1 202.5 200.8 196.3 186.5 178.6 172.8 159.7 153.4 150.9 150.2 141.2 132.3 121.6 114.5 104.7 90.3 72.8 57.5 43.2 27.3 18.7 12.5 8.4 6.4 5.7 5.6 7.2 13.2 17.2 17.5 14.6 12.1 9.5 9.6 8.9 5.8 5.4 4.9 7.8 9.3 8 7.3 8 9.3 17.5 15.7 9.6 10.3 6.8 11.3 26.5 30.3 31.7 38.6 34.6 30.3 29.6 36.7 41.2 38.9 51.1 67.7 87.5 105.7 109.4 101.8 83.6 40.2 25.6 22.2 20.7 25.4 26.2 27.6 29.1 33.5 40.8 41.1 35.8 31.3 23.3 28.5 33.8 32.8 28.9 31.8 25.7 16.1 6.1 7.3 6.3 6 5.8 9.6 13.2 8.8 6.1 5.5 5.7 4.3 4.3 4.4 4.4 4.7 5 5.1 5.3 5.4 5.5 5.6 5.7 5.9 6.9 8.6 8.9 8.9 8.8 8.7 8.7 7.7 5.3 5 5.1 5.2 5.3 4.7 4.4 4.5 4.7 5 5.1 5.2 -2.8 -2.8 6.1 6.4 6.6 7.4 6.3 6.3 6.3 6.5 6.6 6.8 6.9 6.9 6.7 6.4 6.6 6.8 6.9 6.6 6.1 5.7 5.4 5.5 5.5 5.6 5.5 5.4 5.3 5.2 5.3 5.4 5.5 5.6 5.7 5.8 5.7 5.6 5.4 5.1 4.9 4.7 5.1 5.4 5.9 11 18.7 28.7 39.2 45.3 37.8 17.8 16.9 22.6 32.5 44.7 58.4 70 83.6 97.9 108.2
178.9 183.4 195.5 205.3 207.8 210.1 207 205.6 206.4 197.9 189.3 184.7 177.7 166 162.7 160 156.2 145.4 138.8 129.8 120.4 108.2 93.8 75 59.7 44.2 25.9 17.9 12.4 9.6 7.5 6.2 9.4 10.7 17.8 24.4 22.3 14 13.7 12 15.2 15.8 12.6 6.3 3.7 5.5 8.8 7.7 7 7.6 7.8 15.7 14.1 9.4 10.7 6.1 15.9 29.5 31.7 33.5 37.4 33.3 28.8 27.3 30.6 38 35.7 35.6 55.6 69.9 91.9 105.2 97 76.4 35.6 27 22.8 18.7 17 20.9 23.3 26.9 31.4 29.1 28.9 32.4 30 28.6 20.9 32.1 28.4 23.5 30.4 21.8 12.2 5.1 5.8 10 7.1 5.1 5.8 8.5 5.6 5.7 8.4 5.4 4.8 4.8 4.9 4.9 5 5 5.3 5.4 5.5 5.6 5.7 5.9 6.3 7.9 8.7 8.8 9 8.9 8.8 8.6 7.1 5 4.8 4.9 5 5.2 4.8 4.5 4.4 4.7 4.9 5.1 5.2 -2.8 -2.8 6.1 6.1 6.1 6.1 6.7 6.2 6.2 6.4 6.5 6.6 6.7 6.8 6.7 6.8 6.6 6.6 6.7 6.4 6 5.6 5.6 5.6 5.7 5.6 5.5 5.4 5.2 5.1 5.1 5.2 5.4 5.5 5.6 5.7 5.7 5.4 5.3 5.1 4.9 4.7 5 5.4 8.5 15.4 23.7 32.2 40.3 44.4 34.5 17.1 17.2 24.4 37.1 46.2 58 70.5 83.2 95.9 107.9
184.1 191.9 203.5 209.4 211.1 210.7 209.4 213.2 205.8 196.3 192.2 187.9 180.1 174.5 169.7 165.5 160 150.8 144.4 136.3 124.8 111 96 74.9 60.5 46.2 27 16.7 12.2 10.4 8.2 6.7 8.7 13.5 20.5 28.8 24.8 18.7 15.6 17 15 15.9 9.6 6.1 3.7 6.7 7.5 7.8 12.5 19.7 10.2 8.2 11 7.9 7.7 6.1 18.3 31 32.6 34.4 35.3 31.9 27.2 26.3 28.5 31.5 32.8 32.5 39.7 56.8 78.3 98.9 93.7 63.8 37.2 34.5 28.4 22.6 17.1 18.9 22.4 26.9 22.9 28.1 26.9 28.1 27.3 24.8 21.9 22.3 23.5 22 19.9 17.1 6.4 5.1 5.8 5.5 5 4.6 5 5.1 7.8 4.8 5.8 5.4 4.9 5 5.1 5.2 5.3 5.4 5.5 5.7 5.8 6 6.2 6.4 7.4 8.5 8.7 8.8 8.9 9 8.8 8 6.4 4.9 4.7 4.8 5 5.1 4.9 4.5 4.5 4.7 4.8 5.1 5.4 -2.8 -2.8 6 6 6 6 6.2 7.3 6.2 6.2 6.3 6.4 6.4 6.6 6.7 6.8 6.6 6.5 6.5 6.3 5.9 5.8 5.7 5.8 5.7 5.6 5.5 5.3 5.2 5.1 5 5.1 5.2 5.3 5.4 5.5 5.6 5.4 5.1 5.1 4.8 4.7 4.9 8.8 15.2 22 30.1 33.3 40.9 41.8 30.4 17.9 19 27.2 36.8 47.4 58.1 69 81.3 93.2 105
190.6 200.7 207.4 215.2 215 213.5 214.8 216.2 204.1 198 193.2 188.2 182.5 178.1 174.4 169.6 162.8 156.1 151.3 140.3 123.3 106.6 93.5 77.2 64.5 47.2 24.4 14.8 10.4 8.9 7.4 7.7 9.7 17.8 24.8 31.8 25.4 18.5 18.3 26.6 18.5 14.1 10.2 7.6 6.3 5.8 6.2 7.1 15.1 23.7 9.5 5.3 6.6 6.2 7 4.3 17.5 30.8 30.4 33.5 34.4 30.4 27.1 25.1 26.5 28.3 29.2 30.5 31.7 46.2 65 84.7 91.5 61 37.9 39.3 30.9 25.3 18.8 15 19.6 24.4 24.7 29.5 29.7 26.6 27.1 23.7 24 15.1 16.7 15 10.9 6.6 4.9 4.7 4.9 5.2 5.4 5.8 6.5 5.1 4.7 4.7 5.4 5.5 5 5.1 5.2 5.3 5.4 5.5 5.5 5.8 6.3 6.5 6.5 7.5 8 8.5 8.7 8.8 8.9 9 8.3 7.5 6.2 4.9 4.7 4.8 4.9 5 4.7 4.6 4.6 5 5 5.1 5.2 -2.8 -2.8 6 5.9 5.9 6 6.2 6.5 6.7 6 6.1 -2.8 -2.8 -2.8 -2.8 -2.8 -2.8 6.3 6.3 6.1 6.1 6 5.9 5.8 5.7 5.6 5.4 5.3 5.2 5 4.9 4.9 5 5.2 5.3 5.3 5.4 5.5 4.9 4.9 4.8 4.6 8.3 14.8 19.7 26.6 33.2 35 40.4 38.6 26.1 17.8 20.7 27.7 37.3 47.2 57.3 68.9 80.9 90.8 100.5
193.9 204.2 216.3 219.8 217.6 215.2 219.8 215 202.6 198.5 193.6 188.4 182.2 177.8 172.8 168.3 164.3 159.9 156.4 141.1 128.7 114.7 98.7 82 62.9 44.8 29.1 16.9 9.4 7.6 8.7 9.4 12.4 21.5 27.7 32.9 27.3 23.9 28.5 24.1 19.3 15.3 9.9 6.9 10.4 7 5.5 6.4 11.9 14.8 9.6 4.2 5.6 3.8 6.1 4.7 7.6 29.2 29.4 32 35.7 32.1 29.3 25 24.9 26.2 27 27.9 28.4 36.8 52.6 72.5 88.4 59.6 39 39.1 35.7 27.8 19.4 14.8 16.9 22.2 25 25.6 22.3 24.2 23.4 22.3 15.6 13.3 14.8 16.3 15.4 9.9 4.6 4.5 4.6 4.8 5 6.3 4.6 4.5 4.7 4.9 5 5.6 5.2 5.3 5.3 5.4 5.5 5.5 5.6 5.7 6.7 6.8 6.9 7 8.4 8.6 8.7 8.7 8.8 8.9 8.3 7.5 6.2 4.9 4.7 4.8 4.9 4.6 4.3 4.8 4.7 5.2 5.3 5.3 5.5 -2.8 -2.8 -2.8 5.7 5.8 6 6.3 -2.8 -2.8 -2.8 -2.8 -2.8 -2.8 -2.8 -2.8 -2.8 -2.8 -2.8 -2.8 -2.8 6.3 6.1 5.9 5.8 5.7 5.5 5.4 5.3 5.1 5 4.9 4.8 4.9 5 5.1 5.2 5.2 5.3 5 4.7 4.7 4.6 10.2 18.6 25.4 33.8 35.9 36.7 39.9 33.3 21.5 16.6 22.4 29.8 38 47.1 56.4 68.1 79.2 88.7 94.6
201.1 212.4 220.3 221.5 217.1 220.5 217.7 209.8 202.1 197.9 192.8 186.2 177.9 173.3 168.5 163.4 158.4 157.1 153.1 145.3 130.2 117.1 101 82.3 63.4 51.1 34.8 19.7 8.7 8.6 9.2 9.5 19.8 25.3 31.9 34.6 32.1 31.8 31.5 22.9 21.1 19 11.6 12.2 14.6 6 5.4 5.9 11.1 12.1 7.6 5.2 4.7 4.6 5.2 5 6 24.6 30.3 31.5 37.7 34.9 31.5 25.8 23.2 25 26.6 27.7 29.6 31.3 39.3 57.5 76.2 56.6 32.4 37.2 38.4 31.7 20.5 11.2 11 16.2 21.2 20.2 20.2 19.7 19.7 19.6 16.1 13.7 21.4 20.2 20.2 7.5 4.7 4.4 5.7 6.2 4.1 4.2 4.3 4.4 4.6 4.9 5.1 5.4 5.3 5.4 5.5 5.5 5.5 5.5 5.7 5.8 6.3 7 8 8.6 8.5 8.5 8.5 8.6 8.7 8.7 8.3 7.3 6.1 4.9 4.7 4.7 4.8 2.8 4.4 4.5 4.8 5 5.5 5.6 5.5 -2.8 -2.8 -2.8 5.1 5.1 -2.8 -2.8 -2.8 -2.8 -2.8 -2.8 -2.8 -2.8 -2.8 4.2 -2.8 -2.8 -2.8 -2.8 -2.8 6.4 6 6 5.9 5.7 5.5 5.4 5.2 5.1 5 4.8 4.7 4.7 4.8 4.9 5 5.1 5.1 5.2 4.5 4.5 5.8 14.8 22.4 33.8 40.1 35.8 37.8 36.6 28.4 18.3 17.1 22.2 31.4 39 46.6 54.9 65.5 76 84.1 90.5
204.7 216.4 220.3 215.9 217.3 219.4 212.8 207 201 194.3 189.3 184.1 173.5 167.5 166.3 160.9 155.7 153.7 146.5 142 128.7 113.8 94.5 81.5 72.7 57.3 35.6 18 8.4 7.1 7.2 11.6 22.5 27.8 35.3 37.5 32.7 25.8 26.7 23.7 27.9 23.2 7.1 11.8 12.4 8.9 5.7 6.5 8.4 10.1 7.4 4.9 4.6 4.1 3.2 5.6 6.4 16 24.2 29.7 39.5 37 33.7 32.1 26.8 24.6 25.7 26.8 27.7 26.1 30.9 44.2 59.1 51.1 30 32.8 35.4 31.5 22.1 15.6 12.4 11.4 20.6 19.9 20.8 19.4 18.7 21.2 22.3 20.3 22.5 14.1 8.2 4.8 4.3 5.6 6.3 4.2 4.2 4.4 4.5 4.6 4.7 4.9 5.1 5.3 5.4 5.5 5.5 5.5 5.5 5.6 5.7 5.9 6.3 7.5 8.6 8.6 8.6 8.5 8.4 8.4 8.5 8.6 8.2 7.2 6 5 4.7 4.7 4.7 4.4 4.6 4.7 4.8 4.9 5.7 5.5 5.5 4.9 -2.8 -2.8 4.1 -2.8 -2.8 -2.8 -2.8 -2.8 -2.8 -0.5 0.7 3.3 4.3 4.7 5.1 4.8 -2.8 -2.8 -2.8 -2.8 6 6.1 6 5.9 5.7 5.5 5.3 5.1 4.9 4.8 4.7 4.6 4.7 4.8 4.8 4.9 5 5 4.7 4.5 7.1 18.1 26.8 39 39.5 36.5 36.5 32.1 23.5 15.8 18.1 22.7 31.2 38.6 45.8 54.8 63.6 72.3 78 84.2
207.1 212.1 217.1 217.4 215.7 213.7 207.8 202.1 193.9 191.1 187 177.8 170.3 166.5 164.5 160 153.8 151.3 142.1 138.7 124.1 105.9 96.8 92 81.5 61.8 36.3 17.7 8.8 7 7.2 11 19.1 26.9 31.2 30.5 26.9 25.4 23.3 27.8 26.3 18.7 6.6 6.5 8.6 5.7 3.2 5.5 5.6 7.7 6.3 4.6 4.4 4.2 4.8 4.6 4.9 9 19.2 26.8 36.7 37.3 37.9 35.5 30.5 21.8 22.6 24.4 26.9 25.5 20.7 35.9 47.4 38.2 28.1 27.6 30.3 28.4 22.7 17.7 18.3 8.9 16.1 16.8 16.7 17.5 18.3 20.2 22.9 18.3 16.6 15.9 9.2 5.7 3.3 6.3 4.4 4.4 4.4 4.5 4.7 4.8 4.9 5.1 5.2 5.4 5.6 5.5 5.5 5.6 5.6 5.6 5.8 6 6.6 7.7 8.7 8.7 8.6 8.5 8.4 8.3 8.4 8.4 8.2 7.1 6 5.5 5.1 4.9 4.8 4.1 4.6 4.7 4.9 4.8 5.6 5.6 5.7 5.6 -2.8 -2.8 -2.8 -2.8 -2.8 -2.8 -2.8 2.4 3.5 3.1 3.3 4.5 5.2 5.5 5.8 5.8 -2.8 -2.8 -2.8 -2.8 6 6.1 6.1 6 5.9 5.6 5.4 5.2 5 4.8 4.6 4.5 4.5 4.6 4.7 4.7 4.8 4.9 4.9 5.8 10.3 21.5 32.6 39.7 37.4 35.1 33 26.2 17.5 14.5 15.8 22.4 29.8 36.9 44.9 52.2 60.7 68.1 73.1 78.3
201.1 214 216.4 217.4 210.4 205.9 198.5 195.2 193.9 192.6 184.8 174.3 168.8 167.5 162.1 155.2 154.9 144 133.1 126.2 117.2 111.6 104 101.5 91.4 61.5 40.9 22.4 10.4 7.9 7.3 8.7 21.9 23.1 21.8 22.9 24.1 27.1 32.7 26.2 23 15 6.3 5.1 6.2 5.8 5.8 5.5 5.2 4.8 4.8 4.7 5.2 4.3 2.7 4.9 5.2 6.3 17.3 26.1 33 37.3 38.8 34.6 31.9 27.8 21.7 20 21.6 22.8 17.1 26.6 39.9 31 26 23.8 25.8 25.9 21 17.7 17.2 12.4 8 15.5 13.9 15.9 16.6 23 23.5 17.9 14.4 15.6 8.3 5.2 6.1 4.8 4.6 4.6 4.7 4.8 4.8 5 5.1 5.2 5.4 5.6 5.9 6.2 5.9 5.6 5.6 5.7 5.9 6.2 7 7.9 8.8 8.7 8.7 8.6 8.5 8.4 8.3 8.3 8.2 7 6.5 6.1 5.6 5.2 5 4 4.5 4.9 5 5.1 4 6 6.5 6.5 -2.8 -2.8 -2.8 -2.8 -2.8 2.4 3.8 3.8 3.8 3.8 4.1 5.5 5.1 4.8 4.8 4.8 3.9 -2.8 -2.8 -2.8 -2.8 6.1 6.1 6.1 6 5.8 5.6 5.4 5.2 5 4.8 4.6 4.2 4.2 4.3 4.3 4.6 4.9 5.3 6 12.8 23.7 33.4 36.3 33.2 30 27.5 19.8 12.3 13.6 17.6 21.5 27.3 36.2 42 49.9 57.5 63.8 69 73.8
203.9 210.5 207.2 210.4 200.3 194.6 192.1 191.5 193.2 193 178.8 169.2 169 163.7 156.9 152.6 148.8 136.2 128.3 126.9 126.2 119.6 115.1 112 87.7 63.7 42.1 29.4 17.9 11.3 9.1 8.4 11.3 11.7 13.2 13.3 15.9 27.9 29.2 24 21.9 15.7 5.1 5.2 5.5 5.5 5.5 6 5.1 4.8 4.7 5.5 5.4 3.9 2.7 4.6 5.8 5.6 17.2 24.6 30.7 36.9 36.2 32.2 30.2 29.7 22.2 19.4 17.3 16.1 12.1 18.2 34.4 32.5 25.8 22.4 23.7 23.2 17.6 17.3 15 15.3 9 11.3 13.1 16 20.3 29.2 20.9 19.8 10.5 12.1 6.5 6.1 5 5 4.8 4.8 4.9 5 5.1 5.2 5.2 5.4 5.6 5.9 6.2 6.5 6.8 6.4 6.3 5.8 6.1 6.6 7.4 8.2 8.9 8.8 8.7 8.6 8.5 8.4 8.3 8.2 8.2 7.5 7 6.6 6.2 5.7 5.3 4.3 4.9 5.4 5.6 5.7 5.4 6.4 6.9 6.8 -2.8 -2.8 -2.8 -2.8 4.3 4.4 4 3.8 3.8 4 5.7 5.4 5.1 4.7 4.4 4 3.8 3.8 -2.8 -2.8 -2.8 6.2 6.1 6.1 6.1 6 5.8 5.6 5.4 5.2 4.8 4.2 3.7 4 4.3 4.6 4.9 5.2 5.7 5.3 15.2 22.8 30.6 31.8 28.5 24.8 21.5 13.1 11.9 14.8 18.4 23.3 25.9 32.9 41.1 46.3 54.1 58.9 63.6 68.2
200.4 204 202.1 197.2 192.7 189.3 186.3 186.4 187 185.1 173.4 166.3 160.3 158.7 157.2 152.7 145.7 136.7 134.4 135.3 133.4 131.8 128.9 114 90.6 64.8 46.2 33.5 23.3 14.2 9.6 8.5 7.9 7 9.5 9.5 12.9 15.7 21 16.2 15.8 9.2 5.6 5.3 5.3 5.8 5.2 5.2 6.1 5.2 5.2 6.4 5.6 4 3.6 3.9 5.9 6 11.4 22.9 30.5 35.8 33.4 29.6 29 24.9 20.3 16.6 15.3 9.4 7.7 13.2 27.3 30.6 26.8 21.1 21.7 22.2 17.8 16 14 16.5 9.1 7.8 11.8 12.8 22 29.5 20.6 17.5 10.9 6.3 6.7 4.7 4.7 5.1 5.1 5.1 5.1 5.2 5.3 5.4 5.5 6.1 5.9 6.2 6.4 6.7 7 8.2 7.6 6.8 6.8 7.6 8.2 8.9 8.9 8.8 8.7 8.6 8.6 8.5 8.4 8.3 8 7.2 6.8 6.4 6.1 5.7 5 4.7 5.4 5.9 6.1 6 5.8 6.2 6.1 6.2 6 -2.8 -2.8 -2.8 3.8 3.8 3.8 3.9 3.9 4.4 5.7 5.4 5.1 4.8 4.4 4.1 4 5.2 3.1 -2.8 -2.8 -2.8 6.2 6.2 6.1 6 6 5.8 5.6 5 5.2 5.4 3.7 4.3 4.5 4.8 5.1 5.6 6 7.1 17.1 22.5 26 27 23.1 19.7 15.7 11.4 11.7 16.6 19.5 23.8 27.6 31.4 35.4 45.9 48.5 52 57.8 62
196.5 202.6 190.9 190.9 187.4 184.3 182 182.8 178.9 172.9 161.6 159.7 156 156.4 156.4 150.8 143.1 142.7 140.3 142.1 144.8 144.7 139.7 118.8 92.4 65.5 46.5 34.4 25.7 19.9 9.3 8.4 8.2 11.5 8.9 6.3 6.3 9 15.4 14.8 9.6 5.4 4.9 4.6 3.8 7.2 8.9 7.5 11.4 6.6 6.7 8.6 5.7 4.4 4.5 4.6 5.6 5.4 6.1 20.8 28.8 35.4 33.6 30 26.9 24.2 20.5 14.2 11.9 9.2 5.5 7.3 21.4 27.7 26 21.1 20.4 20.9 18.2 14.2 14.1 16.4 18.1 7.7 8.3 10.6 18.6 20.7 18.6 10.9 7.2 6.7 3.5 4.8 4.9 5.1 5.2 5.3 5.4 5.5 5.6 5.7 5.8 6.8 7.1 6.9 6.7 7.6 8.4 9.2 9.2 9 8.8 8.7 8.9 9.1 9.1 9 8.8 8.7 8.6 8.5 8.4 8.3 7.8 6.2 5.8 5.4 5.1 5.3 2.8 4.8 5.5 6.2 6 5.9 5.7 5.8 5.8 5.9 7.1 6.3 5 3.8 3.8 3.8 3.8 3.9 4.2 5.9 5.7 5.6 5.3 5 4.6 4.3 3.8 3.8 3.8 -2.8 -2.8 -2.8 6 6 6 6 6 6 5.9 5.7 5.6 5.5 3.7 4.4 4.8 5.1 5.5 5.9 6.1 9.3 16.9 19 20.9 20.6 17.2 13.6 11.1 11.1 12.3 16.7 20.3 24.7 27.6 30.2 36 37.3 43.2 48.1 50.5 55.6
193.3 195.2 187 183.9 186.3 178 173.1 172.1 168 160.8 157.2 155.7 155.6 155 154.1 151.8 152.1 150.5 150.2 153.3 154.9 155.8 143.1 119.4 94.6 71.7 48.9 39 35.7 20.3 11.5 10.5 9.5 14.2 12.3 8.2 6.4 6.1 14.7 13.4 9.6 6.8 4.8 4.8 4.3 8.6 11.9 5.5 7.4 6 5.3 4.7 4.8 5.1 5.1 5.1 5.3 5.6 5.5 14.5 24.8 34.5 32.2 28.1 25.1 23.9 21.5 14.5 10.3 7.5 5 5.4 10.6 21.7 24.4 19.1 20 23 18.3 15.4 15.3 13.5 19 15 5.1 9.5 14.7 16.7 11.9 5.9 6.1 4.4 4.6 5 5.2 5.3 5.4 6.3 6.5 6.4 6.2 6.1 6.1 7.4 8.3 8.1 7.5 7.7 8.5 9.3 9.3 9.1 9 9 9.1 9.3 9.3 9.2 9 8.9 8.7 8.5 8.4 8.4 7.7 5.8 4.8 4.9 5 5.2 3 5.3 5.9 5.9 5.7 5.6 5.7 5.7 5.8 5.6 5.5 6.5 6.2 5.9 3.8 3.9 3.8 3.8 4.3 5.9 5.8 5.6 5.5 5.1 4.8 4.5 4 3.8 3.8 3.8 -2.8 -2.8 -2.8 6.3 6.3 6.3 6.1 5.9 5.7 5.6 5.6 5.6 3.8 4.8 5.1 5.4 5.5 5.6 5.7 12.8 15.3 14.9 15.2 13.4 11.2 9.8 10.7 11.9 13.1 16.4 18.7 22.5 25.7 27.7 33.5 37.2 40.2 42.9 44.9 47.5
182.7 181.7 179 176.2 177.1 171.2 164.4 164.2 161.6 156.9 157 157 156.6 156.2 157.9 158.6 157.8 158 160.3 162.8 163.4 162.6 146.6 127.7 104.6 83.5 54.8 47.6 39.5 26.4 13.9 11.2 11.3 13.9 8.9 6.6 6.1 5.8 15.1 16 19.3 12.5 5.6 5.6 3.5 7.1 6.3 5 5.7 6.4 5.5 4.6 4.9 6.8 6.4 5.8 5.6 5.8 6.1 7.5 19.1 32 29.8 26.6 23.4 22.3 21.8 16 10.2 7.1 5.1 6.5 6.5 12 19.1 18.6 20.9 25.7 19.6 16.5 14 16 21.3 19 6.8 5.7 8.9 12 7.2 4.9 4.9 4.5 4.8 5.3 5.4 5.6 5.7 6.7 7.7 8 7.8 7.6 7.6 8.6 9.4 9.1 8.4 7.8 8.6 9.4 9.4 9.3 9.2 9.3 9.4 9.5 9.6 9.4 9.2 9.1 8.9 8.8 8.6 8.4 7.3 4.9 4.7 4.9 5.1 5.3 2.8 5.5 5.7 5.5 5.5 5.5 5.6 5.6 5.7 5.8 5.7 6.4 6.1 5.8 5.4 5.6 6.2 6 5.9 5.7 5.7 5.7 5.6 5.3 5 4.6 4.1 3.8 4.2 4 -2.8 -2.8 -2.8 6.5 6.6 6.4 6.1 5.9 5.6 5.4 5.1 5.1 4.4 5 5.2 5.3 5.3 5.5 5.6 10.5 11.4 9.9 9.5 7.6 8 8.8 11.6 12.7 13.4 14.5 16.6 20.2 24.2 26 27.7 34.3 38.8 43.5 44.5 46
178.5 171.8 173.1 165.7 163.6 157.2 154.3 160.5 154.2 155.8 158.1 162.5 161.5 160.1 161.1 164.8 165.5 167.3 168.1 168.7 173.1 169.2 157.5 137.6 121 89 61.1 48.5 40.2 26.8 13.4 12.7 10.5 10 9.4 6.4 5.7 6.3 20.4 28.9 26.5 10.1 5 5.5 3.9 5.5 6.1 6.7 5.3 5 5.8 5 4.9 7 8.5 8 7.8 7.7 7.1 6.4 11.4 24.9 28.4 26.2 23.6 21.7 21.1 16.4 10.1 7.6 7.1 9.9 6.4 6.3 8.7 16.6 21.2 25.7 19.5 16.8 18.3 17.5 21.1 20.6 11 4.7 5.7 6.2 5.3 7.3 4.5 4.5 4.7 5.1 5.7 5.8 6 7.1 8.1 9.1 9.4 9.1 8.7 9.1 9.9 9.9 9.2 8.5 8.8 9.6 9.6 9.4 9.4 9.5 9.6 9.7 9.8 9.6 9.4 9.2 9 8.7 8.5 8.1 5.7 5 4.9 4.7 5 5.2 4.4 5.5 5.4 5.3 5.4 5.4 5.5 5.6 5.6 5.7 5.7 6.8 6 5.7 5.4 6 6 5.8 5.7 5.6 5.6 5.6 5.6 5.5 5.2 4.8 4.2 3.8 5.1 4.8 1.6 -2.8 -2.8 -2.8 6.6 6.3 6.1 5.8 5.6 5.3 5.1 4.8 4.6 4.9 5.2 5.2 5.3 5.4 5.5 8.4 7.8 7 7 7.3 7.5 9.2 12.4 13.3 12.9 13.1 13.6 18.2 22.9 25.3 26.4 28.8 37 43.9 43.4 45.1
164.2 161.3 159.8 155.6 148.7 145.5 150.4 153.9 151.3 156.5 163.1 163.8 165.2 164.7 168.3 175.5 176.3 177.8 178.6 176.5 179.1 175.3 165.1 149.3 120.9 93.5 65.2 50 37.5 25.5 13.4 10.8 13.4 12.5 14.2 10.9 6.1 7.4 20 25.9 15.6 6.3 5.1 5.1 5.1 5.7 7 6.4 5.2 4.4 5.4 5.8 5.1 5.7 6.9 8.5 9.4 8.8 8.1 7.3 6.1 15.9 24.4 25.9 23.4 21.3 19.8 15.7 9.6 7.1 7.8 10.6 9 6.4 6.1 9.5 21.3 25 19 23.1 21.4 15.4 19.9 15.9 8 6 5.2 5.2 5.4 4.4 4.6 4.6 4.7 4.9 5.6 6.1 6.4 7.5 8.5 10.8 9.7 9.2 9.2 9.6 9.9 10 10 9.4 8.9 9.7 9.7 9.6 9.7 9.8 9.9 10 9.8 9.5 9.2 9 8.7 8.4 8.4 6.4 5.7 5.2 5 4.8 4.8 5 5.6 5.2 5.2 5.2 5.3 5.4 5.4 5.5 5.5 5.6 5.7 5.5 6 5.7 5.8 5.9 5.7 5.6 5.4 5.3 5.4 5.4 5.4 5.4 5.4 4.9 4.4 3.9 3.8 4.7 1.8 -2.8 -2.8 -2.8 6.5 6.3 6 5.8 5.6 5.3 5.1 4.8 4.6 4.9 5.2 5.3 5.4 5.5 5.6 8.6 7.5 6.4 6.8 7.4 7.6 8.8 10 11.8 12.4 12.4 13.9 18.2 22.1 25 25.7 27.4 33.8 40 40.5 42.4
149.8 156.3 153.7 144.2 136.6 136.6 143.2 145.2 154.8 159.3 164.1 167.1 171.4 173.5 178.6 185.6 187 187.9 186.4 183.9 183.6 176.2 163.6 148.4 125 99.7 72.7 56.2 41 30.8 16.8 9.3 11.6 10.7 13.6 11.9 5.5 6.1 11.3 15.3 9.3 6.8 4.9 5.2 5.5 5.8 7 5.4 5.3 4.9 5.7 7.7 5.9 6.6 7.7 9.6 10.1 9.8 9.2 8.1 10 11 13.9 18.4 23.4 21.6 17.7 14.6 9.7 6.8 6.6 10.7 9.3 6.5 6 6.7 18.4 28.4 24.2 24.4 19.4 8.9 15.9 10.7 7.3 6.5 5.3 4.5 7.9 4.6 3.1 4.8 4.8 4.8 5.4 6.1 6.8 8.9 11.1 12.1 9.9 9.8 9.8 10 10 10 10 10.1 9.5 9.8 9.8 9.9 10 10 9.9 9.7 9.7 9.3 8.9 8.7 8.4 8.3 7.4 6.7 6 5.3 5.2 5 4.8 4.9 5.3 5.1 5.1 5.1 5.2 5.3 5.3 5.4 5.4 5.4 5.4 5.5 5.6 5.8 5.7 5.6 5.5 5.3 5.2 7.3 6.2 5.8 6.1 5.7 5.5 5 4.6 4.1 3.8 3.8 1 -2.8 -2.8 -2.8 6.6 6.5 6.3 6.1 5.9 5.7 5.4 5.2 4.9 5 5.3 5.4 5.6 5.7 5.8 7.4 6.6 5.9 6.6 7.3 7.7 7.9 8.8 9.6 10.9 12 13.9 17.2 23.1 25.9 26.4 29 32.4 36.7 39 41.3
140.9 144.8 145.5 134.3 128.7 133 138.7 148.7 156 160.6 168.2 174.8 177.6 183.7 189.4 197.2 197.2 194.8 192.2 189.6 184.1 172.6 160.8 146.8 131 105 78.2 60.5 43.7 31 16.6 9.3 8.7 10.3 8.3 6.4 5.3 5.3 5.4 5.4 5 4.6 4.7 5.1 5.4 4.8 5.5 6.4 5.6 5.5 5.8 6 7.2 7.1 8.9 10.1 10.2 10.3 10.3 9.8 9.4 9 7.9 12.4 22.3 20.9 17.1 13.9 10.8 7 6.5 9.8 9.4 6.8 5.6 6.4 16.3 27 30.5 34.5 16.9 7.8 14.5 12 9.3 6.5 5.3 7 4.1 4.7 4.9 4.9 4.9 5.5 6.5 7.1 8.3 11.4 15 12.1 9.8 9.8 9.8 9.9 10 10 10.1 10.1 10.2 10 10.1 10.1 10 9.8 9.7 9.5 9.5 9.5 8.8 8.4 8.3 8.4 7.6 6.9 6.2 5.5 5.3 5.2 5 4.9 5.1 4.9 5 5 5.1 5.2 5.1 5.2 5.3 5.4 5.5 5.5 5.6 5.6 6.5 5.4 6.1 5.5 5.5 5.7 8.5 6.4 6 5.8 5.6 5.1 4.5 4.2 3.8 3.6 -0.2 -2.8 -2.8 -2.8 6.3 6.3 6.2 6.2 6.1 6.1 5.9 5.7 5 5.1 5.3 5.5 5.6 5.8 5.9 5.9 5.7 6 7.1 7.4 7.8 10.1 11.4 11.7 13.4 16 16.7 17 24 27.1 30.9 35.1 37.2 39.8 40.4 40.9
136.4 134.4 133.3 127.3 125.6 132.9 143.6 155.3 161.6 167.6 174.3 182.8 187.7 194 202.2 204.5 205.3 201.2 197.2 192 184.4 171.5 158.7 153 136.2 105.9 78.9 63.6 48.2 36.9 23.7 11.7 8.2 10.3 9.5 5.4 5.3 5.3 5.4 5.4 5.1 4.7 4.7 5 5.4 5 5.6 7.5 6.4 5.4 5.6 5.7 7.1 7.4 8.5 9.3 9.7 10.2 10.4 10.2 9.9 9.5 8.4 9.3 19 19.8 17 11.5 12.5 7.8 6.8 8.4 8.1 7 5.4 6.3 10.9 24.8 28.4 34.7 37.2 14.7 13 12 12.5 10.5 6.2 8.5 4.3 4.6 3.6 5.3 5.9 6.5 8 7.9 8.6 12.1 13.7 10.6 9.6 9.7 9.8 9.9 9.9 10 10 10.1 10.2 10.2 10.1 9.9 9.8 9.6 9.5 9.3 9.3 9.4 8.4 8.5 8.6 8.5 8.3 7.5 6.8 6 5.6 5.4 5.3 5.2 5 4.8 4.9 4.9 5 5 5.1 5.2 5.3 5.4 5.4 5.5 5.5 5.6 5.6 5.5 5.5 5.5 5.5 5.7 8.1 6.3 6.1 5.9 5.7 5.4 4.4 4.1 3.9 1.9 -2.8 -2.8 -2.8 6.3 6.3 6.2 6.2 6.1 6 6 5.9 5.7 5 4.8 5.2 5.4 5.5 5.7 5.8 5.8 5.6 6.1 7.3 8.3 9.1 10 12.1 13.3 14 15.1 18.8 20.4 24.3 27.7 33.5 36.9 40.5 42.6 43.5 42.4
127.1 128.6 125.7 121.9 126 140.4 151.6 155.8 165.6 177.7 181.8 187.8 194.6 205.6 211.9 212.8 211.4 207.8 200.1 194.2 185.2 174.1 168 151.6 128.2 103.9 82.8 65.7 52.9 41.2 26.9 15.4 7.2 7.2 6.9 5.4 5.3 5.3 5.4 5.4 5.2 4.8 4.8 4.9 5.3 5.7 5.6 6.2 5.7 5.5 5.5 6.4 6.9 8.2 9 9.6 10 10.3 10.5 10.3 10.1 9.9 9.8 11.7 17.6 18.7 16.5 11.1 10.7 8.3 7.4 9.5 9.3 8.2 6.3 6 8.8 22.5 28.2 31.2 38.6 16.4 8.3 10.8 11.8 10.5 8.7 4.1 4.6 4.9 3.2 5.7 6.6 7.5 7.8 8 8.7 10.4 10.8 9.4 9.5 9.6 9.8 9.8 9.9 9.9 10 10.1 10.1 10.1 9.9 9.8 9.6 9.4 9.3 9.1 9.1 8.2 8.2 8.6 8.5 8.4 8.3 8.2 7.4 6.6 6 5.7 5.4 5.2 5 4.7 4.8 4.9 5 5 5.1 5.2 5.3 5.3 5.4 5.4 5.4 5.5 5.5 5.4 5.4 5.4 5.5 5.6 8.2 6.2 6.2 6.1 5.9 5.7 4.8 3.9 2.6 0.3 -2.8 -2.8 -2.8 6.4 6.4 6.3 6.2 6.2 6.1 6 5.7 5.2 4.7 4.5 4.9 5.2 5.4 5.5 5.7 5.7 5.5 6.1 6.8 7.5 8.6 10.5 12.1 12.7 13.4 13.8 16.4 19.8 25.7 28.7 33.1 36.2 39.7 42 44.3 46.8
120.2 121.7 121.2 121.5 126.9 140.5 146.9 158.1 172.1 181.5 183.3 188.3 203.1 210 210.4 216.1 212.9 211 206.9 198.2 185.6 182.8 164.8 141.5 123.4 103.9 86 68.3 55.5 45.5 31.7 16.4 9 6.9 5.9 5.5 5.3 5.3 5.4 5.4 5.3 4.9 4.9 5 5.2 5.6 5.5 5.7 5.5 5.3 5.4 5.8 6.3 8.1 9.3 9.9 10.2 10.4 10.5 10.4 10.2 10.1 8.9 7.4 9.7 14.9 17.4 11.8 9.7 8.5 7.8 9.9 10.6 9.2 7.2 5.7 6.7 19.5 27.2 24.5 29.7 12.9 6.8 11.4 13 9.3 8.7 4.4 5 5 4.9 5.3 5.9 6.1 5.9 6.1 7.7 7.6 7 9.3 9.5 9.6 9.7 9.8 9.8 9.9 9.9 10 10 9.9 9.6 9.6 9 9.4 9.1 8.9 8.2 8.7 8.6 8.5 8.6 8.5 8.3 8.1 8 7.1 6.4 6.1 5.8 5.6 5.1 4.6 4.8 4.9 4.9 5 5.1 5.2 5.2 5.3 5.3 5.3 5.4 5.4 5.4 5.3 5.3 5.3 5.4 5.5 7.9 6.4 6.2 6.1 5.9 5.8 5.1 3.4 1.2 -2.8 -2.8 -2.8 -2.8 6.5 6.5 6.4 6.3 6.3 6.2 5.8 5.2 4.7 4.2 4.2 4.6 5 5.3 5.4 5.5 5.6 5.5 6.4 7.5 8.4 8.9 10.8 11.5 12.2 12.8 13.7 15 18.3 23.9 28.8 30.6 34.1 38.1 42.6 47.1 47.3
117.7 119.7 121.3 121.7 124.4 129.3 141.3 157.6 168.2 177.2 174.8 183.4 198.1 203.8 211.6 216.4 219 215.3 208.5 196.1 189.4 182 162.5 141.3 116.5 102.3 86 71.3 57.6 48.7 34.3 20.8 11 9.8 7.3 5.7 5.4 5.3 5.3 5.4 5.4 5 5 5.1 5.2 5.5 5.8 5.6 5.5 5.5 5.4 5.8 6 7.7 9.7 10 10.2 10.4 10.6 10.5 10.3 9.6 8.2 7.6 7.5 11.1 20.4 13.2 11.3 9.5 8.7 9.8 10.6 9.7 7.9 6 6.7 15 24.8 23.5 22 7.1 6.8 6.9 9.4 8.8 5.1 5.1 5.1 5.2 4.8 5.4 6.8 6.9 6.3 5.8 6.2 6.7 6 8.9 9.5 9.6 9.7 9.7 9.8 9.8 9.8 9.8 9.8 9.8 9.6 9.4 9.2 8.6 8.2 9 9 9 8.9 8.7 8.7 8.7 8.5 8.4 8.1 7.7 6.7 6.5 6.2 5.5 4.8 4.4 4.8 4.9 4.9 5 5.1 5.2 5.2 5.2 5.2 5.2 5.3 5.3 5.3 5.2 5.2 5.2 5.2 6.8 6.4 6.4 6.3 6.1 6 5.8 4.3 2.2 0 -2.8 -2.8 -2.8 -2.8 6.6 6.5 6.5 6.4 6.3 5.8 5.3 4.7 4.5 4.2 4.1 4.4 4.7 5.1 5.3 5.4 5.6 6.6 7.6 7.6 8.3 9.6 10.9 11.6 11.9 12.3 13.4 14.7 17.3 21.4 26.4 30.5 32.8 38.8 45.1 51.7 50.7
123.1 123.2 123.6 123.5 125.5 125.3 127.3 136.2 143 161.2 171 171 191.3 204.4 210.7 216 214.7 214.1 207.9 198.1 187.9 174.2 155.3 131.1 115.9 103.1 90 75 61.3 51.7 41 30.6 20.4 16.6 13.8 6.6 5.6 5.5 5.3 5.3 5.4 5.1 5.1 5.2 5.3 5.4 5.8 5.3 5.2 5.1 5.4 5.5 5.7 7.4 9.6 10.1 10.3 10.5 10.7 10.6 10.4 9 8.5 8.3 8.1 7.3 18 15.6 13.7 11.7 10.7 12.2 14.7 11.9 8.1 7.4 6.8 8.4 21.6 20.5 19.6 6.1 6 5.6 6.7 8.8 6.2 5.2 5.2 5.2 5.2 5.5 6.2 6.8 6.1 5.5 5.5 5.6 6.4 8.4 9.4 9.5 9.6 9.7 9.7 9.7 9.7 9.7 9.7 9.7 9.5 9.1 9.1 9.3 9.2 9.2 9.1 9.1 9 9 8.9 8.9 8.7 8.6 8.1 7.7 7.1 6.5 5.8 5 4.8 4.5 4.6 4.9 4.9 5 5 5.1 5.1 5.1 5.1 5.2 5.2 5.2 5.2 5.2 5.1 5.1 5.1 6.3 6.3 6.2 6.2 6.1 5.9 5.6 3.5 1.1 -1.1 -2.8 -2.8 -2.8 -2.8 6.6 6.6 6.6 6.3 5.8 5.5 5.2 4.9 4.6 4.3 4.3 4.5 4.8 5.1 5.6 5.8 6 8.8 10 11 10.5 11.7 12.6 14 13.3 13.1 13.1 14.5 16.6 20.3 23.9 30.6 34.3 40 46 53.5 51.9
129.1 128.3 127.7 127.8 127.4 124.6 124.3 125.1 131.5 144.4 151.1 168.7 181.2 205.9 204.8 207.4 210.2 209 197.3 184.6 176.2 165 151.9 130.2 117.1 102.9 92.3 83.4 65.6 53.8 43.3 36 26.9 20.9 15.9 8.6 5.9 5.1 5.5 5.3 5.4 5.2 5.2 5.3 5.4 5.5 5.8 5.7 5.4 5.4 5.3 5.7 5.6 6 8.3 9.1 10.4 10.6 10.8 10.7 9.7 9.4 9.1 8.9 8.8 7.4 10.2 15.8 16.9 13.9 12.8 14 15.4 13.2 9.6 8.4 7.7 6.4 15.4 18.9 16.3 7.1 5.9 5.2 8.6 6.2 6.3 6.2 5.7 5.3 5.2 5.4 6 6.4 6 5.3 5.4 5.8 6.8 9 8.9 9.5 9.6 9.6 9.6 9.6 9.6 9.6 9.6 9.5 9.4 8.8 9.4 9.4 9.4 9.3 9.3 9.3 9.2 9.1 9.1 9 8.9 8.6 8.2 7.7 7.3 6.4 5.6 5.1 5.1 4.7 4.8 4.9 4.9 4.9 5 5 5 5 5 5.1 5.1 5.1 5.1 5.1 5.1 5 5 4.8 6.4 6.3 6.2 6 5.9 4.9 3 0.4 -2.8 -2.8 -2.8 -2.8 -2.8 7.9 6.8 6.4 6.2 5.8 5.5 5.2 4.9 4.7 4.5 4.3 4.6 4.9 5.2 5.7 6.9 7.2 13.4 16.5 17.8 13.8 12.6 12.5 12.9 12.9 13.7 13.8 14.9 17 18.9 22 26 36.2 39.8 51.2 55.7 50.6
131.9 130.9 132.3 132.6 130.2 126 124.2 124.3 126.6 131.8 140.6 161.1 181 187.1 195 202.5 199.8 197.2 189.7 181.9 179.3 168.1 150.1 136 118.6 103.1 97.5 87.7 72.3 57.1 49.4 40.8 30.6 19.2 15.5 8.8 5.7 5.3 5.8 5.5 5.3 5.3 5.3 5.4 5.6 5.9 3.6 5.8 5.7 5.8 6.5 5.9 5.4 5.5 6.3 7.9 8.8 10.1 10.9 10.5 10.2 10 9.8 9.6 9 7.5 5.5 14.3 17.4 16.5 14.9 14.2 15 14.9 13.8 9.5 7.9 6.3 7.2 13.9 11.8 9.9 6.1 8.2 5.7 5.8 5.8 5.8 5.8 5.8 5.4 5.4 5.7 5.8 5.7 5.3 5.9 6.9 7.9 8.9 9.3 9.4 9.5 9.5 9.5 9.5 9.5 9.5 9.5 9.4 9.2 9.3 9.5 9.4 9.4 9.3 9.3 9.3 9.2 9.2 9.2 9.1 9.1 8.7 8.3 7.9 7.3 6.5 5.9 5.6 5.4 4.2 5.1 4.9 4.9 4.9 4.9 4.9 4.9 4.9 5 5 5 5 5 5 5 4.9 4.8 4.7 6.2 6 5.9 5.6 5.3 4.5 2.3 -0.5 -2.8 -2.8 -2.8 -2.8 -2.8 6.2 8.1 6.5 6.1 5.8 5.6 5.3 5.1 4.8 4.5 4.4 4.7 4.9 5.2 5.8 7.7 10.8 17.1 22.8 22.9 16.3 13.1 12.4 12.7 13.8 14.9 15.7 16.5 17.5 19.3 21.7 26.5 33.7 46.2 52.6 54.7 49.2
130.1 133.9 136.4 137.7 135.4 128.6 124.9 125.1 124.4 126 132.9 155.5 167.1 172.4 191.2 192.9 195.6 192.5 187.4 180.6 175.6 167.7 153.9 137.8 122.5 111.7 104.4 93.1 76.5 62.6 54.2 46.3 28.8 21.1 17 8 5.5 5.2 4.8 5.8 5.5 5.3 5.4 5.6 5.4 5.5 5.6 6 6.4 7.4 7.6 5.7 7 6.6 6.1 7.2 9.1 9.7 10.7 10.9 10.8 10.6 10.4 10.2 9 7.5 6.1 8.6 17 18.6 19.3 18.9 18.2 18 19.5 14.8 10.1 7 4.9 5.2 4.7 5.7 5.6 7 5.4 5.4 5.3 5.3 5.3 5.3 5.3 5.1 5.3 5.2 5.2 5.4 6.2 7.1 7.9 8.7 7.9 7.9 9.1 9.4 9.4 9.4 9.3 9.3 9.3 9.3 9.3 9.4 9.5 9.5 9.4 9.4 9.3 9.3 9.3 9.2 9.2 9.1 9 8.8 8.4 8 7.4 6.6 6.4 6.2 6 3.4 5.4 5 4.8 4.8 4.8 4.8 4.8 4.8 4.9 4.9 4.9 4.9 5 4.9 4.9 4.8 4.8 4.8 5.8 5.6 5.2 4.9 4.5 4 1.5 -0.5 -2.5 -2.8 -2.8 -2.8 -2.8 5 6.3 7.5 6.1 5.9 5.6 5.4 5.2 5.1 4.7 4.2 4.5 4.8 5.2 7.5 12.2 15.1 20.2 28.8 27.9 19.5 16 14.7 14 15 17.6 20.5 20.5 18.9 21.2 22.8 29.1 39.2 49.2 52.8 51.5 45.1
138 137.9 139.2 141 138.5 132.7 128.5 127 126 124.1 127.6 141.3 155.3 167.9 179.7 185.6 193 195.3 193.3 186.7 177 172.2 159.1 143.2 129.9 124.2 111.6 96.8 82.7 72.1 61.5 46.7 32.1 23.6 18.8 9.9 5.9 5.4 5.2 5.8 5.6 5 5.3 5.6 5.8 6 6.2 4.4 7.7 7.6 8.5 10.2 10.7 9.7 7.8 8.1 8.8 9.9 10.8 11 10.9 10.8 10.6 10.5 9.8 7.9 7.2 6.9 20.8 19.5 22.4 23.7 21.3 20.3 21.1 19.6 15.2 8.7 6.1 5 4.9 5.3 7.8 5.1 5.3 5.3 5.2 5.2 5.1 5.1 5 5 5 5 5.1 5.5 5.2 6.2 7.3 8.9 8.4 6.5 7.8 8.6 9.3 9.3 9.3 9.3 9.3 9.4 9.4 9.5 9.6 9.5 9.4 9.4 9.3 9.3 9.3 9.2 9.2 9.2 9 8.8 8.5 8.1 7.4 7.2 7 6.7 6.2 3.4 5.2 5 4.8 4.8 4.8 4.8 4.8 4.8 4.8 4.8 4.8 4.8 4.9 4.9 4.8 4.8 4.9 5 6.3 5.2 4.9 4.5 4.1 3.4 1.7 0.2 -1.8 -2.8 -2.8 -2.8 -2.8 4.6 5.6 6.3 6.6 6 5.9 5.8 5.7 5.1 4.7 4.2 4.4 4.9 5.6 8.4 14 18.3 24.7 33.8 30.3 20.8 17.8 15.7 14.4 14.5 17.4 19.2 19.6 19.7 21.6 24.2 31.3 41.3 48.6 47.7 41.8 38.1
139.6 141.1 135.6 135.9 141.5 136.4 133.2 130.4 127 124.9 127.2 135.1 154.6 168.8 182 189.9 198.2 199.8 191.7 186.1 182.5 176.1 167.1 152.7 140 129.1 116.5 101.1 90.3 80.6 65.6 51.2 40.1 26.4 17.3 9.1 5.9 5.2 5.7 5.7 5.5 5.4 5.4 5.4 5.4 5.7 6.1 5.7 6 9.2 12.7 13.5 13.6 12.2 9.5 8.7 9 10.1 10.9 11.1 11 10.8 10.7 10.6 10.5 9.5 7.7 7 25.1 25.1 23.4 22.6 25.7 23.6 21.2 20.3 17.3 13.5 10.3 7 5.2 7.5 5 5 5.2 5.2 5.1 5.1 5 5 4.9 4.8 4.3 4.7 5.1 5.6 6 5.3 6.3 8.9 7.9 6 6.3 7.3 8.2 9 9.2 9.4 9.4 9.5 9.5 9.6 9.6 9.5 9.5 9.4 9.4 9.3 9.3 9.3 9.2 9.2 9 8.7 8.5 8.2 7.8 7.3 6.8 6.4 5.9 4.7 5.3 5.1 4.9 4.8 4.8 4.8 4.8 4.8 4.8 4.8 4.8 4.8 4.8 4.9 5 5.1 5.2 5.3 7.1 5.3 4.8 4.4 4 2.7 1 -0.6 -2.8 -2.8 -2.8 -2.8 -2.8 4.4 5.2 5.6 5.9 6.3 6.4 6.1 5.7 5.3 4.8 4.5 4.6 5.3 5.9 9.4 15.1 20.1 29.3 35.4 29.3 19.4 16.7 14.9 13.1 14.2 15.4 16.6 18.4 20.3 21.9 24.9 32.6 41.3 44.1 38.2 40.3 42
140.3 143.4 140.6 136.4 136.8 139.8 136.8 133.5 128.8 125.1 126.9 141.1 156.3 169.9 189.5 195.2 201.7 196.5 191.7 192.7 188.3 183.2 173.2 158.7 147.6 128.9 118.8 106.8 98.5 86.2 71 58.4 42.4 28 15.3 6.8 6.1 5.4 5.5 5.6 5.4 5.4 5.4 5.5 5.6 5.7 5.3 5.8 5.6 5.9 13.8 15.1 12.1 10 8.8 9.6 9.2 9.6 11 11.2 11 10.9 10.8 10.7 10.6 10.5 9.3 8.1 13.3 22.4 19.9 19.8 25.7 25.4 24.5 22 16.4 12.6 9.6 7.3 6.7 5.1 5 5 4.9 5.1 5.1 5 5 4.9 4.8 4.9 4.9 4.8 5.2 5.6 6.3 5.8 5.3 7 6.3 5.5 5.8 7.5 9 9.2 9.3 9.4 9.5 9.6 9.5 9.6 9.7 9.6 9.5 9.4 9.4 9.3 9.3 9.3 9.2 9.2 8.9 8.7 8.4 8.2 7.5 7.2 6.8 6.4 5.9 5.5 5.3 5.1 4.9 4.8 4.8 4.8 4.8 4.8 4.8 4.8 4.8 4.8 4.8 5 5.2 5.5 5.7 5.8 5.9 5.5 4.9 4.4 3.8 2 0.1 -1.5 -2.8 -2.8 -2.8 -2.8 -2.8 4.2 4.6 5.1 5.7 6.2 7.7 6.4 6 5.6 5.3 4.9 4.4 5 5.9 10.6 15.8 23.3 34.7 33 24.5 16.6 14.3 12.3 12.7 14.3 15.4 16.9 19.8 23.7 24.4 25.2 33.5 37.8 34.7 39.8 44.6 47
141.6 144.8 146.3 144.5 138.7 137.4 140.3 135.5 128.9 124.6 127.2 134.5 157.7 170.2 179.3 190.2 195.1 196.7 198 205 200.1 188.2 173.8 166.5 145.5 132 123.5 111.7 102.3 91.3 78.7 62.5 46.9 33.7 19.2 10.6 6.3 5.3 5.4 5.5 5.3 5.3 5.4 5.5 5.6 5.7 5.7 2.9 5.6 6.3 14.5 17.2 16.2 13.5 9.5 9 8.9 9.2 10.7 11.2 11.1 11 10.9 10.8 10.7 10.6 10.5 10.6 8.4 8.2 14 17.6 20.2 22.3 21.8 22.4 19.2 14.7 9.3 7.3 7.1 5.2 5.1 4.9 4.9 5 5 4.9 4.9 4.8 4.8 4.9 4.9 3.9 5.2 5.6 6.3 6.9 6.8 6.8 6.2 6.3 6.6 8 9.2 9.3 9.4 9.4 9.6 9.6 9.6 9.7 9.7 9.6 9.5 9.4 9.4 9.4 9.3 9.3 9.3 9.2 8.9 8.6 8.4 8.2 7.4 6.9 6.5 6.1 5.8 5.5 5.3 5.2 4.9 4.8 4.8 4.8 4.8 4.8 4.8 4.7 4.7 4.8 4.9 5.1 5.3 5.5 5.9 6.2 6.4 5.7 4.9 4.3 3.2 1.1 -0.9 -2.8 -2.8 -2.8 -2.8 -2.8 -2.8 4.2 4.9 5.5 6 6.6 12.2 7.3 5.9 5.5 5.4 5.2 4.4 4.9 5.5 10.5 17.3 29.8 31.1 24.9 18.1 12.2 10.6 11.3 12.4 13.9 15.5 17 20.1 22.6 28 28.8 34.7 33.9 39.4 44.8 48.6 55.2
143 146.1 148.5 148.9 147.6 138 140.3 139.6 131.9 124.5 124.9 130.4 143.2 161.3 173.3 186.6 194.4 205.2 208.8 211.7 201.7 187.9 177.8 164 148.6 141.6 130.2 117.6 105.2 96.5 80.6 65 52.4 34.7 20.6 18.7 10.6 5.4 5.3 5.3 5.3 5.3 5.4 5.5 5.6 5.7 5.9 5.8 5.5 3.4 11.4 17.8 17.6 10.9 9.5 9.4 9.2 9.4 10.6 11.3 11 10.9 10.8 10.7 10.5 10.4 10.3 10.1 8.6 8.4 8.7 7.7 14.8 14.4 11.9 13.9 12.1 12.8 8.2 6.7 6.4 5.4 5.2 5 4.9 4.8 4.9 4.8 4.8 4.8 4.8 4.8 5 4.8 5 5.4 5.8 6.4 6.9 7.3 7.3 8.1 7.8 9.1 9.4 9.4 9.4 9.5 9.6 9.7 9.7 9.8 9.7 9.7 9.6 9.5 9.4 9.4 9.3 9.3 9.3 9.1 8.9 8.6 8.4 8.1 7.4 6.5 6.2 5.8 5.4 5.6 5.5 5.2 5 4.8 4.8 4.8 4.8 4.7 4.7 4.7 4.7 4.9 5 5.2 5.4 5.6 5.8 6 6.5 5.7 4.9 4.1 2.4 0.3 -2.8 -2.8 -2.8 -2.8 -2.8 -2.8 4.1 4.5 4.9 5.5 6.4 6.9 12.8 6.8 5.9 5.8 5.7 5.6 4.6 4.7 5.3 11.3 23.2 26.9 23.3 17.6 12.8 9.9 10.5 11.3 12 13.4 15.2 17.2 20.4 23 28.2 34.1 37.5 37.1 42.5 47.1 52.5 57.6
143.3 147.3 150.8 151.8 150.6 147.6 137.7 142.9 135.1 125.1 123.4 127.9 138.8 152 174.3 182.7 196.3 206.5 209.5 206.8 200.1 183 172.6 161.9 157.4 148.7 135.6 121.8 105.6 96.9 81.3 66.6 56.1 42.7 29.4 19.3 12.1 5.8 5.2 5.1 5.2 5.3 5.4 5.5 5.7 5.7 5.8 5.9 5.9 6 6.5 11.6 9.5 6.9 7.3 9.1 9.5 10.2 10.8 11.5 11.2 10.9 10.6 10.5 10.4 10.3 10.2 9.3 8.8 8.8 8.7 8.8 7 5.6 5.1 6 10.5 10.3 6.6 7.7 7 5.5 5.3 5.2 5 4.8 4.8 4.8 4.7 4.8 4.8 4.8 5.2 5.2 4.7 5.1 5.4 5.7 6.6 8.2 8.9 14.3 10.6 9.8 10 9.6 9.5 9.6 9.7 9.8 9.8 9.9 9.8 9.7 9.6 9.5 9.4 9.4 9.4 9.3 9.3 9.1 8.8 8.6 8.4 8.1 7.4 6.5 5.8 5.5 5.5 5.4 5.3 5.1 5 4.8 4.8 4.7 4.7 4.6 4.6 4.7 4.8 5 5.1 5.3 5.4 5.6 5.8 6 6.2 5.8 4.9 3.9 1.8 -0.4 -2.8 -2.8 -2.8 -2.8 -2.8 -2.8 4.3 4.7 5.1 5.5 6 12.2 11.3 6.7 6.3 6.2 6 5.8 4.8 4.5 5.2 7.7 15.8 19.9 15.4 11.1 8.7 9.6 10.1 11 11.8 12.8 14.7 18.7 24.1 28.9 31.8 36.6 39.2 40.8 44.9 49.4 58 58.6
145.4 150.8 154.3 154.5 154.1 150.1 146.3 138.2 138.4 127.5 123.9 126.6 138.3 154.3 169 182 191 200.3 199.5 196.5 194.9 184.4 170.2 160.5 159.1 150.1 138.8 126.6 106.5 95.1 84 74.3 58.1 43.2 34 22.3 13.8 9 6.5 6 5.2 5.3 5.4 5.5 5.6 5.7 5.7 5.7 5.9 6 6 6.1 6.8 9.5 13.8 12.3 14.2 10.8 11 11.7 11.4 11.1 10.8 10.5 10.3 10.1 10.1 9.3 9.2 9.2 9.1 9.1 7.4 5.9 4.9 4.9 4.7 7 6.7 7.7 5.6 5.5 5.6 5.4 5.2 5 4.8 4.7 4.7 4.7 4.7 4.9 4.9 5 4.4 4.8 5.2 5.4 9.4 15.6 17.1 18.2 12.5 11.1 10.5 10.2 9.9 9.7 9.7 9.8 9.9 9.9 9.8 9.7 9.6 9.6 9.5 9.4 9.4 9.3 9.3 9 8.8 8.6 8.3 8.1 7.3 6.5 5.6 5.3 5.2 5.2 5.1 5 4.9 4.8 4.7 4.6 4.6 4.6 4.7 4.8 4.9 5 5.2 5.3 5.5 5.7 5.9 6.1 6 5.9 4.8 3.5 1.3 -0.9 -2.8 -2.8 -2.8 -2.8 -2.8 4.1 4.5 4.9 5.3 5.6 6 11 6.5 6.1 6.3 6.4 6.3 6 5 4 5 9.8 7.3 13.4 9.1 7.7 7.5 8.4 9.9 10.6 11.5 13.8 16 23 29.3 32.6 35.8 39.3 41 45.4 49.5 54.4 61.8 59
148.1 152.2 160.5 158.3 155.6 151.9 147 139 139.7 134.3 123.1 123.7 133.3 155 169.8 169.3 178 192.6 190.4 188 191.3 184.5 167.1 161.4 159.5 153.8 143 129.5 112.3 98.9 84.9 79.1 62.4 50.2 40.7 24.7 15.6 11.4 6.4 5.6 5 5.2 5.3 5.4 5.5 5.5 5.5 5.5 5.7 5.9 6.1 5.6 9.1 11.6 12.2 16.6 19.8 14.8 11.6 11.9 11.6 11.3 11 10.6 10.3 10 9.8 9.7 9.6 9.6 9.5 9.3 7.9 6.6 5.5 5.1 5.2 7 5.2 5.6 5.8 5.7 5.7 5.7 5.5 5.3 5.4 5 5 4.9 4.8 4.8 5 5.2 4.5 4.7 4.9 6.3 13.9 27.7 29.3 22.9 12 10.2 10.2 10.3 10.4 10.1 9.8 9.9 9.9 9.9 9.8 9.8 9.7 9.6 9.5 9.4 9.4 9.4 9.3 9 8.8 8.5 8.3 8.1 7.3 6.5 5.7 5.3 5.3 5.2 5.2 5.1 4.9 4.7 4.6 4.6 4.5 4.6 4.8 4.9 5 5.1 5.3 5.4 5.6 5.8 5.9 5.9 6.1 6 4.7 3.2 1 -1.2 -2.8 -2.8 -2.8 -2.8 -2.8 4.5 4.9 5.4 5.9 6.4 6.7 6.6 6.3 6 6.3 6.9 6.6 5.9 5.1 4.2 5 7.5 8.9 10 6.8 6.7 6.7 7.7 9 10.2 12.4 15.3 20.5 25.6 32 37.1 41.6 46.8 43.6 48.7 53.6 59.4 66.7 58
