ncols 200
nrows 85
xllcorner 340000
yllcorner 493650
cellsize 50
38.1 38.1 38.1 38.1 38.1 38.1 42.3 49.1 58.9 67.6 73.6 76.6 82 88.9 94.6 96.2 96.6 95.5 92.5 90.3 92.6 95.6 99.7 103.1 103.9 103.9 107.4 109.5 110.3 110.7 113.2 115.8 116.2 116.1 116.5 117.4 119 121.6 125 127.6 132 134.7 140.2 143.7 146.4 149.8 153.2 155.5 158.2 163 163.9 162.3 164.9 165.8 164.3 163.9 163 158.8 157.4 157.7 157.8 158.5 158.2 159.9 163.3 164.8 164.3 166 168.8 170.8 168.5 165.7 164.5 161.9 161 159 156.4 154.1 151.2 150.4 154.4 154.3 163 166.4 162.2 159.9 160.8 159.9 160.6 169.7 174.1 171.2 165.3 163.1 165.3 169.8 175.5 178.6 182.2 179.5 174 170.7 169.9 163.2 157.9 154.1 150 145 144.6 141.3 142.1 141.6 141.2 147.9 153.8 156 157.5 160.5 160.2 158 154.4 152.6 150.5 149.4 147.1 146.2 141.9 141.8 138 130.4 126.2 119.1 113.6 110.9 110.6 107.9 105.4 105.4 102.5 101.4 100.9 101.3 101 99.1 98.4 93.2 91.1 90.7 90.2 90.6 92.9 93.2 90.7 88.7 88.6 88.5 88.4 87.8 86 86.5 86.3 86.7 87.7 89.7 90.2 90.4 92.2 94.5 94.2 96.5 93.6 92.3 91 92.9 92.8 107.5 105.8 96.1 83.6 79 76.5 76.6 83.5 86.1 93.2 97.7 104.5 109.2 111.5 114.5 120.3 125.9 127.7 123.3 116.5 119.8 124.4 122.6 129.1 126.7
38.1 38.1 38.1 38.1 38.1 38.1 42.2 50 60.3 68.2 74 77.5 80.2 84.9 89.5 92.5 93.2 91.2 87.3 90.2 93 96.7 100.9 104.1 104.6 103.2 105.8 108.5 110.1 112.7 116.7 119.5 119.3 119.9 119.8 120.7 122.6 123.4 127 130.2 133.4 136.5 142 143.4 146.8 151.1 154.2 158.9 161.6 166.2 168.9 169.9 170 166.9 168.5 167 163.4 162.6 161.7 161.2 165 166.8 165.5 164.7 166.3 167.4 169.1 170.6 172.7 174.3 173.4 172 171.1 170.3 168.1 163.3 157.8 157 151.2 156 158.6 156.3 157.9 161.3 159.5 159.6 159.7 161.4 162 163.3 169.6 173.4 167.4 165.9 174.3 179.1 183 186.5 188.5 186.1 188 183.4 184.8 176.5 169.6 161.5 152.3 150.1 147.3 147.7 147.8 143.5 146.3 152.1 161.8 166.2 168.2 173.9 180.3 173.2 163 161.6 159 156.2 154.3 151.1 148 146.2 143.9 139.6 133.9 124 116.3 112.6 108.4 111.1 108.4 106.9 104.2 105 107.5 103.7 102.5 101.6 99 95.8 91.7 90.7 90.3 90.2 89.8 89.4 89.6 89.6 89.2 88.6 88.6 87.8 88.6 88.1 87.6 91.6 94.5 92.6 95.5 96.1 97.7 96.8 95.8 101.8 105.2 101 100.6 99.4 98.5 106.4 106.9 99.6 89 84.2 83.1 77.4 78.3 83.5 92.7 94 97.3 102.6 105.2 109.7 118.1 126 128.7 125 117.8 113.4 114.7 116.3 119.8 120.9
38.1 38.1 38.1 38.1 38.1 38.1 42.5 51.5 59.8 65 71.9 76.5 78.4 80.8 84 87.3 87.2 85 89.6 91.8 93.3 97.3 100.1 102.4 104.7 103.4 104.6 110.1 114.5 118 121.7 124.2 123.5 123.4 122.6 123.9 125 126.2 128.5 133.2 134.5 136.8 142.4 145 147.9 151.6 158.1 164.2 168.4 169.7 174.9 176.2 173.9 171.5 170.6 167.8 164.1 163.7 165.2 165.3 168.3 169.5 169.9 168.7 169 170.6 172.5 176.2 176 178.2 176.2 177.2 175.4 173.7 165.9 161.8 158.9 157.1 151.9 158.8 159.9 161.8 159.3 159.9 161.3 160.7 159.7 160.6 161.9 165.3 171.1 174.1 171.5 174 181.4 184.9 190.3 191.9 193.6 198.4 197.6 195.7 193 187.4 180.1 168.1 162 159.6 155.3 150.2 149.8 149.7 150.5 156.7 166.4 174.5 178.4 182.2 185.2 177.6 166.6 162.5 161.2 160.7 159.4 156.2 155.5 154.4 155.7 152.5 144.2 130.8 119.8 113.9 110.6 107.3 108.7 108.3 106.6 108.6 104.7 104 103.2 101 98.7 96.9 93.1 94 93.5 92.6 91.9 90.7 89.8 88.8 89 88.4 87.9 94.7 92.5 89.6 90.4 91.6 93.4 97.1 98.5 102.7 103.6 101.4 101.2 106.4 114 117.1 112.9 109.3 107.9 104.7 105 95.7 88.7 83.6 81.8 77.8 75.2 79.6 84.2 87.7 92.5 97.4 102.4 107.7 113.4 121.2 122.5 118.5 111.7 109.3 111.6 112.1 116.1 130.2
38.1 38.1 38.1 38.1 38.6 39.6 44 53.6 60.7 66.2 70.7 73.2 74.9 76.5 78.5 80.4 81.2 86.2 88.4 89.9 92.3 95.1 97.8 100.1 100.6 104.2 110.1 115.5 119.2 122.4 126 129.1 130.4 131 129.9 129.6 128.9 128.5 130.1 134.8 137.1 140.3 142.9 148.2 150.3 158.7 162.9 167 173.6 178.4 181.9 181.3 181.7 176.1 172.2 170.5 169.5 170.4 170.3 167.2 167.6 172.3 175 173.5 171.5 175.7 175.8 177 179.8 181.6 183 182.2 178 173 170 168.8 161.8 155.4 156 162.1 164.1 164.9 161 162.4 166.4 167.9 165.5 162.5 163.2 165.7 169.5 173.1 176.7 179 188 195 199.5 202.5 210.1 210.7 205.5 200.8 192.6 187.7 182.5 174.5 175.8 171.9 166.9 154.4 154.2 155.8 157.1 161.6 171.9 178.9 183.1 184.3 185.6 179.2 171.3 164.7 163.4 164.6 160.6 157.9 158.6 161.7 173 169.8 153.2 133.8 121.9 116.1 112.5 110.8 110.7 105.9 105.8 104.8 105.3 105.8 104.8 105.4 99.9 98.2 97.6 97.1 96.5 95.8 95.5 93.6 90.5 90.9 90.4 89.2 87.7 98.5 104.6 101.9 95.2 95.3 98.4 104.1 103.9 106.1 108.6 109.3 106.4 109.9 116.8 122.2 120.3 115.7 111.3 102.8 99.3 94.1 88.7 85 81.9 79 73.8 76.6 79 89.4 92.7 93.5 94 98.4 107.5 115.4 120.2 112.9 109.5 106.6 109.1 109.5 122.3 134.9
38.1 38.1 38.1 38.6 40.7 41.7 46.2 54.4 61.2 64.9 68.6 70.3 71.7 73.5 77.5 80.3 81.9 84.2 85.3 86.7 88.9 91.4 94 99.6 104.6 109.5 115.1 119.5 122.5 125.1 129 132.9 136.6 138.1 139.3 138.3 135.8 133.4 133.6 136.1 139.7 142.1 146.4 149.1 153.5 163 167.6 174.6 181.3 182.7 187.4 188.6 189 185.1 179.8 176.8 172.2 175.3 175.1 170.9 172.3 177.2 180.8 182.2 180.5 178.9 182.9 186.3 184.7 187.3 186.9 186 180.9 174.9 171.4 167.4 161.1 156.8 156.9 162.7 161.9 162.5 162.9 167.9 171.9 170.1 169.5 168.8 168 168.7 175.6 181.5 187.3 190.7 197.2 203.8 212.8 215.4 211.2 213 210.1 199.1 193.1 192.5 187.2 179.2 184.5 182.4 175.6 162.8 157.3 159.9 163.8 167.3 172.8 177.7 181.8 183.1 184.3 180.1 172.6 163.6 162.1 165.1 161 160 157.7 168.5 177.3 172.9 156.3 140.7 126.7 120.5 115.5 113 109.9 108.7 104.8 106.9 105.7 107 107.7 108.7 102.7 98.7 98.6 98.7 99.6 99.1 97.8 96.5 92.9 91.6 91.6 91.4 94.4 99.1 108 110 104.6 102.3 106.8 111.5 107.8 109.9 111.9 115.1 113.7 113.1 115.6 122.8 121.8 114.8 109.6 104.1 97.9 95 93.4 87.9 84.6 81.6 75.4 76 76.7 81.8 85.4 87 87.9 92.2 99.8 109.9 119.4 113 107.2 104 105.7 105.6 119.3 132.6
38.1 38.1 38.1 38.1 41.5 42.2 45.9 53.7 59.3 63.7 67.1 69.9 72.1 74.6 78.6 80.4 81 81.2 83.2 84.5 86.3 91.1 98.1 105.6 110.7 114.3 118 122.7 125.9 130.3 133.2 138.1 140.6 143.9 145.4 144.6 141.8 137.9 135 136.8 142.4 146 150.2 155.7 159.8 166.5 172.7 177.1 182.5 190 197.5 198.8 199.8 196.6 190.2 183.8 182.1 183.2 180.7 178.8 176.8 178.4 186 186.8 186.2 183.3 185.7 186.7 187 187.9 186.8 186.1 181.9 178.7 173.7 168.5 160.4 158.6 156.8 159.8 161.9 164.8 165.2 168.7 171.9 172.5 174.9 177.8 172.6 173.5 177.5 188.6 194.3 198.5 199.4 207.5 215.1 216.9 212.7 207 204.6 201.2 202.4 199 194.6 183 186.6 188.9 179.7 169.7 160 162.3 169.2 173.4 178.1 181.3 181.4 182.2 183.3 179 172.9 163.1 158.9 158.6 162.1 158.9 161.4 167.5 172.7 171.1 160.4 146.4 134.9 125.6 116.4 111.9 111.4 108.2 108.9 105.5 104.1 107.6 108.1 108.4 102.7 101.3 100.5 100.7 98.2 99.9 98.4 96.4 94.9 92.7 92.6 92.1 92.5 98.2 106.5 110.2 107.3 109.4 112.3 112.3 108.8 109.3 113.3 118.3 119.1 116.6 116.5 119 117.6 108.3 106.4 105.9 100.9 99.5 96.8 92.2 87.1 86.6 74.9 75.6 75.7 79 82.8 88.9 86.9 88.1 93.8 103.1 109.6 105.4 103.5 102.2 101.8 103.7 115.4 124.3
38.1 38.1 39.5 41.5 41.9 44.1 46.8 51.1 57.6 63.3 66.7 69.3 69.8 71.5 76.9 79.3 79.5 79.8 82.8 86 90.6 97.6 102.2 108.7 114.4 117.3 120.1 124.5 129.4 132.8 135.4 142.3 147.5 150.1 149 149.2 145.5 143.8 138.3 138.4 144.2 148.8 153.9 158.5 163.5 170.2 177.5 182.8 187 199.8 206.2 210.9 208.8 202.3 196.6 193.4 191.6 187.6 184.1 181.9 180.3 180.5 184.3 190.7 190.7 189.6 189.2 190.7 191.1 191.8 192.3 185.2 182.3 175.5 171.6 169.2 165.1 161.2 158.1 161.4 163.9 165.4 165.6 168.4 170.6 173.2 176.5 180.4 179.4 179 181.8 191.3 195.6 199.4 201.6 204 210.8 214.5 211.5 207.2 207 203.9 203.1 206.4 200.1 188.3 184.2 185.5 178.9 168.9 163.8 167.2 173 175.1 185.8 186.4 185.7 182.6 178.8 177 171.4 164.8 159.1 157.8 157.6 158.7 159.5 160.8 167.4 168.7 163.3 151.1 137.7 125.8 117.7 114.5 110.4 107.6 109.1 106.7 105.6 105.3 103.6 107.3 103.9 104.2 101.1 100.1 99.3 97.9 96.7 95.2 94 93.6 94.3 95.5 93.8 97.4 102.7 106 105.7 105.7 109.4 108.4 107.3 113.4 116.1 119.7 123.4 119.9 117 115 114.4 109.7 109.1 107 103.7 100.8 99.5 94 88.4 88.5 75.1 74.7 75.6 76.9 79.4 86.5 87.2 87.6 88.8 97 103.3 100.2 100.5 99.6 99.6 103.5 111.6 118
38.1 38.1 42 45.3 45.3 46.1 49.6 56.2 60.1 62.8 63.9 66.7 68.5 70.1 73 76.9 77.1 80.6 85.2 90.9 96.4 101.3 102.6 109 114.9 117.5 119.1 122.9 128.8 132.8 138 144.9 152.1 156.4 156.3 152.7 152.4 147.6 145.1 141.5 145.9 152.8 159 165.3 165.9 172.4 177.2 185.4 194.3 207.5 214 214.4 213.8 213.5 204.1 199.8 197.2 190.5 187.3 184.6 183.4 186.1 190.9 195.4 197.9 196.5 198.1 199.7 200.7 199.4 194.7 185 180.7 177.2 175.4 171.9 166.5 161.9 161.5 163.9 162.6 164.1 168.7 171.8 172.6 174.1 179.4 181.9 183.9 187.1 191.4 190 195.6 196.5 199.8 200.8 206.4 211.5 209.9 205.9 204.6 201.6 200 199.7 197.6 193.5 185.2 178.1 173.1 168.2 166.6 173 177.7 180.8 185.3 185.7 184.3 181 177.3 174.6 170.5 163.7 160 158.5 157.9 159.1 159.7 162.1 163.4 167.4 162.6 147.4 135.6 125.1 117.7 113.3 111.8 111.3 109.3 105.7 106.3 107.6 106.9 106.7 103.2 104.1 102.9 102.1 99.2 97.8 96.6 96.3 95.1 95.2 93.3 94.3 92.8 96.2 98.1 100.7 101.9 101.1 103.6 103.5 109.4 116.6 117.8 118.8 122.8 121.7 118.2 116 114 111.4 111 110.7 108.5 105.6 101.5 96 91.4 85.9 78.5 74.2 75 75.7 77.6 80.2 83.6 84.2 87.3 93.4 99.3 96.4 98.4 97.1 95.8 101.8 105.5 110.1
38.1 38.4 41.1 43.5 44.8 47 51.3 58 60.3 61.7 63.2 64.2 66.4 68.4 71.8 76.6 80 83.4 88 93 98 102.3 105 107.3 111 115.4 119.8 123 128.1 131.8 137.3 144.3 152.7 158.3 160 156.4 155.1 150.7 146.6 143.9 146.8 155.3 162.6 165.4 168.4 176.7 188.6 196.8 202.5 210.8 217.5 217.6 217 213.6 210.6 206.6 194.9 189.8 184.9 187 189.6 188.7 196.9 200.8 203.1 205.7 208.2 208.8 204.4 200.3 195.2 189.9 186.9 181.1 174.9 169.1 166.1 162.9 161.4 161.4 163.8 168.1 171.5 175.4 178 182.1 183.5 185.1 185.2 192.8 196.9 194 198 196.8 194.4 197.6 200.2 204.4 205.7 200 196.8 195.7 193.4 191.9 191.8 191.3 186.7 175.7 169 167.7 169.1 175.7 179.6 183.1 183.4 184.6 183.9 180.6 176.4 173.1 167.7 162.5 157.7 154.3 157.6 159.1 159.2 162.1 161.8 160 156.8 151.3 137.6 127.2 119.3 115.7 115.2 111.8 110.8 107.2 106.6 107.8 107.5 105.7 104.1 105.5 105.3 102.5 100.6 99 99.8 99.6 97.5 96.3 95.2 93.5 94.5 92.6 94.7 97.1 99.2 99.4 101.2 105 109.6 114 115.8 117.4 120.7 122.7 121.8 119.5 118.4 116.4 116.6 116.3 111.7 107 102 96.5 90 85.9 78 73.7 73.9 76.1 78.8 79.2 82.8 85 90.4 94.3 94.4 95.1 95.4 96.4 93.7 95.6 100.1 103.6
38.1 38.1 40.4 42.5 43.7 45.8 50.3 61 64.6 63 63.5 64.6 70.3 74.7 77.5 80.7 84.1 88.5 92 94.7 99.1 104.3 108.3 111.7 113.4 116.8 121.9 125.4 129.1 133.3 137.7 144.3 152.5 162.3 159.7 159.2 155.1 153.9 150.5 149.9 147.2 151.9 160.6 165.9 171 188.5 195.1 205.9 209.2 213.7 226.8 225.5 220.1 213.6 205.5 198.5 194.4 192 191.5 193 195.5 200.6 203.3 207.7 210.8 212.2 215.5 216.2 216.3 210.9 201.5 192.6 188.1 183.6 175.5 172.1 169.8 165 164.8 164.9 166.5 173.1 176.1 178.6 181.6 185.6 188.6 192.9 196.6 198.1 200.2 201.3 201.7 203.7 199.8 193.9 194.7 196.8 198 196.7 194.8 193.6 194 190.8 191.8 190.6 181.8 177.6 171.2 168.4 172.1 177.7 181.7 183.6 184.5 186.8 189.6 186.1 179.9 173 165.8 161.8 155.7 152.4 154.4 156.5 159.5 161.3 160.3 157.9 155.9 147.1 140.7 131.4 123.3 121.9 117.6 113.7 108.1 107 105.9 104.6 106.8 104.5 104.3 106.7 105.9 105.7 102.8 101.1 100.4 98.8 97.7 97.8 95.5 93.1 93.1 92.3 93 95.5 98.8 99.9 101.6 107.9 108.7 109.6 115.5 117.9 121.1 124.4 125.6 125.3 123.7 122.7 122.6 121.8 117.8 113.8 108.4 100.5 90.5 82.9 76.7 73.8 73.3 80.3 78.4 80.7 88.2 88.4 90.7 95.1 93.4 92.6 93.3 92.1 90.9 90.7 94.2 97.7
38.1 39.5 42.2 44.2 44.5 45.9 49 59.3 66.6 67 67.8 71.8 75.3 78.7 80.8 82.4 86 90.7 94.6 97.2 100.5 105.6 112.6 117.7 120.8 123.3 125.5 125.9 129.5 133.2 139.9 150.4 156.2 158.2 159.8 160.3 158 155.3 153.7 153.5 149.5 149.6 158 165.9 175.3 188.1 197.7 202.8 207.9 210.4 219.6 227.3 218.7 211.2 206.3 199.6 196.4 197.8 201.4 203.1 208 212.1 211.4 216.4 220.1 224.9 229.6 229.3 226.2 217.8 208.5 197.5 189.1 182.7 179.3 176.4 173.5 168 169 169.2 168.7 175.9 182.3 184 188.4 192.6 193.5 197.8 202.7 206.7 210.7 210.8 206.5 206.7 202 193.9 193.9 193.9 193.9 193.9 193.9 193.9 196.8 195.1 193 190.8 181.2 177.3 175 171.6 172.7 179.3 185.1 189.5 188.1 189.1 191.3 188.6 182.8 172.7 168.5 161.4 157.3 154.3 150.2 154.1 156.4 158.5 157.2 156.1 152.7 149.1 144.4 136.5 127 121.5 117.8 115.3 111.7 110 106.3 104.1 104.3 105.1 106.5 106.8 106.8 107.5 110.2 107 100.9 100.3 99.1 99.3 97.6 94.9 94.4 92.4 91.4 93.2 96.2 98.3 100.5 103.1 104.3 107.3 114.2 121 123.4 128.1 129.9 130.8 129 130.1 129.1 125.7 122.4 119 115.4 110.2 96 84.5 75.7 71.9 70.8 76.6 77.5 78.4 85.6 86.2 91.9 87.9 90.4 88.9 88.7 88.9 89 89.5 88.5 88.3
42.2 45.6 47.1 45.7 46.1 46.4 50 59.3 66.9 67.9 69.4 73.4 77.2 79.5 80.4 83.2 87.8 92.4 95.8 99.7 102.2 107.8 115.3 120.1 123.1 123.8 125.6 126.3 128.4 132.7 141.3 148.8 153.1 156.6 158.5 160 158.9 159.1 157.4 153.5 153.4 149.9 157.3 165.8 175.4 190.6 197.1 201.6 205.4 208.3 216.5 219.7 219.6 211.7 204.8 201.2 201.4 200.1 203.9 211.3 215 222 229 234.3 238.5 236 235.8 230.7 225.5 217.4 209.9 200.6 190.9 185.7 184.6 179.3 174.6 168 168.5 169.5 172.6 183.3 189.1 192.4 193.6 196.4 198.5 205.6 213 220 222.8 222.7 214 213.6 210.6 198.6 193.9 193.9 193.9 193.9 193.9 193.9 194.9 195.4 191 186.3 182.1 186.8 179.6 176.3 175.2 182.5 192.2 197.3 196.3 193.3 189.9 187.9 184.3 176 170.4 165.3 159.7 156.1 150.9 149.9 153.5 154.6 154.7 153.9 152.5 151.5 148.4 141.5 132.1 124.9 119.4 116.2 110.6 109.2 107.2 104.8 104.5 104.9 108.2 108.6 111.5 111.6 109.8 107.3 103.8 102.2 99.9 99.9 98.9 97.1 95.1 93.8 91.3 91.4 93.6 95.3 97.7 103.3 106.4 109.3 114.1 120.9 125.9 130.4 132.5 137 136.2 135.2 138.7 133.3 126.7 122.7 119 112.5 101.6 94.8 84.4 75.5 72.6 66.8 74.9 75.2 77 78.9 80.2 84.7 86.8 88.6 88.1 87.8 86.3 87.5 87.1 86.4
47 50.6 50.4 47.3 46.4 46.3 52.5 59.3 66.9 68.6 68 72.6 77 78.5 80.1 82.4 87.6 92.9 97.5 102.7 105.3 108.8 116.2 121.7 121.5 123.4 124.4 127.2 129.4 134 144.2 150.5 157.2 159.8 162.9 164.6 164.7 166.6 167.7 160 159 154.9 156.5 164.9 174.3 186.3 193.9 198.7 205.9 208.6 212.8 215.8 217.7 212.6 207.9 201.8 198.6 199.9 211.1 222.4 229.9 233.6 240.6 245.7 247.2 234.8 237.7 233 230.1 219.9 210.6 203.8 190.6 182.2 176.5 173.3 170.9 168.5 170.9 173.2 179.2 186.1 192.5 197.5 198.8 201.8 202.5 207.1 221.9 232.8 235.6 228.6 224.3 213.9 208.7 197 193.9 193.9 193.9 193.9 193.9 193.9 193.2 190.7 191.4 190.9 194.4 192.2 189.7 181.7 178.9 187.1 198.2 202.6 201.6 198.8 193.5 188.2 184.7 179.5 172.2 168.7 161.7 156.8 152.7 147.7 148.3 152.1 154.4 151.6 149.8 151.3 151.6 144.7 133.9 127.7 118 113.8 108.8 106.9 105.3 105.3 105.2 107.6 110 113.2 113.3 115.2 114.2 110.6 104.7 102.8 99.7 99.3 99 96.7 94.7 95.4 96.7 90.8 93.1 95.7 97 106.8 111.1 109.5 112.9 117.6 126.4 133.6 134.9 138.9 140.8 136.4 136.1 132.7 128.1 125.1 121.9 117.6 108.7 100.7 92.1 80.5 75.3 68.3 70.9 74 74.9 77.4 79.6 87.9 90.5 89.3 88 85.7 83.6 83.5 84 84.9
47.9 51.4 51.1 47.5 45.8 45.9 52.1 59.3 67.2 68.8 68.4 71.8 74.9 75.3 78.2 82.3 87.1 93.3 100.8 105.4 109 112.1 118 123.1 124.4 124.8 125.2 127.7 130.1 135 142.6 150.6 160.4 167.1 168.6 170.9 171.6 170.4 169.7 163.6 161.2 159.4 157.1 162.3 172.3 184.4 193.6 200.3 204.8 205.7 206.6 210.5 211.7 211 206.5 198 200.7 212 225.1 230.6 236.6 240.3 242.4 242.5 238.8 227.6 229.2 231.9 224 215 206.8 195.4 185 179.4 172.1 172.4 169.8 169.8 175.6 181.1 183.5 190.1 195.1 204 204.4 207.8 203.4 209.5 223.3 229.5 233.7 231 229.2 223.2 212 198.6 193.9 193.9 201.9 204.9 202.1 198.9 199.7 196 199.9 202.8 204.5 201.7 197.3 190.7 182.6 190.5 201.6 206 205.2 202.7 197 191.1 184.1 180.1 177.6 172.9 169.2 161.7 154 148.8 145.1 146.2 149 148.3 147.2 148.5 151 145 136.1 128.7 120.8 112.2 113.2 111.8 109.7 106.4 106.7 109.5 113.2 115.3 114.8 115.3 112.3 112.3 106.3 102.7 101.9 102.7 99.5 99.4 98.4 98.5 95.2 94.3 91.2 98.6 99 101.9 106.6 110 110.3 113.2 124 129.5 133 135.5 137.5 134.9 130.7 130.1 126.2 124.9 122.5 117.5 113 102.6 93.8 83.7 74.6 69.9 68.4 72.1 72.7 74.6 75.2 84 92 91.7 87.6 82.3 79.6 80.3 81.7 84.8
47.3 49.8 49.8 46.9 45.6 47 52.2 59.6 64.7 67.5 69.7 71.6 71.9 75.1 79.4 84.5 93.3 101.7 105.6 108.8 112 114.6 119.8 123.3 125.3 125.3 125.9 130.5 135.4 137.4 145.1 156.2 164.7 166.9 169.5 171.3 168.8 168.3 166.5 165.2 164.3 163.3 158.6 161.5 171.2 184.3 191.8 199.1 205.3 202.9 203.1 203 204.4 204.4 199 202.3 213.6 221.3 225.5 228.9 235.8 241.3 234.6 233.8 231 223.1 221.9 221.6 216.5 205.9 191.5 186.2 185.1 176.3 171.6 170.6 171.3 172.6 177.3 182.9 186.3 191.1 196.1 201.9 206 205.5 209.8 211.2 224.2 234.9 242.8 238.3 232.1 224.7 211.7 197.4 194.7 202.1 200.5 202.8 202.9 204.9 205.9 207.9 210.6 212 211.2 206.2 198.8 191.4 187.1 192.6 202.3 208.3 207.8 204.1 198.9 193.9 188.7 184.5 179.7 175 168.9 164.9 161.4 154 145.8 139.7 143 143.3 144.2 145 145.7 142.7 137.8 130.5 122.6 117.5 113.5 109.2 107.4 107.2 107.2 110.9 115.3 117.3 116.3 118.9 118.3 114.2 107.8 104.5 106.7 105.4 104.5 104.2 102 100.7 98.3 94.6 91.9 96 99.4 98.3 101.6 104.3 106.7 109.7 115.8 126.5 128.2 130.1 133.9 131.3 127.1 125.9 124.4 122.1 119.4 115.5 107.7 96.6 87.4 79.2 74.5 72.1 64.8 66.9 68.7 71.3 75.2 77.8 87.4 88.6 83.7 78.8 77.9 76.7 77.5 82.1
44.1 46.8 48 46 46.2 47.7 50.3 57.8 63 66.6 68.3 69.8 72.9 78.7 84.7 92.3 101.8 110.8 113.9 113.1 114.5 116.3 119.2 121.8 123.9 125.5 127.6 132 138.7 139.9 142.5 151.6 158.1 166.6 170.4 169.6 169.2 167.6 167.8 167.8 166.8 167.5 161.8 163.1 171.8 181.1 187.4 195.4 199.4 200.8 197.3 195.8 192.7 195.6 203.8 211.6 215.8 220.9 224.8 232.7 230.4 228.9 230.2 226.3 222 217.3 210.4 206.5 199.5 189 186 188.8 182.1 174.8 173.6 175.6 176.1 176.3 177.7 181.9 186.2 194.3 195.8 202.2 205.6 204.5 210.5 211.8 219.1 231 237.2 235.6 227.3 220.4 209.2 197 197.4 201 202.5 203.1 208 212.6 216.3 216.5 213.3 212.4 205.5 201.2 200.3 196.3 189.3 192.9 201.2 208.9 209.4 206.8 200.3 195 192 187.6 183 180 175.1 171.6 168.3 158 148.6 139.7 138 139.4 140.4 139.6 139.4 141.8 137 128.3 120.3 114.8 113.7 110.3 108.5 110.7 110 111.8 117 122 120.9 120.7 119.4 115.5 112.2 108.9 107.7 106.2 103.4 105.2 108 103.2 101.8 98 94.2 90.7 94.3 96.1 96.5 100.7 103.9 105.3 108.9 117.4 120.8 125.1 127.4 126.7 123.8 121.2 120.3 117.7 114.6 107.8 98.3 92.5 86.6 80.6 73.4 72.8 67.7 65.7 69.5 70.5 72.3 73.3 77.9 81.9 78.7 76.1 75 73.8 73.4 76.6
40.9 43 45.2 44.8 45.8 47.1 49.4 54.9 61.1 65.8 68.3 72 79.2 84.8 91.9 99.5 106.1 113.5 117.2 118.4 117.7 118.8 122.8 125 128.9 132.2 132.5 132.6 134.8 137.3 140 147.4 152.6 157.1 162.1 164.2 166.1 166.1 167.6 172.2 175.2 176.5 171.6 158.9 166.1 175 180.9 187.3 189.3 190 188.2 189.4 194.4 200.8 207.5 213.2 216.7 220.4 221.9 225.7 223.7 224.3 222.6 216.1 208.3 205.8 202.2 191 186.2 183.9 183.9 189.3 186 173.6 170.8 175.6 179.4 179.3 183.8 185.3 190.9 193.2 195.5 201.2 202.8 203.9 206.7 206.9 208.3 218.8 226.3 228.9 224.5 220.9 210.5 200.3 198.9 205.8 209.4 212.9 214.8 220.6 223.4 220.5 211.8 206.9 203.5 200.8 200.8 195 189.3 192.4 199.9 207.5 209.8 208 202.8 197.2 195.3 195.2 191.2 186.6 181.4 175.6 167.5 158.8 150.9 139.2 135.4 135.6 136.6 137.4 134.5 135 133.8 129.4 126.6 121.6 117.5 113.3 113.7 114.7 111.6 114.1 117.1 121.8 121.7 122.4 120.3 118.5 112.2 111.3 109.5 110.3 105.7 106.2 105.9 104.6 102.8 99.8 98 92.7 91 94.1 96.7 96.2 102.2 103.2 109.2 113.3 119.2 120.9 122 122.6 122 118.8 114.4 112.2 108.1 103.9 98.3 94.9 90.7 83.2 75.2 70.6 68.1 64.1 65.9 68.7 70.4 72.1 72.5 72.9 74.3 72.5 73 72.7 71.7 71.9
38.1 39.8 43.4 42.9 46.4 48.2 49.1 54.4 61.5 67.4 71.7 77.6 83 89.2 95.7 102.7 108.8 113.4 117.2 120.4 120.9 125.2 130.7 135.2 137.2 136.9 134.8 133.2 134.1 135.1 137.1 143.3 148.4 153.6 158.4 162.2 165.4 171.1 176.6 179.9 182.2 180.7 170.8 163 163.4 169.1 176.4 178.9 181.2 184.5 188.3 189.2 194.2 203.2 209.6 217.1 218.8 213.7 212.5 213.7 214.3 213.8 208.3 203.3 198 193.8 188.4 186.3 185.2 182.7 182.6 184.9 183.1 174.4 169.8 169.8 173.2 180.5 185.4 188.8 192.8 192.5 192.7 194.6 199.2 199 202.2 202.1 200.2 206.4 215.5 219.6 216.5 212.1 207.1 201.4 200.4 204.2 213.3 215.5 215.2 220.1 223.5 219.5 212 206.1 203.5 196.3 196.7 192 188.3 190.9 197.4 207 208.5 207.3 204.7 203.5 204.9 204.4 196.2 187.4 178.8 173.2 166 158.8 151.5 142.7 134.6 133.6 133.5 132.7 132.2 133.8 134.6 133.6 128.6 124.6 121.9 116.3 113.1 112.7 110.5 115.6 117.9 121.7 122.8 123 123.3 121.6 117 116.9 112.7 111 108.9 106.8 107.4 105.2 104.8 102.4 99.5 96.4 91.9 91.6 93.4 96.5 99.5 99.4 109.3 110.2 113.5 116.8 115.8 115.9 112.6 111.8 109.1 105.5 101.7 100.9 95.7 89.9 84.3 79.6 75.5 70.3 68.7 66 64.1 66.3 68.5 69.7 70 69.9 70.6 70.9 71.2 71.2 70.2 70.3
38.1 38.1 41 43.5 45.9 47.3 50.7 54.7 61.6 68.5 74.4 79.1 83.3 88 95.3 101.9 106.6 111.2 114.4 119.8 123.9 129 134.9 142.2 139.8 136.6 134 131 131.5 132.9 134.5 140 147.4 154.5 159.6 164.7 170.2 175.3 181 183.1 184.8 184.9 177.9 163.5 160.1 162.4 167 171.1 177.2 183.5 187.3 191.4 198.2 203.9 210.2 214.3 212.7 209.8 210.3 209 207.6 206.1 201.2 194.6 187.6 185.8 188.4 193.4 192.9 187.9 181.7 179.2 179.3 178 170.4 169.8 172.1 180.5 188.5 192.6 194.7 193.5 191.2 191 192.3 194.3 197.9 198.6 196.3 198.1 209 209.8 209.7 208.9 210.3 208.8 207.4 203 207.9 212.6 212.2 213.5 215.5 214.2 209.8 202.1 197.3 193.6 191.6 187.5 185.5 191.6 195.5 201.8 206.4 207.8 207.5 206.9 207.8 203.9 201 195.9 186.1 177.3 168.1 160.2 154.6 146.4 134.9 132.5 131.4 132.1 132.1 131.8 132.6 132.3 128.8 124.5 123.1 118.9 113.5 111.7 111.1 115.5 118.9 123.4 125.3 126.3 126.5 122.4 120.8 118.6 113.8 110.5 107 105.6 106.9 106.1 103.8 104 101.4 96 95.2 90.7 93 97.3 95.7 96.9 98.6 104.8 108.7 111.6 111.3 112.7 109 106 102.8 101.1 99.1 96.9 93.8 91.6 87.3 79.7 75 71.4 68 66.1 64.2 64.2 64.1 65.7 67.8 69.7 69.3 69.6 70.1 69.7 68.8 68.8
38.1 38.1 38.1 42.6 45.2 48.3 50.7 54.8 63.4 69.6 75.3 78.7 79.2 84 91.2 98.8 105.1 110.1 114.5 119 122.9 127.2 134.4 137.1 137 135 132 131.5 131.3 132.9 135.4 139.2 146.5 153.2 159.9 165.5 170.2 174.7 178.9 181.2 183.5 184.1 178.8 162.1 160.1 161.2 164.5 173.4 176.8 181.9 190.1 194 197.4 203.8 211 214.8 216.3 216.5 217.6 213.8 208.7 202.9 196.2 189 185.6 185.6 185.6 191.2 192 189.1 184 179.7 177 173.8 171.2 171.5 173.7 184 195.5 200.2 196.7 193.5 190.9 192.5 192 193.7 193.7 193.7 194 195.3 204 206.6 210.2 213.5 218.4 214.3 210.8 204.7 204.8 210.1 209.5 209.5 210.9 209.7 206.5 199.7 195 189.1 186.7 183.1 184.7 185.4 191 200 205.7 209 210.7 207.2 206.8 207.7 210.4 208.2 199.8 188.6 178.1 165.4 156.5 145.5 138.5 131.8 130.7 131 132.2 131.6 131.7 132.5 129 130 126.1 120.5 117 112.8 111.9 119.4 123.8 127.8 128 128.4 125.9 121.8 119.1 115.4 111.9 111.1 109 107.8 107.7 107 105.5 108.4 104.1 98.9 94.6 93.7 90.6 93.1 92.2 93 93.1 99 103.3 104.7 105.1 105.1 104.2 102 100.4 95.9 93.4 90.5 89.2 86.6 83.1 77.2 72.8 69.3 68.2 67.9 65.1 65.2 63.8 63.1 64.3 67.2 68.1 68.6 69.1 68.3 67.6 67
38.1 38.1 38.1 41.5 46 48.3 52.1 61.3 67.5 72.8 76.2 77 78.2 84.1 91.8 99.7 106.2 109.5 112.5 112.5 118 124.4 129.4 135 136.3 133.1 132.6 132.7 132.5 133.9 135 138.1 143.4 149.7 157.3 163 166.5 170.7 174.8 176.8 179.7 180.8 177.9 162.1 159.9 160.9 167.5 174.5 175.7 180.1 188.1 194 198.8 203.7 212.6 222.6 222 219.9 217.4 214.3 212.5 210 200.2 188.1 185.2 185 184.7 186.5 185.4 184.1 183.7 178.9 175.6 173.1 173.9 172.5 172.8 183.1 197.3 206.8 197.6 193.2 190.7 190.6 192.6 194.5 193.7 195.9 198.7 197.8 202.7 208.4 210.3 215.3 217.8 215.8 211 205.2 207.3 211.2 209.6 210.7 209.8 205.9 204.5 198.1 191.4 187.2 181.8 179.3 181.5 184.1 192.6 198.8 203.2 206.2 206.7 205.5 208.1 213.5 218.4 219.6 207.4 196.3 185.7 173.4 160.7 150.2 142 133.1 132 130.7 132 132.3 130.9 133 130.9 129.4 126.8 123.7 117.3 112.3 112.3 120.1 126.4 129.2 128.5 126.5 123.3 123.3 120.8 117.4 113.2 112.8 111.4 110.5 108.3 108.9 108.7 110 107.1 103.9 95.4 93.6 90.8 88.9 89.5 89.6 89.5 92.2 97.4 99.1 98.9 99 99.1 95.9 93.4 89.8 86.6 84.2 86.3 84.4 79 71.6 68.9 72.8 69.8 66.9 68 65 64.1 64.3 63.8 64.9 68.3 68.2 68 67.8 66.2 65.3
38.1 38.1 38.1 41.8 46.2 48.9 54.2 63.7 70.4 75 76.8 76.6 82.1 88.4 93.9 99.5 106.8 111.2 115.4 118 117.4 122.5 125.5 131 133.2 130.7 131.9 133.8 134.6 134.5 134.7 136.2 139.6 146.4 154.3 157.8 159.8 164.2 170.1 173.1 175.1 175.9 175.9 159.9 159.9 163.1 171 176.3 180.8 187.4 193.4 194 200 209.1 221 224.6 226.8 229.2 227.4 216.6 205.2 201.1 195.2 193.3 188.9 190.4 189.5 189.8 187.6 186.6 188.8 185.4 182.8 179.6 176.5 173 171.5 180.4 187 197.7 195.5 190.7 191.8 191.6 193.4 199.5 203.8 204.6 205.1 202.3 202.8 207.8 209 211.6 216.3 214.5 207.9 207.9 211.4 217.4 216.9 210.4 209.1 204.2 199.4 194.8 187.4 182.4 176.7 174.5 175.4 181.4 191.7 198.7 200.1 201.9 203.6 205 210.4 217 220.6 218.3 210.1 201.8 190.5 178.2 165.6 154.2 146.1 137.2 133.7 131.7 129.9 131.8 130.5 130.4 130.6 128.5 124.4 120.2 115.1 114.9 116.3 121.3 126.7 127.6 127.2 125.6 125.9 123.7 121.4 118.5 116.4 114.4 113.4 111.9 111.4 111.6 112.6 110.1 106.2 103.4 96 94.1 91.7 89.5 88.5 87.9 88.3 89.2 89.7 90.4 88.7 89.8 89.8 88.7 86.5 82.9 80.5 78.6 79.1 79.9 76.7 73.3 70.8 72.5 69.7 70.3 71.8 70.3 67.9 67.5 66.2 62.8 63 66 65.6 66.1 65.1 65
38.1 38.1 38.1 42.8 46.2 50.3 57 65.4 70.1 72.6 76.7 80.1 83.7 88.9 96 106.6 114.2 120 121 123.9 125.9 124.6 125.9 127.2 130.3 132.1 132.2 134.7 134.9 133.4 133.9 134.4 138.8 143.2 147.5 153.4 158 160.9 164.6 169.6 168.7 169.7 168.7 161.9 161.2 163.4 172.1 180.9 187.7 198.2 201.3 200.1 205 214.8 224.4 233.3 237.4 238.3 229.1 218.3 216.3 212.8 204.3 201.5 200.3 196.9 199.5 196.9 193.5 188.4 190.3 189.9 190.3 185.4 180.7 172.3 168.8 177.9 181 189.1 193.6 189.2 192.6 193.7 198.1 201.2 207.5 214.2 216.9 214.3 203.9 204.2 207.1 208.7 210.6 211.5 209.8 212.9 214.9 216.1 216.1 215.1 209.8 204 198.8 190.8 183.6 177 173.8 173.4 174.2 180.5 190 196.2 200.2 201.9 202.9 205.4 214.2 219.7 223.4 219.5 214.7 202 190.6 179 169 160.1 151.4 142.2 133.7 131.4 130.9 131.1 128 128.4 128.4 125.5 123.5 120.8 117.6 118.1 119.3 120.4 125.7 127.8 127 126.9 127.5 129.2 127.4 123.3 119.1 115 112.3 110.2 109 108.8 108.5 106.5 104 102.7 102 98 93.7 90.1 88 87.9 86.3 86.8 85.7 84.9 84.7 83.6 84.3 83.2 83.5 83.9 79.2 77.9 77.2 76.6 75.9 74.6 73.2 70.8 72 73.3 77.7 72.6 71.1 75.5 71.1 67 60.8 61.9 63.7 64.5 63.3 63.7
39 38.1 40.7 47 49.2 53 59.3 66.2 70.2 73.6 76.6 81.5 88.1 95 105.7 112 118.7 126.7 128.8 129.4 129.7 129 125.8 127.4 129.7 133.1 133.5 133.4 131.6 131.4 133.1 134 135.3 140.2 144.2 147.9 153.2 155.1 159.9 162.7 162.9 159.7 163.4 160.1 160.8 162 171.8 183.7 192 197.7 200.3 202.8 206.9 217 226.3 235 244.2 243.5 235.5 226.9 221.6 220.4 219.6 211.8 210.1 204.9 204.2 199.6 196.1 197.5 197.1 196 192.2 190.7 183 172.3 167.4 172.3 175.3 181.7 187.2 188.3 191.6 197.4 206 207 211 217.9 221.5 222.4 213.1 201.8 201.8 203.2 208 210.5 212 214.7 220.6 219.4 219.2 216.6 210 200.6 196 186.7 177.9 171 171.6 171.8 178.1 184.3 195.4 200.1 206.4 207.1 207.9 214.9 211.9 215.6 215.1 212.9 206.7 199.2 191.8 181.6 174.6 165.8 156.2 145.1 135 131.5 132 134.6 130 126.8 125.4 124.1 122.1 122.6 118.9 116.5 118.8 120.2 125.2 127.2 127.2 127.4 129.4 132.2 126.5 122.9 117.7 112.1 109.5 107.7 105.5 105 106.8 108 104.9 103 99.3 97.4 93.1 90.3 89 87 87.1 86.5 86.2 86.3 85.8 88.4 84.3 80.6 79.9 79.4 78.5 77.2 75.7 75.9 75.1 74.6 72.8 73.2 73.4 74.2 78.8 77.9 74.3 81.4 76.3 71.3 64.2 59.8 62 62.6 61.5 64.8
41.4 39.6 41.8 49.2 54.1 56.2 60.7 66.6 70 73.3 78.8 85.9 92.8 101.5 111.7 118.2 126.3 133.5 135.5 133.5 133.2 131.9 127.8 127.1 128.1 131.8 131.7 131.3 129.3 128.8 129.8 132.2 135 139.6 142.7 144.1 150.2 153.3 155.2 157.7 156.4 153.5 155.6 158.5 160.3 162.1 176.1 182.8 188.4 191.7 199.4 205.3 209.7 217.9 227 235.4 241.7 241 234.9 231.5 229.8 229.5 227.5 216.6 210.4 203.1 202.7 203 203.2 204.4 204.6 198.1 192.7 189.2 181.3 173.3 168.1 169.9 172.6 175.7 179 183.4 189.3 202 211.8 214.7 211.6 215.1 220.2 223.8 221.9 208.6 204.9 205.5 211.5 213 213.4 218.4 224.2 220.1 213.6 211.6 206.2 198.2 192.2 182.5 172.7 167.7 170.8 177.3 177.1 183.1 194.6 204.3 208.6 211.6 210.1 210.5 207.5 202.3 201.8 202 203 197.9 192 185 177 168.8 159.1 148.4 137.8 134 131.6 135.7 131.7 126 125.6 127.2 125.5 121.2 118.3 117.8 119.7 118.5 122.6 127.4 128.5 127 129.2 129.9 126.7 122.2 116.6 112.6 112 109.4 105.5 104.1 103 103.1 101.4 99.5 97.3 94.9 92.1 89.9 88.8 87.6 88 87.5 91.4 92.2 94.6 93.3 89.6 83 79.8 78.1 77.3 76.2 76 75.6 76.2 76.5 76.4 76 77.8 75.1 75.2 76.4 75.4 82.8 81.1 70.2 65.8 60.9 60.8 61.2 61.1 64.2
44.4 41.6 43.3 49.9 54.9 56.9 61.1 65.9 68 72.7 79.1 88.6 96.9 107.1 117.4 124.7 129.2 136.1 139.1 136.5 134.2 132.8 129.4 126.1 126.3 127.8 130 130.3 129.5 130.3 132.5 132.7 133.8 136.2 138.9 140.9 144.7 148 151.1 149.8 150.2 151.3 154.3 154 161 164.8 171.3 177 186 193.3 199.8 207.8 213.2 218.5 223.7 229.3 233.7 234.3 237.7 236.6 235.3 233.3 227.5 215.2 205.2 207 212.7 214.7 215.9 213.4 205.8 195.7 187.2 181.9 179.3 172.6 167 168.6 171.8 174.6 179.3 187.8 189.8 195.6 205.7 213.3 213.1 212.7 217.2 219.4 224.7 215.2 209.8 208.4 212.1 214.8 215 218.3 217.3 217.3 212.5 206.3 204.3 199 188.1 176.6 168.1 165.8 172.6 178.1 178.4 187.6 193.1 206.1 212.6 213.6 209.8 206.3 200.9 199.3 199.6 200.5 197.9 193.4 188.9 183.6 177.3 169.1 160.5 149 139.7 135.9 132.6 134.1 131.5 125.8 125.9 126 128.4 124.9 122.2 118.6 119.3 121.2 122.6 126.7 127.2 126 125.6 127.2 126.3 121.9 117 114.2 110.6 106.8 105.5 103.4 101.5 101.2 103.4 102.7 98.4 95.5 94 93.5 95.1 94.4 90.7 89.6 96.9 97.1 96.8 94.7 91 88.3 84.9 83.3 77.9 79.8 77 76.1 77.7 78 79 80.2 79.9 76.5 76.2 75.3 75.2 84.3 84.1 75.5 67.8 64.8 60.9 59.2 61.7 61.6
49.1 43 44.3 49.6 54.7 58.8 61.9 64.6 66.4 72.3 82.4 94.8 104.8 115.2 124.8 130 129.4 130.8 134.1 134 130 130 125.1 123.8 123.1 123.5 125.1 125.9 127.3 127.3 129.5 128.9 130.1 132.8 137 141.8 142.6 144.3 148 151.2 151.5 151.1 151.7 154 158.1 164.9 169.2 179 187.2 196.2 202.7 209.4 213.9 216.1 217.1 220.6 225 226.9 230.1 229.5 227.6 226.7 215 209 207.4 210.3 214.1 217.8 215 205.3 198 194.4 185.9 178.8 175.8 172.7 167.5 168.5 171.2 174.7 179.9 185.5 188 193.1 198.5 204 209 210.9 211.5 216.2 217.1 215.4 209.4 212.3 217.8 217.3 215.6 210.6 208.8 209.5 207.2 202.9 200.3 191.7 181.9 171.1 165.7 164.9 171.2 175.5 179.2 184.8 195.8 208.1 211.3 212.1 207.5 205.3 206 200.7 199 199.3 199.5 192.2 190.1 187.6 176.1 168.7 159.5 151.4 141.8 137.8 138 131 129.1 126.8 127.9 126.8 128.1 123.4 120.3 119.2 122.5 125.5 124.1 124.7 124.9 124 121.7 120.7 121.5 120.9 116.1 112.6 108.6 105.4 104.5 103.3 102.5 103.5 104.7 103.9 99.9 100.2 99.5 95.7 95 94.3 91.3 89.2 93.3 94.8 95.3 95.1 96.1 90.1 87.4 83.9 81.1 79.8 78.7 76.9 77.4 77.4 79.5 79.3 78.2 77.4 76.8 79.3 80 83.2 85.7 79 70.7 67.9 64.7 60.3 59.7 59.8
46.1 45.9 46.7 49.7 53.4 58.5 60.2 63.3 66.7 72.6 86.3 99.8 113.6 124.9 136.8 138.4 137.6 137 134.7 130.2 126.2 123.7 123.6 122.6 122.5 122.5 125.5 127.1 125.7 123.7 123.8 124.5 126.2 130.7 135.4 139 142.6 148.6 151.8 150.9 150.6 151.3 160 163.8 161.9 165.4 168.9 179.6 186.1 196 201.1 207 210.8 210.9 210.2 209.7 209.2 216 216.8 217.6 212.4 211.2 209.4 210 215.7 216.6 214.3 213.5 210.1 205.2 199 194.2 183.7 174.2 169.5 167.1 166.9 168.1 170.7 178.6 180.7 185.3 186.5 189.5 191.6 197.4 202.5 203.8 207.3 212.2 211.7 216.6 209 208.8 211.4 213.5 208.9 205.9 204.1 199.8 198.6 197.3 191.2 185.1 176.2 168.1 167.5 161.9 170.7 174.3 180.1 182.4 194.5 204.8 211.1 212.8 207.3 203.2 199.6 198.4 198.6 198.9 198.8 196.3 191.5 185.5 174.1 165.8 157.3 150.1 144 137.5 137.1 128.5 127.2 127.5 127.9 124.6 124.6 124.2 120.6 119.2 122.3 121.9 120.9 120.7 123.2 121.9 121.5 118.1 117.9 117.3 115.6 114.1 110.5 107.8 106.6 106.4 105 103.9 103.6 101.9 102.6 98.2 100.1 98.7 97.8 95.3 93.3 90.8 95.2 97.1 99.4 99 97.7 94.6 94.2 91.9 83.3 80.8 79.4 77.5 80.1 86 86.3 79.2 79 74.9 77 77.5 76.9 77 84 78.7 70 68.3 65.2 61.9 59.9 58.2
45.5 49.1 50.1 51.1 53.3 59.3 62.7 66.2 70.8 77.4 87.8 103 118.7 131.4 140.7 144.2 144 144.8 137.6 134.3 130 124.5 123.5 123 124.3 126 124.9 123.5 123.4 123.1 123.2 123.6 126.1 132.6 138.1 146.6 149 152.1 150.4 151.7 151.9 160 163.5 164.3 165.6 167.2 170.4 175.2 180.4 188.5 193 201.8 205.9 204.4 200.6 198.6 200.7 203.6 207.6 209.8 211.4 212.7 212.9 212.5 209.9 212.7 214.1 219.1 214 212.2 204.1 192.8 177.2 170.7 165.3 165.4 166 171.7 174.5 176.5 179.3 188 190.7 189.2 191.7 192 197.9 205.6 206.5 205.1 209.3 209.2 207.4 201.7 204.3 207.6 206.9 207.5 207.7 199.4 191.9 186.8 183.5 180.3 174.1 172.9 164.3 159.9 163.2 170.9 175.8 182.6 192.6 204 211.8 210.2 205.3 202.4 200 199 200.6 202.4 206.5 202 194 184.1 177.6 164.5 156.2 150.4 144.9 136.6 132.7 129.4 128.1 126.8 126.7 126.2 125.4 124.4 123.5 119.7 119.9 118.9 119.6 119.9 124.7 123.6 122.3 118.7 116.3 117.5 114 111.5 109.6 108.4 106.9 107.4 106.5 106.2 107.9 107.9 105 100.1 99.4 98.9 95.9 95.3 94.1 94.2 97.2 99.7 99.5 99.6 98.6 97.2 92.7 90.3 86 84.6 79.4 78.6 79.4 89.9 94 80 77 77.2 76.9 76.9 75 74.4 77.4 74.6 66.8 65.5 64.4 61.8 60.7 60.1
47.7 54.1 52.5 51.3 53.5 59.7 63.7 68.8 73.8 80.3 87.5 105.3 121.8 135.3 143.8 143.9 148.4 150.3 143.3 138.6 134 128.8 125.5 123.5 122.7 123.6 126 127.4 123.1 123.2 123.2 123.6 129.4 138.1 142.5 145 147.5 150.2 148.8 152.6 154.1 162.9 167.6 168.7 166.3 168 166.4 170.6 173.9 180.1 188.1 198.7 202.7 197.3 191.6 191.6 198 204.5 207.9 207.2 210.1 212.9 207.6 206.5 202.4 210.8 211.9 211.4 215.8 212.5 200.9 184.9 176.6 166.7 165.5 166.2 166.6 170.9 174.2 177.6 178.7 191.2 196.8 197.2 192.4 193.2 197.6 202.8 200.1 198.3 202.6 199 198.7 199.8 204.9 207.3 208.1 206 202.2 198.5 195 189.5 182 176.7 169.7 166.6 160.8 157.8 158.6 162.2 169.9 183.2 192.6 205.7 213.9 218.6 207.9 204 203.2 201.6 204.2 205.3 207.7 202.7 195.5 186.5 177 167.4 159.6 148.9 143.1 135.5 132.9 129.8 127.8 126.6 125 125.7 125.4 124.9 125.8 119.2 118.6 119.6 120.9 119.6 122.2 121.8 120.4 119 116.2 114.8 113.1 110.6 109 107.8 106.6 106.7 106.3 105.8 107.1 107.6 105.4 102.7 100.9 99.2 99.2 97.6 96.8 96.9 98.1 101.5 101.6 102.9 97.9 97 96.3 93.6 87.1 80.8 77.4 76.7 76.7 90 96.4 85.2 77.7 79.5 80.4 77 76 72.5 71.3 71.4 67.2 64.7 63.4 62.8 61 60.1
46.2 55.3 51.7 50.3 53.1 57.7 65.2 70.8 73.8 80.8 90.1 106.8 122.5 135.3 141.1 141.3 149.1 155.2 154.4 146.9 140.3 135.8 129.6 123.8 124.4 123.4 127.4 125.3 122.5 122.9 125.5 127.2 132.3 136.4 138.8 141.7 140.8 143.5 146 150.4 158.5 166.7 170.8 171.4 170 166.5 166.1 167.3 172.5 180 187.5 189.2 191.4 190.8 192.9 196.4 197.6 198.8 203.2 205.3 202.1 206.3 204.1 198.4 196.3 199.1 200.1 207.4 209.6 204.7 194.7 184 174 163.3 163.5 166.4 168.7 172.1 175.6 177 183.2 190.1 196.5 196.3 193.3 196.7 195.6 197.9 196.6 195.8 191.3 192.5 200.4 206.9 209.6 208.5 207.6 207.5 205.4 205.8 203 191.8 183.3 176 166.5 159.9 158 156.7 159.7 163.8 169.7 180.5 189.1 208.4 214.6 214.1 207.6 206.3 208.3 208.1 207.6 211.6 209.5 201.3 192.5 183.7 174.9 166.7 157.4 148.4 140.7 138.8 134.7 131.1 129.2 128.2 125.4 126.1 127.2 125.4 125.8 119.5 119.2 118.7 120 120.2 121.5 120.3 120 117.5 116 110.3 109.4 108.5 109.4 109.1 108.9 108.7 107.4 104 104.5 106.7 106 103.3 101.7 101.5 99.8 98.3 98.3 97 95.7 99.8 103.8 104.5 105.9 104.3 100.6 96.7 93 90.9 88.3 84.3 83.4 88.9 97.9 90.6 78.9 81.1 84.7 76.1 73.2 71.7 75 78.8 70.2 67.5 65.7 64.6 62.8 60.4
45.2 49.9 49.2 51.5 54.8 59.1 66 70.4 72.8 78.9 90.5 106.1 120.3 132 140.4 142.8 149.7 154.8 154.7 151.8 149.3 145.5 134.5 126.3 126.2 123.7 125.2 125.1 129.5 131.8 132.2 129.4 129.5 130.2 128.5 132.1 136.6 142.5 148.2 154.3 161.2 168.2 170.6 171.3 171.1 170.4 164.9 166.4 169.4 174.3 179 181.1 184.2 185.5 194 199 194.2 193.3 198.9 197.2 198.3 198.5 196.1 188.8 188.9 189.6 199.3 202.6 203.7 199.6 189.7 179.1 164.9 162 163.9 168.5 171.1 174.9 178.1 179 182.1 186.5 194.3 197.5 195.2 194.8 192.8 193.8 191.1 191.4 192.1 197.6 209.6 218.3 214 213.5 210.5 211.6 209.4 209.9 206.7 197.6 181.1 169.8 164.2 157.3 155.5 155.5 160.6 164.9 169.4 176.3 184.7 196.4 203.2 201.8 204.1 210.3 218.4 221.1 212.6 212.6 205.7 197.6 187.2 181.3 174.9 166 157.2 150.3 144.7 140.4 135.8 131.3 128.8 127.3 125.8 123.3 126.1 124.5 121 123.5 119.1 119.4 119.6 119.8 122.7 119.5 116.6 115.1 114.8 111.9 111.3 111.6 110.3 109.7 110 110.2 107.6 102.9 102.6 102.6 104.9 104.3 100.5 102.6 101.4 99.8 98.5 97.7 96.6 102.3 105.4 107.4 107.9 108.2 107.6 102.9 100.9 97.6 92.1 90.8 87.3 90 97.3 91.5 78.7 80.9 84.1 75.5 75.7 77.8 82.5 84.7 85 73.7 65.5 64.1 63.5 62.8
45.9 48 49.1 51.2 53.9 57.3 64.7 68.9 69.6 81.2 93.6 105.2 117 128.5 140.4 144.6 152.5 157.8 163.2 163.6 164.2 155.6 144.7 132.2 124.2 123.2 123.1 131.6 135.2 131.3 130.2 130.7 124.8 125.1 130 136.3 142.9 146.9 152 156.5 164.1 167.5 168.4 170.9 170 174.1 164.7 163.4 163.5 168.2 171.6 176.2 179.7 184.8 191.8 198.5 196.7 190 189.6 189.5 187.2 188.9 187.2 185.1 189.5 194 195 194.8 193.5 192 184.1 172.6 163.3 160.8 162.5 166.1 173.7 179.9 186 187.4 183.6 186.9 191.5 193.8 194.6 189.7 189.5 189.3 189.9 192.4 199.7 209.8 218.1 218.5 216.3 215.2 214.9 214.7 215 211.8 206.1 193.6 181.7 171.7 161.2 155 156 154 156.6 161.8 163.8 169.7 176.5 186.9 196.1 201 207.1 216.6 225 222.6 209.9 205.5 198.2 191.4 186.1 178 172 165.4 157.4 152.4 145.6 141.9 139.1 133.7 130.9 129.1 127.1 124.9 121.4 122.8 121.6 123.1 120.3 122.4 123.2 120.8 122 123.7 120.8 116.7 112.8 111.8 110.6 109.8 109.7 109.7 109.4 109.5 110.1 104.6 102.3 102 102 102.5 101.3 101.5 102.3 101.2 99.4 99.5 99.2 102.9 105.4 109.8 112.4 114.4 114.4 112.8 115.4 113.3 106.2 98.6 93.3 91.2 96.2 91.8 79.5 78.2 80.2 79.3 82.5 86.4 84.7 87.7 86 79 65.1 62.3 63.5 63.7
44.5 47.3 48.8 50 53.7 57.9 63.5 66.7 72.8 87.3 98.7 112.4 121.7 131.6 138.6 147 153.8 164.9 172.4 176.4 174.5 163.8 149.1 137.3 126.9 122.8 123.1 130 131.5 130.5 128.9 128.8 122.4 127.5 133.2 137.2 143.1 147.5 153.2 158.5 165.8 164.1 163.9 169.5 168.3 172.1 166.3 163.1 162.9 164.7 167.6 174.7 178.2 180.6 183.6 191.5 194.3 192.2 181.7 182.6 182.7 184.3 183.8 187.1 190.8 192.2 191.3 185.9 185.1 179.8 174.7 165.9 163.4 162.3 161.9 168 177.3 188.2 192.5 189 189.6 188.4 189 190.6 190 188.8 189.1 188.8 189.7 201.1 211.4 217.5 222.5 221.5 222.2 223.5 223.6 219.9 216.5 210.8 205.2 193 177.2 167.6 163.2 160.4 155.1 154.3 151.4 152.7 157 160.3 167.1 178.1 192.1 202.1 207.8 211.5 212.2 208.3 204.1 196.5 191.3 185.6 180 175.8 170 163.6 156.9 151.6 149.2 146.5 144.6 137 132.8 130.7 129.1 125.4 120.1 124.4 122.5 124.1 122.3 122 122.8 119.7 119.3 121 115.9 113.3 113.1 112.7 111.8 110.1 109.8 109.1 109.1 107.6 109 106.9 102.9 102.8 103.5 102.6 101.8 102.1 103.4 102.2 101.2 101.8 100.2 100.8 104.2 109.8 114.8 116 116.5 114.1 117.7 118.5 114 102.3 97.9 92.7 90.3 87.8 81.4 80.2 82.7 83.5 81.7 83.2 84.6 84.8 80 70.6 63.2 63 62.2 62.6
45.7 47.2 48.2 51.5 54 57.7 64.6 71.1 79.7 93.1 108.9 120.7 128.6 140.7 145 153.4 162.7 170.5 181.6 187.4 179.4 166.8 150.7 142.8 132.3 125.4 124 125 127.3 127.4 124.4 122.8 121.7 128.8 133.4 137.4 143.7 151.4 157 160.1 160.4 162.7 163.6 163.7 167 168.3 167 165 164.9 163.4 167.3 171.3 173.3 177.9 181.7 184.3 186.8 186.2 178.9 179.8 179.2 180.8 183.2 184.6 185.3 185.7 182.9 181.3 181.2 178.1 168.9 165.1 161 158.9 164.1 170 177.4 187.7 193.4 195.2 193.6 194.9 189.8 192.1 191.3 189.5 189.8 192.8 201.7 208.4 219.9 228.7 232.1 234.1 232.1 229.2 224.4 220.9 217.3 212.1 203.8 192.2 178.9 173.3 165.3 157.6 152.4 150.1 148.3 146.2 148.5 150.4 160.1 170.6 185.2 193.8 198.9 198.6 197.6 200.1 196.9 189.3 186.8 184.2 180 177.7 170.2 162.4 156 154.7 150.9 147 143.3 138.9 132.3 128.6 126.8 123.8 119.3 126.3 124.1 126.8 126 120.5 120 121 117.9 118.1 119.8 122.7 119.5 116.1 113.5 110.5 109.4 110.9 110.4 109.2 107.6 106.3 103.6 103.2 103.2 103.9 104.3 103.5 104.9 105.8 106.5 106 102.6 105 109.2 111.9 114.9 117.9 119 117.5 115.8 120.2 111.7 102.2 99.2 93.8 94.9 93.5 89.3 85.2 82.9 85 82.5 81.9 82.8 79.3 74.3 66.3 64.2 63.3 62.9 62.5
45.7 46.9 47.9 50.7 54 59.4 67.3 75.1 83.1 96.5 112.4 124.6 131.7 141.1 150.4 160.6 170.9 177.4 183.3 188.4 179 167.6 152.8 142.1 136.4 128.2 123 120.5 121.9 119.9 120.2 120.5 121.4 128.5 132.3 141 148 154.3 158 162.8 163.3 166 167.9 163.6 168.6 168.2 168.1 166.6 167.8 164.6 164 168.7 171.2 172.9 177.4 177.8 178.2 177.9 178.8 177.8 178 179.4 181.4 185 184.4 183.2 179.2 179.3 181 176 168.9 161.5 159.1 158.2 166.4 170.6 179 187.5 195.5 204 198.6 195.7 193.5 189.4 191.9 196 199.4 203.7 205.5 214.6 226.7 236.3 242.5 240.1 243.9 239.3 230.9 224.2 219 214 202.6 193.2 182 177 168 158.7 155.6 150.3 143.2 141.5 140.4 144.4 153.7 162.7 174.1 183.4 186.6 190.9 191.4 191.5 189.9 190 189.7 189.6 181.2 177 165.8 159.1 157.3 157.7 151.4 145.9 142.9 137.7 130.7 125.5 122.8 120.3 119.4 127.2 129.6 128.6 128 120.5 120.2 120.7 121.9 123.9 126.4 125.7 123.1 118.3 115.1 110.2 109.1 110.1 110.7 111.3 110.5 107.4 106 105.6 105.7 106.1 104.6 103.7 103.4 105.4 108.4 110.4 107.4 109.5 113.7 116.3 115.9 116.7 118.8 118.9 120.4 122.7 120.5 117.2 112.7 105.7 100.5 95.5 91.6 87.2 87 86.4 86.9 84 80.2 80 77.7 78.8 75.1 67.8 63.9 62.8
46.1 45.3 47.7 50.3 54.6 60.7 68.7 77.4 85.3 98.7 112.1 122 133.2 144.9 154.6 163.2 173.9 174.4 175.6 175.8 171.9 159.3 150.4 138.9 132 125.5 120.5 119 119.3 119.7 120.5 122.2 123.9 129.9 138.8 143.7 152.7 160 158.9 165.6 165.9 168.6 170.6 165 164 167.3 168.6 167.3 165.7 166 160.7 165.2 169.5 172.6 170.1 173.9 175.4 180.5 179.5 175.6 174.5 176 176.9 180.3 180.6 181.1 177.1 177.8 177.1 170.6 164.2 159.1 158.9 157.8 168.1 171.2 184 194.5 196.7 204.8 206.9 201.1 195.2 194.8 198.1 207 209.9 209.7 215.4 218.9 228.6 233.5 240.6 242.7 251.8 244.6 232.2 225.6 218.8 211.3 201.9 193.5 182.4 176.1 169.8 161 156 150.1 142.7 137.1 134 136.7 146.7 156.2 165.4 172.7 178 183.1 182.7 185.9 190.6 194.2 188.8 184.6 178.7 175.2 164.6 165.3 163.8 159.1 152.4 145.8 138.4 135.3 129.2 125.7 122.7 119.4 120.3 127.7 133.6 128.8 125.7 121.6 122.6 126.4 128.8 126.6 125.3 125.8 123.3 120.3 115.8 111.3 109.6 109.6 109.2 111.2 111.5 110.5 107.9 106.5 105.7 104.6 104.4 104.1 104.7 108.3 110.1 110.2 108.7 107 113.4 116.3 117.8 120 123.3 124.3 126.4 123.6 124.7 121 115.4 110.6 102.5 99.4 94 89.2 85.8 85.2 84.4 82.9 81.8 83.2 85 86.8 82.8 75.3 71.8 67.2
46.1 45.1 48 52.1 59.7 63.3 69.8 78.1 86.7 98.4 108 122 133.6 143.4 152.5 159.1 161.1 160 157.7 162.5 161.8 156 143 132.6 124.8 121.2 119.3 118.9 119.2 120.9 124.3 126.8 126.9 133.1 138.5 143.2 149.8 156.2 158.3 164.1 165.3 165.1 163.4 161.9 162.7 166.2 165.5 164.9 163.2 163.5 160.6 160.5 163.9 164.3 166.6 168.5 174.9 178.6 178 178.3 171.2 174 174.5 177.4 178.2 177.7 174.9 172.8 170.9 166 163.1 160.9 157.2 155.6 167.3 170.2 186.3 197.7 205.2 206.4 208.2 204.9 201.4 202 204.2 211.4 216 218 226.1 234.2 238.5 235.7 243 245 251.5 245.4 232 223 213.3 211.5 203 194.4 183.4 173.4 169.7 163.1 153.9 145.7 138.3 133.3 131 129.9 135.6 145.5 153.7 164.3 172.5 178.3 181.5 187.3 191.3 193 187.5 183.9 181.9 172.4 168.8 171.1 168.6 161.2 152.5 143.6 135.2 132.6 129.4 125.8 122.5 118.6 125 127.9 133.1 127.8 125.7 127.1 122.4 128.5 132.8 125.7 125.8 127.2 129 127.7 123.4 116.1 109.4 110.5 109.2 110.8 113.2 110.9 108.2 106.2 104.6 104.7 105.3 105.5 105.7 107.7 106.8 106.4 106.3 112.9 119.9 122.4 122.3 123.9 126.5 127.5 129.2 129.7 125.9 123.2 119.8 115.4 107.7 101 94.7 88.4 84.4 83.4 83.5 84.4 83.5 84.1 85 84.2 83.7 81.4 83.7 76.1
44 44.7 51.1 60.2 69.6 69 69.4 77.8 87.5 98.7 109.4 120.8 129.1 137.7 145.2 148 146 143.5 142.3 143.6 147 143.2 135.2 122.8 118.8 118.8 119.8 121 122.5 124.5 131.5 130.9 130 131.9 138.5 144.3 147.2 151.5 153.4 157.6 160.6 160.8 160.5 165.1 165.1 162.6 165 163.1 160.4 159.4 157.5 156 158.6 160.9 160.2 163.8 170.6 172.3 174.5 174.6 169.7 167.2 170.5 172.9 173.8 175.8 171 166.2 160.4 161.2 162.5 162 158.6 154.3 161.3 171.8 186.7 197.8 202.8 209.8 214.1 211.9 211.2 207.8 212.9 220.6 229.2 236.2 237.8 240.1 239.9 240 234.1 239.5 239.5 240.4 228.8 219.7 215.4 210 202.7 192.6 187.6 179.5 170.8 161.8 156.5 149.9 142.1 137 135.9 130.2 125.5 138.1 146.2 155.3 165.4 172.7 178.1 182.7 185 190 187.7 179.6 170 165.7 164.8 162.4 162.4 154.3 149.2 144.1 139 131.1 128.8 125.1 121.4 119.4 124.2 124.4 130.1 128.4 128.6 127.4 124.2 126.7 128.9 126.7 126 128.9 132.9 131.7 124 118.1 110.5 109.2 108.9 110.1 111.9 110.2 109.4 106.9 106.6 106.9 110 109.3 107.3 107 106.9 108 109.9 112.2 116.8 122.7 124.5 128 131.5 131.1 130.8 134 131.3 124.3 121 116.3 108.7 100.7 96 94.7 90.7 87.5 86.1 84 85.3 86.3 87.9 88.3 85.5 88.5 88.9 81.4
43.1 46.2 54.6 63.9 71.1 70.7 69.7 74.6 86.6 98.2 109.1 117.5 124.2 130.4 135.8 137.4 132.2 128 128.6 127.8 129.7 129.1 122.7 121.2 119.7 119.2 120.1 119.9 125.1 130.8 133.7 133.5 129.5 132.6 139.7 148.3 152.1 154.3 153.4 161.2 160.7 163.1 166.2 166.8 165.1 161.7 160.9 158 158.5 155.4 154.4 153.6 153.6 155.5 158.9 158.9 165.5 167.5 170.1 170.8 169.9 162.1 165.4 166.6 165.5 165.2 161 160.3 160.4 164.3 165.8 165.3 160.9 152.9 160.4 175.1 189.2 201.8 211.1 216.7 222.5 223.2 217.4 217.1 217.2 230.4 239.4 242.5 242.2 240.3 237 232 222 227.9 228.7 232.3 224.8 219.2 213.1 204.9 199.3 195.4 186.1 179.6 176.5 165.7 157.8 152.5 151.1 144.8 139.6 133.8 124 127.3 138.3 148.5 158.9 167.8 173.7 178.3 179.4 182.3 179.9 169.2 162 156.8 158.5 156.9 158.9 158.9 155.5 147.1 138.4 133.5 130.4 125.3 120 117.2 120.3 124 127.6 131.1 128.9 129.1 127.4 125.1 127.6 126 124.8 125.3 128.6 130.2 124.7 119.4 112.8 111.4 108.3 108.1 108.2 108.7 107.8 108.6 107.6 108.6 108.3 107.4 107.6 107.6 106.8 108.4 109.1 116.4 120.3 121.7 125 125.8 127.1 127.3 127.1 128 126.1 123.2 117.8 116.9 112 106.5 101.4 96.4 91.5 90.1 90.6 91.6 89.2 85.3 86.1 86.7 85.5 90.1 91 82.8
41.4 45.7 56.4 70.1 73.6 72 70 71.9 85.4 95.5 109.9 113.6 117.4 121.2 123.4 122.3 118.4 119 117.2 117.8 119 120.6 118.9 120.1 119.8 118.4 122.4 126.6 129.7 133.1 135.6 135.5 128.2 132.8 144.2 151.6 159.8 166.1 160.3 165.7 166.9 169 174.9 170.9 168 165 162.4 159.4 157.2 156.6 156.4 151.5 152.8 154.5 154.4 155.9 160.6 162.8 164.3 165.9 164.1 159.3 157.1 158.1 157.8 160.1 160.5 162.8 165.1 165.3 166.6 164.7 160.7 150.8 163 179.1 190.1 205.4 215.4 221.6 226 225 219.1 226.7 228.4 231.4 237.9 242.7 241.2 233.6 227.2 222.3 213.4 218.3 219.7 221.1 218.2 212 208.1 201.5 196.8 190.8 191.5 187.9 179 173.2 167.9 165.4 158.1 150.8 142.1 133.4 125.1 121.2 130.5 141 153.1 162.5 169.4 172.9 169.5 170.2 168.5 157 154.6 158.4 158.4 157.6 159.6 159.4 160.5 149.3 138.5 131.3 127.7 122.7 117.8 117 120.2 121.2 127.8 128.2 128.5 133.7 128.6 125.1 124 124.8 122.6 120.2 122 124.9 123.2 120.4 112.6 109.9 108.1 108.2 110 112.5 115.1 116.7 117.2 114 113.7 112 108.8 106.6 107.6 106.7 106.1 112.4 115.8 119.9 124 127.3 129.1 130.5 129.6 130.8 127.1 122.1 117.5 114.8 111.7 107.6 103.8 102.8 99.5 97.5 96.7 92.8 89.7 84.8 84.8 84.5 84.2 89.5 90.4 83.7
38.1 44.7 58.1 69.1 72.3 72.4 70.8 72.8 82.9 92.3 101.9 105.4 105.6 108.4 110.3 112.2 117.6 118.2 119.1 117.5 117 116.8 117 117.6 120.4 118.5 124.7 130.2 131.9 132.6 132.6 131.4 127.4 134.9 150.6 160.7 163.9 167.8 164.6 173.4 171.4 172.6 182.3 186.4 175.2 164.4 158.6 157.2 156 154.8 156.3 151.5 151.5 154.6 157.8 160.6 159.4 157.7 159.5 159.9 160.8 153.3 151.4 155.2 161.4 164.8 167.3 166.3 165.4 164.6 164 162.8 156.6 148.1 164.6 176.6 188.5 205.8 216.6 218.4 222 223.2 223.9 232.2 231 230.1 240.1 236.1 232.4 222.3 214.3 209.8 206.7 210.6 213.2 213.9 213.2 211 204.9 198.5 196.4 199.2 196.4 191.9 187.7 186.3 183.2 176.2 164.3 152.6 141.3 131.8 125.1 119.6 123.7 134.3 145.7 152.6 157.4 160.3 161.1 163.7 156.9 154.3 156.5 159 164.8 166.5 164 159.9 155.1 147.1 137 126.9 123.1 120 118 118.7 120.6 122.3 123.9 124.3 128.1 133.2 130.8 124.9 121.3 121.3 121.2 118.6 119.9 119 120.5 116.6 110 108.8 107.1 108 108.8 111.4 114.4 115.1 116.5 115.3 113.7 111 107.8 107.6 107.6 107.6 107.6 107.6 109.3 112.2 117.1 122 123.6 123.2 123.7 125.6 126.1 123.7 121.5 117.4 115.7 111.9 107.1 106.4 106.1 103.5 99.3 93.2 88.1 85.2 85.6 87.1 86 88.1 86.2 87.6
38.1 44.3 51.2 64.5 70.4 73.3 70.4 74.2 77.4 87 93.9 98 103 108.2 112.4 116.3 119.6 126.2 128.4 124.7 121.9 119.7 118 118.5 118.4 118.6 127.7 131 129 132.1 129.5 128.3 125.5 133.6 150.3 158.3 159.7 160.3 159.3 167.7 169.5 178.9 192.3 192.3 185.5 170.4 165 158.4 159.3 157.5 152.5 150.9 150.9 154.2 155.5 157.1 155.6 154.7 154 153.6 152.7 151 150.6 154.6 159.4 162.6 164.1 162.9 162.7 161.2 160.1 157.7 146.5 151.8 164.6 175.5 188 202.1 211.3 215.1 218.9 221.6 224.5 234.1 237.9 230.9 222.4 222.2 217.3 212.1 205.4 204 207.5 210.2 212.1 212.9 211.9 209.6 211.2 204.8 202.1 201.7 199.4 202 201.9 201.2 186.6 176.8 163.4 147.8 136.1 127.9 124 118.7 118.5 124 133.9 141.3 150.7 155.6 155.2 159.7 159.3 155.3 158.7 162.3 165.1 167.5 161.9 159.8 156.1 145.4 133.3 126.5 123.7 121 118 119 121.1 120.3 120 126.2 129.9 129.9 129 123.8 120 118.4 118.1 114.6 116.7 116.7 115.6 116.6 109.2 109.7 111.8 108.4 108.1 110.7 112.3 111.8 112.1 112.5 111.9 111.7 110.2 108.7 107.9 107.6 106.2 109.3 111.5 109.2 111.2 116 119.4 122.9 126.7 127 127.6 126 122.4 121.1 119.6 117.5 114.5 113.4 114.1 111.9 105.4 96.2 91 85 85.5 89.2 91.4 90.4 93.5 91.2
39.8 47 53.1 65.3 69.3 68.9 72 78.5 80.1 88.4 97.1 106.2 110.4 110 116.6 124.3 129.4 135.4 138.2 133.7 129.9 125 119.6 117.4 117.4 119.7 122.9 123.9 126.9 127.6 127.5 124.9 124.7 134.1 145.1 153 154.7 155.5 159.2 166.8 174.5 186.6 195.4 190.3 183.2 179.1 176.4 172 167.2 161.7 156.9 151.6 151 150.5 151.8 152.2 152.6 153.4 153.6 152 149.8 150.6 149.9 149.7 153.5 156.6 158.9 162.6 165.9 165.2 159.7 151.8 141.3 150 167.1 180.1 188.4 198.2 207.4 217 219.4 223 225.2 226.9 232.5 222.9 212.8 211 205.8 203.1 203.1 204.4 206.7 210.7 207.7 208.2 210.7 209.7 213.2 210.9 204.3 201.3 201.2 199.1 198.3 194.9 183.2 171 159.8 146.5 135.2 128.5 124.1 120.2 116.7 117.6 129.4 137.1 142.2 147.9 156.4 159.5 161.2 155.1 156.8 157.7 162.2 165 158.8 150.1 144.7 139.1 133.6 131.8 126.5 121.9 117.2 118 120 119.2 119.8 124.6 128.2 127.1 126.2 123.5 120.7 117.5 116 115.7 114.8 114.2 113 111.4 110.9 106.3 107.1 106.5 109.2 109.6 110.3 110.5 110.6 112.2 112.3 112.1 111.5 110.8 108.3 108.1 106 107.3 110.6 110.4 110.4 109.8 113.2 116.1 122.6 127.4 126.9 127.2 123.6 122.5 121.1 120 119.4 116.8 114.4 114.3 108.2 97.2 87.9 87.8 88.2 92.1 90.6 93.7 95.3 94.6
42.9 49.7 55.1 62.3 68.7 70.6 75.3 79 82.3 89.6 96.9 103 108.7 114.8 123.5 130.5 135.8 140.2 143.7 141.6 137.3 131 129 125.8 122.5 117 115.9 116.7 123.5 128.5 129.8 127.2 122.6 129.9 144.9 149.1 151.1 155.7 162 172.5 172.3 180.6 187.1 185.2 188.4 184.9 179.2 174.5 166.7 162.1 159.2 155.3 152.3 152.7 158 155.2 154.3 152.3 151.8 152.4 152.3 151.8 148.5 143 145.9 148 152.5 159.5 167.1 167.4 161.3 152.7 140.7 148.5 164.9 178.4 188 197.7 211.5 220.5 223.3 227.3 224 219.5 219.8 215.5 206.1 205.7 203.5 203.1 203.1 203.8 205.3 204.6 206.5 209.7 209.5 208.8 214.8 211.7 200.6 194.3 192 192.3 192.1 188.9 180.4 167.6 156.7 149.3 137.7 130.5 125.6 121 116.4 117.3 117.9 122.2 129.3 141.8 147.7 154.9 155.2 154.5 153.2 154.9 156.8 159.9 157.8 145.2 144.2 137.4 133.5 133.6 130.1 121.4 117.3 116.1 118.8 117.7 117 119.6 122.8 123.5 122 122.5 118.2 114.5 113 111.6 110.6 110.7 108.1 107.9 108.5 104.7 105.9 109 112.4 112.8 112.3 109.9 108.9 110.4 109.2 109.6 109.3 108.6 109.8 108.3 106.2 105.4 111.6 115.6 112.3 108.7 111.6 111.9 115 119.1 122.2 123.7 123.2 124.9 124.4 122.8 120.2 117 112.6 111.1 103.5 94.6 94 91.9 89.6 90.7 89.4 93.7 98.5 98.4
43.6 52.2 60.2 64.5 67.6 72.8 77.4 80.4 84.3 88.6 96.8 107 117.1 123 127.2 132.4 139.4 144.7 147.2 144.9 142 143.3 132.4 128 120.9 115.1 114.1 119.4 125.1 131.1 130.4 125.8 119.9 124.2 136.8 145.1 150.7 155.9 165.2 169.1 168.8 173.6 177.3 183.2 184.3 187.3 177.3 173.6 166.2 160.6 158.9 156.4 153.2 151.1 155 158.4 163.3 160 154.7 155.9 155.3 156.6 154.3 143.6 134.8 139.1 142.7 154.1 163.4 168.2 158.8 148.5 138.2 149.1 164.7 179.3 189.8 202.1 212.4 219.8 223 218.3 215.2 213.6 213.1 207.9 204.6 203.7 204.7 204.2 203.6 202.8 204.4 204 206.1 206 211.7 212.7 209.3 204.4 197.5 183 180.1 182.2 185.1 181.4 176.4 165.6 156.5 147 139.8 130.5 125.1 118.6 115.2 114.1 112.6 114.9 124.8 130.9 139.7 146.5 149.2 150.2 150.2 150.4 152.9 155.4 152.4 146.2 140.4 137.9 137.2 136.8 131.9 126.6 118.9 115.5 117.1 114.6 114.4 115.6 119.1 121.2 120.2 119 116 113.2 110 109.4 109.6 108.3 107.4 108.3 106.3 102.3 103.1 106.2 107.3 106.9 108.2 106.3 106.9 108.3 108.7 106 106.1 106.2 107 105.8 106.1 105.4 106.4 112.9 113.4 108.7 109 109.7 110.2 114.4 114.4 116.1 117.8 122.2 126.2 125.2 121.5 116.5 112.3 107.7 105.5 101.3 100.2 93.5 92.2 90 88.3 90.2 95.5 98.3
46 56.1 63.4 66.9 68.6 72.2 77.7 83.4 86.6 97.2 108.5 118.7 124.8 128.8 131.6 133.5 136 142 144.3 143.1 147.5 146.7 134.8 124 116.2 114 114 120.6 124.8 127.2 127.8 122.7 118.5 122.3 138.5 145.9 150.8 155.8 162.3 164.3 162.4 167.1 173.3 178.1 180.8 182 177.1 171.2 164.8 159.2 157.5 153.4 150.9 149.9 153.6 155.9 162.3 166.3 166.1 160.1 155.3 153.3 148.8 139.1 127.4 127 132.1 144.5 153.6 161.3 156.2 144.9 136.4 149.8 164.2 179.8 193.1 203.6 210.4 211.8 210.7 207.5 209 212.6 211.6 208.9 205 207.5 212.8 211 207.8 201.9 200.2 199.1 201.7 207 210.3 207.8 198.7 192 184.5 172.5 170.6 173.7 177.7 179.2 172.6 161.5 152.1 145.6 137.7 130.8 122.6 116.5 114.7 113.8 112.3 111.8 116.7 125.5 133.4 139.2 144.5 144.6 146.3 146.3 147.6 152.8 149.4 142.8 145 147.1 145 144.8 136.6 127.8 121.5 118.6 115.3 112.2 113.3 112.4 117.4 118.3 119.1 117.1 113.2 110.7 111.5 108.6 108.5 107.6 107.1 106.2 103.3 102.3 101.1 102.7 105.9 107.2 107.7 105.9 104.5 105.7 105.1 104.9 104.7 105 105.1 105.2 105.8 105.3 106.2 108.9 110.8 109.2 109.4 110 109 110.1 109.7 109.2 111.2 115.1 122.8 126.5 123.3 118.8 112.6 109.7 105.2 102.5 99.9 98.1 91.4 89.9 87.7 87.8 92.6 93.8
46.9 58.9 66.6 70.8 71.9 75.1 79.9 87 96.5 108.6 120.2 130.1 133.9 133 135 137.8 136.8 138.9 145.9 145.2 147.6 140.6 131.2 121 119.3 115.4 114.2 120 120.8 122.4 121.1 118.1 116.2 119.2 133.2 142.6 145.9 148.2 154.8 157.9 156.1 163.3 168.3 174.2 169.7 170.7 173.5 168.5 160 156.6 154.5 152.1 151.5 150.9 151.6 155.8 160.4 165.3 166.7 163 155.3 144.8 141.3 140.1 127.4 122.8 130.6 135.9 143.1 148.6 146.5 136 138.2 149.8 164.7 182.1 192.2 200.9 205 202.8 198 201.9 208.3 212.5 215.4 215.9 211.9 210.8 215.6 217.5 210.5 203.6 204.1 202 196.1 199 198.8 193.8 188.3 184.3 178.2 168.2 162.2 165.4 170.5 171.8 166 159.6 153.2 144.1 137.8 127.1 118.6 116 115 113.8 112.8 111.7 116.2 123.3 129.6 132.7 137.6 139.5 140.8 138.3 139.7 147.7 150.6 148.4 150.2 155.3 149.7 144.7 138.5 129.2 123.7 121.8 113.8 111.9 111.1 110.1 113.7 116.3 115 114.8 113.8 111.3 109.3 107.8 106.7 107.2 105.8 105.3 104.1 101.5 101.1 102.8 103.9 105.8 105.6 107.8 105.5 105.2 105.5 105.4 106.7 107.5 107 106.4 105.9 105.5 106.5 110.6 111.8 111.9 110.5 109.5 108.2 109 110.1 111.7 111.1 111.8 112.5 125.2 123.4 117.9 113 110.1 106.6 104.3 102.6 99.5 92.7 90.8 88.6 88.1 89.4 89.6
50.4 61.3 69.2 75 74.6 78.8 81.5 91.3 103.1 116.4 128.6 141.4 142.5 137.6 141.9 149.1 140.4 142.2 145.6 144.4 142.2 136.3 127.6 126 127.2 120.4 115.7 114.5 113.6 117.2 117 115.2 114.9 116.1 127.3 136 141 143.8 145.8 147.4 150.7 156.9 162.4 164.5 165.4 165.4 166.1 165.8 161.6 157.1 154.6 151.9 151.5 150.6 151.6 156.6 159 157.8 159.6 156 151.4 144.6 136.8 131.1 126.5 118.4 126.2 127.2 132.1 134.9 137.7 129.3 140.3 147.8 162.6 176.1 186.6 191 193.1 193.5 193.9 201.1 208.2 214.4 218.1 216.2 213.6 210.1 208.2 213.7 206.5 205 202.8 204.2 189.8 186.9 187.3 182 177.8 176.9 173.6 163.6 156.4 155.8 158.3 163.6 164.4 161.1 154.5 144.1 132.4 121.8 118 121.5 125.6 122.9 119.4 114.7 111.4 116.8 123.9 126.1 127.1 131.8 134.9 137.6 135.8 141.4 146.6 143.6 145 151.4 152 141.5 135 129.2 123.9 119.7 111.5 110 106.8 107.1 112.5 115 114.7 115 113.8 110.7 108.9 108 105.9 105.9 106.3 103.4 101.4 102.9 106.8 102.1 101.1 101.9 102 103.7 102.8 103.8 105 104.6 104.3 104.2 104.3 107 109.4 105.2 106.5 110.8 112 112.2 109.6 108.9 108.7 109.2 109.4 112.1 115 114.5 113.2 116.6 118.6 118 114.4 109.8 109.2 106.1 101.4 95.8 92.2 90.3 88.6 87.7 87.4 87.5
53.2 63.4 71.4 76.6 73.5 79.4 87.7 96 108 120.7 131.9 143.5 144.8 139.2 142.1 146 143 143.9 144.6 142.1 138 133.1 128.9 128.9 125.9 118.5 114.7 113 112.7 112.9 115 115.7 114.2 115.3 127.6 134 132.8 136 137.5 140 144.6 150.6 155.1 161.5 168.8 170.4 168.6 165.6 162 157.1 153.5 151.5 149.4 149.3 148.6 148.6 151.8 153.8 153.5 153.8 151.2 143.3 134.1 124.5 122.8 116.5 118.2 122.9 125.6 129.5 131.3 125.2 135.1 144.1 159.9 174.7 178.5 182.3 183.5 185.3 193.7 201.4 209.2 211.8 210.6 214.9 213.5 206.2 201.5 203.7 209.1 201.8 193.3 190.8 186.4 174.9 176.8 173.6 166.2 167.8 167.7 161.3 153.7 151.4 152.4 155.5 159.3 156.9 151.7 139.8 131 120.2 120.2 125.2 130 128.2 122.1 117.7 111.6 111.3 116.5 120.7 121 126.5 137.9 137.5 131.8 135.2 139.2 137.4 134.7 141.2 144.3 139.6 134.1 126.1 122 116.9 110.6 107.5 105.7 105.8 108.4 111.5 113.3 113.5 111.8 109.6 110.6 109.4 108.3 106.3 104.7 102.4 104.5 112.7 109.3 105.3 101.7 100.4 100.5 101.4 101.5 101.9 102.6 104.3 104.3 103.3 103.6 105.8 109.6 107.8 105.8 109.4 112.3 110.3 108.9 108.9 108.9 110.1 110.2 113.4 117 118.9 114.9 113.9 116.5 116.3 113.1 109.5 108.4 104.4 99.4 97.9 95.5 90.1 91 91.5 87.6 88.3
55.7 63.5 70.2 73 77.7 84.9 94 100.5 109.9 120.8 131.5 140.9 141.9 139.7 140 141.6 142.5 142.7 142.7 138 134.7 131.1 130 129.7 124 114.3 113.2 112.7 113.5 114.4 113.9 114.4 114 116.3 119.9 128.6 129.4 132.1 134.8 138 139.6 147.2 156.8 158.7 165.9 168.2 164.6 158 155.2 152.5 152.5 153.4 149.7 148.3 149.3 147.6 147.9 153.7 155.1 149.6 146.1 140.3 131.3 122 117.4 113.1 114.5 120.6 123.2 126.6 126.6 124.5 135.5 142.2 158.5 171 171.6 174.9 180 186.3 196.7 201.3 204.9 202.9 206.8 208.8 208.8 207.7 205.3 199.3 198.5 193.6 186.5 184 179.9 173.1 166.9 161.6 158.7 156.4 158.7 156.6 152.6 149.2 150.7 151.1 153.3 152.5 148.5 136.4 128.3 121.3 122.8 128.6 132.3 130.6 124.8 118.9 114.2 108.2 111 113.2 116.8 122.9 135.1 133.6 129.2 127.9 129.1 130.8 132.7 137.7 144.6 139.4 132.7 123.7 120.6 114.2 109.3 105.6 105.3 103.5 104.3 109.3 111 112.1 113 112.4 114.3 111.9 110.9 107.4 105 104.6 106.1 110.8 108.4 105.2 102.5 100.2 102.3 102.3 102.7 102.7 104.7 105.7 105.2 102.2 104.3 105.2 111.9 109 106.6 111 111.2 108.6 109.8 113.6 115.3 114.7 114.9 116.7 120.3 122.2 115 112.2 111.9 113.1 111.1 110.3 107.5 107 103.8 98.7 95.4 92.4 94.2 96.8 91.6 90.2
57 64.7 70.8 76.5 79.4 88.6 94.6 99.6 107.5 115.6 128.7 136.9 143.5 143.3 143.1 140.8 139 137.1 138.2 137 136.9 135.6 131.7 128.1 119.8 114.1 114.9 114.9 115.6 114.5 109.9 110.5 110.7 115.1 117.9 120.3 125.5 131.6 135.1 135.9 137.8 143.6 153.5 154.5 157.7 160.3 162.2 160.7 158.4 156.4 152.6 151.6 149.2 148.5 150 148.2 146.9 152 150.3 145.1 139.4 134.6 128.5 119.6 112.4 110.6 111.5 121.1 122.5 121.8 120.9 123.9 133.7 138.1 152.1 165.9 174.4 174 177.1 183.9 191 191.8 195.3 196 204.4 209.3 204.7 205.5 198.9 191.2 187.2 186.4 181.7 174.3 173.5 168.1 157.3 154 153.3 150.9 149.7 149.8 151.3 149 149.8 149.9 148.3 146.7 141.4 137.5 130.8 123.3 124.6 131.9 134 133.1 128.5 120.1 114.5 103.3 103.3 107.1 111.3 115.9 123.4 126.2 123.4 124.3 123.9 127.2 128 128.3 133.2 132.4 127.1 118.9 116 110.2 106.4 102.8 102.9 101.6 102.9 107.6 112 115.7 117.2 116.7 117.7 117.7 114.1 109.6 106.6 106.6 109 110 107.7 104 100.7 99.7 100.3 102.8 103.8 105.1 105.9 104.2 104.4 102.6 102.6 106.2 111.2 107.4 105.8 108.6 108.6 108.1 112.5 117.2 121.7 120 121.3 123.6 125.2 124.5 117.3 110 110.4 109.5 109.6 109.6 109.8 111.2 107.6 104.1 99.2 95.2 96.4 97 94.6 91.2
59 67.3 73.8 79.8 85.1 89.1 95.7 101.1 105.8 113 125.4 135.3 142 142.7 143.2 138.6 135.2 133.5 137.4 139.3 138.9 134.5 130.4 123.6 117.9 116.1 117.2 116.8 112.8 110.2 107.1 106.4 109.7 113.5 117.4 118.9 125.9 132.7 135.7 134.7 140.3 147 149 154.5 159.2 160.1 165 161.6 160.9 157.2 152.1 150.4 152.8 154 151.4 148.7 147.8 146.4 142.9 138.2 137.9 131.5 124.1 117.3 110.8 106.7 107.7 111.7 115.5 116 117 121.3 128.1 136.9 150.3 158.5 169 169.4 170.8 177.3 181.1 181.3 182.5 186.4 193.1 196.5 196.2 192 188.2 182.8 177.5 175.6 174 174.1 163.8 155.1 151.8 151.5 150 149 147.5 147.4 149 146.8 144 144.4 140 139.9 139.5 133.3 128.1 128.4 129.8 131.4 134.9 133.8 128.9 120.5 113 103.6 101.3 101.9 106.3 108.8 111.3 115.3 117.9 118.8 117.3 119.6 117.7 122 123.8 124.6 120.5 116.7 110.9 105.8 101.8 101.7 100.2 100.3 102.7 105.2 112.6 117.2 121.3 124.1 125.4 118.8 115.5 111.1 107.2 105.6 107 107.8 106.9 102.4 101 99.5 101.1 107.5 113 112.8 105.8 104.6 103.6 102.9 102.7 103.7 106.4 105.1 105.5 110.9 113.3 113.4 112.1 122 129.1 130.5 129.7 133.4 132.2 125.7 120.1 116.5 112.9 111.5 109.1 109.2 109.3 111.7 111.4 105.4 99.2 98.6 97.5 99.8 96.1 91.3
59.7 70.3 77.8 80.8 84.4 90.8 98.6 106.5 106.7 115 125 134.7 139.6 139.3 137.6 136.2 132.8 135.4 136 138 134.8 128.8 123.5 122.5 123 120.2 118.6 118.6 112.7 106.9 105.5 106.5 111.1 113.4 117.5 119.5 128.4 130.8 134.7 135.9 149.6 151.6 150.8 155.9 163 165.5 162.2 161.9 162.4 157.4 156.6 154.6 153.2 151.8 150 151.5 152.8 152.5 149.1 146.4 140.2 132.3 125.1 117.8 108.8 104.8 103.9 106 110.1 114.1 114.8 122.6 127.7 131.8 145.6 153 159.5 162.5 164 166.4 169.5 171.1 174.2 177.2 181.7 184.7 183 179.6 176.3 169.8 165.5 164 165 163.8 157 153.8 151.6 150.4 151.8 156.6 152.3 147.5 143.7 142.6 140.5 140.2 139 138.6 137.9 131.7 132.5 132 136.3 134.3 136.2 133.5 127.8 120.2 113.1 108.2 102.2 99 100.4 102 101.7 108 113.5 109.8 108.6 110.1 110.8 113.4 114.5 113.7 117.6 113.6 111.2 103.2 100.3 99.7 99.3 99.2 101.4 105.8 113.4 117.8 125.1 127.5 124.8 120.9 116.4 113.2 109.2 105.4 104.9 108.9 109.1 103 101.2 102.2 106.4 114 115.6 114.8 109.3 104.7 102.8 103 103 105 107.4 107.7 105 112.4 117.6 118.4 116.3 122.5 130 134.1 134.3 134 131.2 126 121.2 117.8 115.4 115.3 113.7 111 110.6 111.6 108.5 106.8 103.7 102.6 99 98.3 98 91.5
63 72.4 80.3 86 91 94.1 98.6 106.3 107.8 115.2 124.3 137.3 144.5 144.1 140.9 135.4 129.5 131.6 130.3 129 126.9 126 122.6 121.6 121.5 120.1 116.1 115.3 113.8 109.8 105.3 106.8 109.3 110.6 117.5 118.7 125.8 129.9 132.8 141.7 154.8 156 153.5 152 160.5 164.4 162 162.8 162.5 159.2 158.5 154.1 151.5 153.5 155.6 158 160 159.8 155.9 150 143 138.4 129.4 120.9 111.5 103.1 102.6 105.7 110.8 112.3 114 124.3 126 129.3 144.4 149.6 149.8 154.4 155.7 157.7 162.4 164 166.2 167.9 169.9 170.2 171.1 167.2 163.8 158.6 160.2 160.4 160.1 157.8 155.9 156 158.1 159.5 157.5 155.8 151.9 143.8 143.4 145.8 144.6 146.5 137.5 138.4 143.1 140.1 139.2 137.6 139.3 136.8 136.5 131.1 126.6 119.9 115 109.9 103.9 98.3 96 95.1 97.6 102.9 106.5 103.2 103.9 104.4 104.7 104 106.2 110.7 111.7 109.8 105.5 100.2 100 98.8 98.9 98.9 101.4 103.8 110.4 116.9 123.6 126.7 125.3 121 117.8 112.1 108.8 104.7 103 105.3 104 103.3 102 102 105.4 110.2 110.8 112.7 110.3 104.7 103.9 107.7 107.4 108.8 109.2 106.2 105.7 112.2 121.1 123.5 120.5 125.3 131.9 136 134 133.5 133 129.5 125.4 122.1 122 118.7 117.1 114.1 113.2 112.4 110.9 113.6 112 108.2 104.3 101 94 88.4
65.5 74.2 83.1 87.3 90.5 92.6 96.3 105.9 111.9 119.4 130.5 142.2 144.4 140.7 133.4 128.6 125.4 129.3 128 126.2 124.8 123 123.3 121.1 119.6 118.7 115.5 115.2 113.3 107.1 104.6 104.2 110.5 110.3 112.1 119.3 127.1 133.3 135.3 146.7 158.2 160.2 159 154.4 155.1 160.4 159.8 156.4 154.8 155.5 153.2 156 157.6 160.6 165.3 168.9 167.4 167.5 163.6 157.1 151.8 141.1 128.4 117.6 109.4 101.9 101.6 104.4 105.9 108.5 116.2 118 122 126.8 136.6 142 143.6 148.9 151.8 154.2 154.2 156.7 157.5 155.8 157.3 158.5 160.2 158.1 157 156.3 156.2 157.2 160 157.2 158.4 161.1 164.9 164.2 156.1 153.4 150.6 146.3 149.4 149.8 144.5 139.5 139.6 144.5 147.3 151 147.7 143.8 139 138.7 134.1 128.8 127.8 122.5 118.8 111.8 104.4 95.8 91 90.1 91.7 97.9 104.4 100.5 97.2 96 99.9 102.3 103.1 107.1 106.3 103.4 102.2 100.3 99.2 98.7 99 99.9 103.7 104.1 112.3 118.1 123 125.5 124.4 119.2 114.9 111.1 108 104.9 106 102.6 102.3 102.3 100.7 98.7 100.8 107.6 113.1 113.4 112 111 103.8 103.9 106 108.3 108.1 106.3 106.8 111.8 122 121.4 124 130.6 135 135.9 133.4 134.7 136.3 134.6 129.9 123.6 124.9 120.8 118.7 116.4 117.6 115.5 115.1 123.5 121.5 119.3 116.7 108.5 98.4 90.8
67.2 74.4 83.3 88.2 90.3 96.3 104.9 113.9 115.1 124.5 128.8 132.4 137.4 136.2 131.6 127.4 124.4 124.3 124.3 123.4 124.9 128 123.9 127.4 127.6 120.1 114.3 107.8 107.7 104.6 104.8 104.4 105.1 108.4 111.7 119.7 124.2 133.8 138.9 145.7 153.3 160.8 161.3 160.5 154.2 158.2 156 152.4 152.4 152.9 159.2 159.5 165.5 171.2 174 176.7 176.8 174.3 167.4 159.7 149.2 138.4 128.4 119.2 110.6 104.7 101 102.5 103.3 107.3 112.8 115.8 120.7 125.9 133.4 138.9 143.6 149.2 149.1 150.2 152.9 151.4 148.2 145.4 148.1 149.7 149.5 150 151.7 151.9 155.3 157.3 157.2 159.5 161.4 162.4 161 161.6 154.5 152.6 152.4 150.7 148.5 145.7 141.6 143.5 145.9 149.6 159 159.3 156.8 150.2 137.7 138.2 131.4 125.5 126.4 125.6 117.3 111.5 104.8 94.3 86.4 85.1 87.9 93.5 93 93.1 93.9 94.3 98.7 97.3 97.6 99.3 99 102.2 101.1 98.4 99.4 99.1 98.8 101.3 103.6 107.6 115.3 119.3 124.3 127.1 124.7 121 114 110.6 111.1 108.9 105.7 103.4 103.2 102.1 100.4 97.7 100.4 105 107.8 110.1 108 104.3 104 104 107.3 108.7 106.9 106.4 107.9 113.7 119.9 123 129.1 133.1 136.4 135.2 134.7 135.8 136.4 134.3 130.7 125.3 124.7 124.5 122.1 118.6 117.5 119.1 117.8 124.3 122.4 119.7 114.4 107.3 97.1 90.4
66.8 74.4 83.4 87.1 93.2 102.8 109 112.7 116.4 121.7 127.1 129.8 132.1 132.6 129.6 125.7 125.8 123.4 124 128 131 133.4 130.9 128.3 123.4 115.3 109.2 103.1 102.7 107.8 108.4 104.5 105.8 110.3 113.7 119.1 122.7 132.6 141.9 148.2 153.1 157.2 161 159.1 155.3 153.4 153 152.4 155.2 164.2 169.9 169.9 170.3 172.8 179.1 180.8 181.2 176.8 168.9 157.4 149.8 139.7 131.9 121.6 113.2 105.1 100.1 101.7 111.4 115.4 113 116.2 121.9 128.7 135.9 139.9 142.7 145.7 145.2 145.1 144.2 142.4 141.2 139.7 143.1 146.6 146.4 146.1 147.1 150 154.2 156.8 156.9 161.4 163.5 164.7 165 160.6 157.4 156.5 155.1 147.7 140.7 140.1 140.8 147.3 153.2 156.7 164.1 170.8 163.5 153.7 139.8 135.7 130.6 124.2 120.8 119.6 114.1 110.5 101.9 93.4 85.6 84 84 85.2 90 90.3 91.5 92.9 92.9 93.3 92.3 94.2 93.1 95.7 96.9 96.9 97.4 98.8 98.1 99.3 103 107.6 113.1 121.4 124.5 128.7 130.6 125.8 121.1 118.5 112.4 108.2 104.7 102 102.4 102.7 99.2 99.8 97.9 99.8 103.6 103.1 104.5 108.4 108.2 107.1 106.6 109 111.3 110.9 115 121.9 123.4 129.2 134.3 136 137.7 135.9 135.8 136.3 135.7 133.4 130.1 126.2 122.9 125.2 124.5 119.5 117 116.7 117.3 120.5 120.6 116.5 111.2 106.3 101.4 94.9
67.3 73.8 82.1 87.7 96.3 104.9 110.4 116.4 119.3 126.3 131.8 133.9 136.4 131.4 129.5 127.8 128.8 128 129.1 133.4 135.5 137.7 133.6 128.1 120.3 111 106.3 102.7 101.8 105.7 105.1 104.7 108.6 111.7 109.7 114.3 121.6 132 144.3 151.2 155.7 159 160.2 161.5 161.1 158.9 157.8 161.6 166.1 171.2 171.9 172.7 174.7 177.7 180.9 185.1 183.9 176.6 171.6 158.7 147.6 135.9 127.2 116.7 106.7 100.7 99.1 106 115.3 123.8 120 114.1 120.8 128.5 134.4 135.6 137.4 139.5 140.5 135.8 137.6 137.5 139.1 140.4 145.5 145.7 146.5 145.8 149.5 152.7 155.8 155.9 154.9 157.3 163.6 164.6 164.4 165.4 158.6 155.1 145.8 140.2 140.7 141.7 141.7 148.6 157.6 163 165.7 172.2 166.7 158.3 146 130.2 124.5 117.7 112.2 109.4 106.4 103.9 99.5 97 85.6 82.7 84.5 84.3 89 90.7 91.2 92.2 90.3 88.3 86.9 88.5 89.6 93.8 95.4 96 95.5 97.8 98.9 102 105.3 111.9 112.1 121.4 126.3 132.8 137 130.2 125.5 121.1 113.3 107.8 104.5 104 105.8 105.6 101.3 100 98.5 98.3 101.8 99.6 99.4 106.3 107.8 105.2 103.9 107.4 111 116.4 119.7 125.2 128.7 133.4 136.8 138.9 137 134.7 135.3 135 133.7 131.5 126.9 124.2 122.5 120.9 120.3 121.4 118.8 118.1 117.5 118.3 120.1 118.1 112.4 106.6 99.7 94.5
72.4 78.2 84.1 88.7 97.2 108.1 116.5 123.9 121.6 131.6 133.6 140.4 140 133 129.1 124.1 124.5 127.3 130.5 134.3 138.8 134 127.3 122.4 117.9 111.7 107.9 109.5 103.5 102.4 103 102.9 105.4 105.2 108.2 113.5 119.9 130.1 141.5 150.3 155.9 158.6 160.5 165.7 162.1 159.4 168.5 173 174.5 175 177.5 179.8 174.6 178.7 179.6 181.7 180.5 178.7 167.6 153.2 138.9 126.6 118.2 110.3 102.1 98.2 97.8 106.6 115.7 125.7 122 114 119.4 126.9 131.4 132.2 134.6 132.5 132.1 131.8 132.5 134.9 139.6 139.3 142 141.2 144 144.6 152.3 151.7 152.1 153.7 157.6 157.1 159 165.7 169.4 163.1 157 146.3 145.5 143 143.4 148.1 152.8 156.1 165.7 167.6 165.5 166.8 168.9 162.9 148.3 135.6 126.2 114 106.2 105 105.3 103.1 99.6 99.1 87.9 80.3 81.3 85.6 89 87.3 87.5 86.3 88.2 84.8 82.1 82.2 86.7 91.1 91.9 92.9 94.2 97.6 101.2 101.7 103.4 109.8 110.3 118.7 128.4 135.4 136.9 137.3 132.8 119.9 112.1 108.4 107.8 107.8 109.9 108.9 102.7 101.7 97.8 96 94.9 94.6 95.5 98 99.7 100.8 99.7 102 110.7 122 125.8 132.4 131.8 134 135.7 141 137.8 133.5 133.7 134.8 135.7 133.4 126.8 123.7 122.3 121.3 120.3 119.3 119.8 120.3 118.7 118.4 120.4 121.2 112.8 107.5 102.1 97.2
76.4 80.4 84 86.9 99.1 112.9 121.9 125.9 129.6 138.7 135.1 141.1 143.6 142.2 132.9 125.8 123.1 122.5 126.3 132.6 133.7 129.4 122.5 117.2 115.4 116 116 113.6 107.8 101.8 100.7 100.5 100.5 102.7 108.1 112 119.8 128.8 138.4 146.2 157 158.3 160.1 159.9 162.1 165.9 172.9 176.4 175.3 174.9 175.1 176.5 176.3 178.4 182.6 179 175.3 171.2 159.6 142.9 125.5 118.7 113.8 106 102.5 101.8 96.6 104.8 112.4 122.6 119.7 112 118.7 123.3 125.3 126.2 127.2 126.4 126.9 128.1 131.4 134.3 135 133.8 135.7 134.2 137.1 141.4 145.2 144.6 148.7 153.9 155.7 160.8 161.9 163.3 162.6 158.5 151.6 148.1 147.6 147 151.4 154.8 165.9 168.8 171.1 169.8 164.2 163 165.4 163.6 148.3 131.8 120.3 110 107.2 104.1 102.9 105.5 101.6 95.4 86.3 81.6 79.5 81.3 82.7 85 84.7 83.2 80.9 80.1 76.9 77 80.2 87.8 93.3 96.1 96.8 99.5 103 110.2 105.5 106.2 106.9 121.1 135.7 141.4 137.4 135.5 129.1 123.6 116 111.2 111.9 109.9 109.4 109.1 105.7 99.4 93.6 93.9 94.1 93.3 93.4 94.2 94.5 95 96.8 97.3 106.3 120.8 124.6 131 132.2 131.8 134.8 138.7 136.8 133.7 134.7 136.5 138.1 137 131.5 126.5 123.9 122.3 120.8 119.8 120.6 121 119.9 119.2 117.2 116.9 113.7 109.1 104.7 96.9
77.1 79.6 82.9 89.6 101.7 114 126.6 134 137.8 138 133.3 139.6 145.2 134.4 126.3 120.3 115.3 117.3 120 127.2 129.4 127.5 127.8 120.5 119.8 121 121.2 112.9 108.9 102.9 100.5 104.6 104.3 104.3 106.3 115.5 122.1 128.5 135.7 143.8 154.3 157.8 166.1 168.8 171.3 167.5 172.9 171.7 170.1 168.4 170.6 173.2 172.8 175.9 178.8 171.3 167.6 164.1 151.2 138.3 127.4 118.3 114.5 110.9 104.8 100.2 95.8 97.7 105 113.1 110.6 110.2 115.9 118.8 120 122.2 124.1 124.2 125.4 127.5 130.3 129.6 129.3 132.1 130.1 130 132.2 133.5 135.9 140.3 148.3 154.9 160.8 160.9 158.2 157.3 156.4 150.8 151.2 149.6 151.1 154.5 157.8 161.9 173.8 170.8 162.9 161.9 160.2 158.2 160.4 152.5 142 133 118.7 115.3 108.6 101.4 100.2 100.2 97.1 89.9 85.3 81.3 77.3 77.8 78.3 83.2 82.6 80.1 78.1 74.6 73.6 76.8 84.3 89.1 95 97.8 97.7 101.2 105.5 107.8 106.3 107.4 109.4 122.8 136.4 139.5 135.3 132.5 128.7 124 115.7 112.7 115.4 112.7 113.3 110.9 104.3 97.3 94.9 93.4 93.7 93.6 93.2 93.7 95.9 95.7 95 96.7 104.4 118.1 122.2 128.6 129.7 129.8 132.3 135.1 135.3 134.4 135.7 138.4 141.7 140.2 135.1 129.3 125.6 124.7 122.5 121.2 121.2 121.8 120.7 119.4 119.5 116.3 111.8 108.5 105.3 101.3
78.6 83.2 85.8 91.5 104.9 118.8 132 143.2 142.6 139.5 133.5 130.8 135.1 131.7 125.9 116.5 112.2 114.8 118.6 126.5 137.8 134.4 130.8 127.4 124.3 120.6 121.4 113.6 108.9 105.2 100.8 100.5 101.6 102.4 107.7 114.8 124.1 131.6 136.7 142.3 150.8 159.5 169.8 170.6 170.7 164.1 163.3 162.7 161.5 166.5 168.8 170.4 170.6 169 168.5 165.7 157.2 151.5 142.5 132.8 125.2 116.2 116.6 114 108.5 100.9 94.9 95.8 101.1 104.7 108 110.7 113.4 116.2 119.7 122.5 124.4 125.2 128 128 128.2 128.4 128.2 128.2 128.3 130.6 133.9 138.5 141.7 148.5 154.8 162.5 159.6 157.6 156.7 153.4 153.1 154.6 154.7 155.4 158.7 163.8 165.8 165.8 162.6 164.6 160.8 157.7 157.4 161.5 154.3 153.5 149.9 134.7 126.9 115 110.3 106.8 99.3 95 90.1 87 83.7 79.5 74.8 73.2 73.9 75.7 77.9 78.2 76.2 71.9 72.3 78.4 82.9 89.7 95.1 98.1 97.2 100.5 104.7 106.7 107.2 107.1 112.2 121.4 132.8 135.7 132.9 130.2 126.5 119.1 112.7 110.5 110.7 109.2 107.1 104.1 101 95.2 93.5 93.1 93.1 93.3 93.7 93.8 96.7 96 95.6 97 105.2 115.9 123.5 128.6 129 129.2 130.4 133.7 134.1 135.1 138.4 142.1 145.7 144.8 139.2 132.5 128.5 127.4 125.3 123.3 123.6 122.8 120.2 119.7 119.2 117.2 114.8 113 110 106.1
85.3 92.6 92.8 91.2 104.9 120.2 134.4 142.9 142.4 139.2 133.4 127.7 125.8 137.2 130.6 118.3 112.5 112.9 120.3 129 131 134.3 130.8 129.2 127.6 123.1 119.8 118.8 112.8 107 100.5 99.6 102.3 104.2 109.5 121.5 130.8 132.6 135.5 138.1 145.2 156.6 164.4 163.7 163.1 160.6 157 157.3 161.9 162.9 166.3 167 165.1 162 158.2 155.8 150.6 142.9 138.5 131.8 122.7 121.3 117.8 112.2 105.8 99.8 94.2 94.8 100 105.4 108.4 111.8 115.7 120 121.5 126.7 127.3 127.6 127.4 127.4 128.7 128.2 128.4 130.2 131.4 133.3 136.6 142.5 146.4 152 161.1 161.6 155.1 154.2 154.3 155.3 156.2 160.2 163.2 162.2 166 168.7 164.5 159.2 161.6 161 157.2 156.9 161.1 162.5 157.4 159.1 149.9 137.4 123.2 118 112.1 108.8 102.2 96.7 90.9 84.1 79 75.8 74.1 71.9 74.9 81 78.6 77.9 73.4 70.3 72.8 77.5 81.7 93.2 94.2 96.8 98.6 98.8 100.3 102.9 107.4 109.1 112.9 116.4 125.9 132.1 131.8 128.8 124.7 118.5 111.9 109.6 109.1 108.3 108.2 106.2 99.9 97.6 93.8 92.9 92.9 93.5 93.9 93.4 96.9 98.7 96.8 99.2 103.3 117.5 124 128.6 128.6 129.5 130.4 131.9 137.7 139.9 143.6 149.7 153.1 150.9 145.9 138.8 132.2 130 128.9 127.8 125.5 123.3 118.9 117.6 118.5 117.1 115.6 112.8 110.2 106.6
89.5 100.2 99.3 93 105.1 118.2 127.6 133.1 138.7 136.9 131.5 122.8 115.7 120.1 123.9 110.7 106.7 111.2 118.9 123.8 124.1 129.6 130.3 127.9 128.2 128.1 123.3 122.7 118.3 107.8 99.8 100.3 102.5 103.2 105.9 117.7 127.4 136.6 132.7 137.8 144.6 146.9 152.4 157.7 159.8 158.1 154.6 154.4 155.7 157 161.5 160.7 159.2 153.4 151.1 146.3 145.7 139 131.6 126.1 121.7 118.3 114.8 110.3 103.9 97.3 93.3 93.7 98.8 103.8 106.8 112.8 123.4 124.4 124.8 125.7 125.9 127.2 128.1 130.3 130.5 131.3 130.1 136.3 131.6 133.7 140 146.2 151.7 153.6 155.8 157.2 155.2 155.2 154.2 157 163.4 169.4 172.6 169.3 165.6 162.5 158.8 159.9 163.4 165.9 159.4 163.4 162.9 160.4 164.5 158.3 149.5 138.2 125.6 116.8 110.5 108.2 103.8 99.1 93 87.4 82.8 77.8 73.6 71.7 70.4 73.4 73.4 72.4 70.4 69.3 72.3 76.3 81.5 88.6 93.4 97.5 98.8 97.9 98.7 103.4 110.1 113.8 113.4 114.3 121.9 128.3 129.8 126.5 122.1 116.6 111 109 108.3 108.5 106.6 106.8 103.4 101.6 94.5 92.7 92.6 93.8 93.9 94.9 99 101 98.7 99.3 103.4 118.7 124.9 129.9 129.1 129.6 131.9 138 141.4 145.5 158.1 160.9 160 158.7 154.9 144.5 137.1 133.2 132.2 130.2 124.5 121.2 116.7 117.1 118.6 118.5 118.4 115.9 108 103.9
91.7 101.4 101 94.5 103 111.9 121.3 129.4 135.1 130.6 125.7 117.2 107.1 106 111.8 109 108 109.8 112.2 114.8 115.4 118.7 126 129.9 127.4 123.2 125.6 121.2 113.5 101.3 99.6 100.2 101.2 103.1 105.2 114.3 124.3 132.6 132.2 138.6 141.6 143.7 149.3 154.7 156.4 152.1 150.7 149.6 148.8 153.7 156.9 156.8 157.8 154 149.5 147.5 142.7 134.4 128 123.3 120 117.1 114.5 106.9 99.6 94.3 91.7 95.5 104 105.8 110.1 116.1 125.2 125.9 126.3 126.7 128.9 131.6 130.2 130.7 137.2 142.6 137.5 135.4 136.6 139.7 145.5 154.7 156.1 150.1 151.1 156.8 158.9 159.5 160.1 164.4 168.5 173 175.7 169.7 161 159.8 161.2 163 167.3 167.5 169.3 172.3 170.6 170.6 166.7 155.8 146.8 137.8 129.2 117.2 112.1 111.6 105.6 104 97 91.6 82.6 76 72.3 68.7 68.1 69.8 69.1 68 68.1 70.1 70.9 73.1 79.5 87.8 95.3 94.6 96.6 96.7 99.9 106.1 116.3 123 116.4 112.4 121.2 126.9 129.4 125.7 121.9 116.8 112.5 111.5 108.8 111.3 108.2 104.4 100.3 98.7 93.7 93.9 94.2 93.4 93.1 96 99.3 98.7 97.4 98 106.4 122.1 128.1 131.1 129.8 130.4 136.9 141.2 146.3 153.3 167.9 173.3 171.5 167.5 161.1 153 143 138.1 135.6 133.2 126.9 121.3 118.5 118.4 118.9 117.8 118 114.6 111.2 106.2
95.1 99.6 101.1 94.3 98.6 107.3 112.8 119.2 122 121.2 117.4 111.3 102.7 99 99.2 104.4 105.9 104 103 106.4 113.9 120.3 123.3 125.3 123.6 117.6 113.7 110.7 106.6 99.6 100.3 101.3 101.4 102.8 105.2 111.7 119.2 124.6 128.3 133.2 136.5 143.3 151 153.7 151.4 149.4 149.3 149.2 148.8 148.8 150.2 152.1 154.6 156.3 154.8 149.3 144.2 140.3 134.5 127 122.4 117.5 113.7 105.3 98.1 93 90.7 94.7 105.8 109.7 109.5 115.2 123.8 129.3 134.7 134.6 131.5 136 135.9 133.3 138.9 144.4 145.3 138.5 138.5 141.3 152.5 157.9 155.2 149.6 149.1 153.8 161 164.9 165.5 165.3 166.9 173 171.2 163.1 159.4 159 164.1 165.7 167.2 171.6 174.8 181 177.6 168.3 161.7 152.8 142.3 140.5 131.3 119.2 114.4 116.4 114.5 114.1 107.8 98.6 91 84.2 76.3 68.1 67.3 68.1 67.5 70.1 67.9 67.6 70.6 71.6 80.1 85.7 92 93.5 94.1 97.3 102 112 119.9 123.4 118.8 109.7 117.8 121.3 124.4 123.1 119.7 114.5 108.9 106.1 104.8 105.2 101.6 99.4 97.7 97.9 96.2 94.1 92.9 93.8 94.8 96.1 100.9 100.3 99.8 102.9 114 124.9 132.8 132.3 131.1 132.6 139.1 144.8 150 159.6 178.8 186.1 185.7 178.1 169.4 160.7 154.3 149.1 143.8 137.3 131.1 123.8 118.7 117.6 118.1 116.7 117.1 114 110.5 107.5
94.2 97.7 98.8 93.7 96 102 106.9 109.1 107.9 106.7 106.1 103.3 102.7 101 97.9 98.6 99.8 99.3 103 112.1 112.9 118.1 118.1 118 118 116.8 111.2 108.6 100.4 97.3 101.8 103.8 103.3 104.4 105.5 111 116.1 118.9 120.3 127.8 136.3 142.1 150.1 147.3 150.2 149.6 149 148.9 149.8 151.3 150 150 155.6 155.2 150.1 148.9 148.9 144.1 139.9 129.9 124.7 120.5 113.2 106.4 100.3 92.7 90 91.1 103.9 108.7 109.1 115.8 126.3 136.9 144.6 143.2 137.4 141.8 144.5 140.7 139.8 145.4 146.4 143 137.8 137.7 145.8 149.9 152.8 155.1 150.1 154.2 161.5 163.8 161.7 159.7 160.1 161.9 160.6 161 162.8 161.5 157.7 159.3 162.7 169.8 174.3 177 175 162.8 156.9 149.8 140.5 139.3 135.6 122.5 118.7 122.3 124.4 119 112.6 100.8 89.3 76.3 70.3 67.1 66.9 67 66.6 66.8 68.4 67.2 70.7 75.4 79.1 82.7 87 92 96.8 101.2 106.3 113.4 116.6 118.8 118.5 109.3 110.2 115.1 118.4 118.2 114.6 111.2 107.3 101.7 100.9 100.4 101.4 100.7 98.7 98.5 96.6 96.7 93.4 93.7 98.5 97.2 101.4 101.5 105 110.2 121.8 129.2 137.4 133.9 132.3 135 140.7 146.7 154.1 165.3 183 190.2 186.7 178.9 170.8 164.6 158.6 153.4 148.7 143.1 135.7 125 119.7 117.2 116.4 116.2 116.8 112.9 109.7 106.2
91.7 98.2 98.4 93 94.8 97.9 98 99.6 104.4 105.7 103.9 102 101.7 99.9 102.3 101.2 96.2 99.3 106.4 105 104.5 109.7 110.5 108.1 107.4 109.9 103.3 97.9 94.4 97.7 103.5 107.8 109.9 107.2 107.5 108.2 110.3 114.8 116.3 128.2 131.4 136.4 142.3 146.7 149.4 150.3 151 150.4 151.3 154.7 152.3 147.8 147.5 148.7 149.6 150.8 155.1 148.4 137.9 130 124.4 120 109.6 103.9 97 93.6 90.8 88.9 99.5 105.4 110.6 117.9 128 135.2 142.6 146.8 144.6 146.8 150.6 153.4 148.9 150 146.9 145.2 141 138 141.3 146.8 152.9 154.5 152.7 152 159.4 164.1 160.1 157.5 152.7 152.9 157.2 160.2 160.2 158.2 155.5 152.8 156.8 162.2 167.5 165.6 163.1 160.2 149.9 144.5 136.1 133.3 131.5 124.9 118.4 127.9 129.7 119 108.9 94.2 86.3 76.6 69.3 66.3 66.2 67.1 68.3 67.3 65.9 69.2 74.5 76.5 76 78.7 88.5 96.9 103.5 107.1 109.1 110.8 113.9 116.7 116.6 109.9 107.7 114.4 117.2 115.7 112.6 106.9 103.4 101.1 97.9 98.9 100 99.7 98.9 98.2 96 93.9 93.4 97.3 100.6 102 100.6 102.4 108.1 119.5 128.9 133.8 137.3 135 132.1 136.6 142.2 147.6 155.1 170.8 186.5 188.6 187.7 181.8 176.2 170.7 166 158 152.6 144.5 137.2 125.8 120.8 117.6 116.4 117.1 118.9 117.1 110.8 107.9
93.4 97.1 96.2 92.9 91.6 91.8 92.5 100.5 105.6 108 109.2 106 104.6 104.7 107.8 104.5 100.8 93.6 98.1 95.8 96.8 98.8 100.9 99.6 98.6 97.7 95.1 92.8 93.3 100.2 105.8 112.2 111.9 109.6 108.6 108.5 108.2 114.7 119 121.6 127.8 130.8 138 145.4 150.2 154.8 154.4 157.8 157.8 154.5 147.9 144 144 144 145.4 149.5 151.6 147.2 139.5 132.6 124.3 115.6 111 108.4 103.4 100.6 95.5 87.7 93.1 103.8 110.5 118.6 127.7 135.4 143.2 147.9 150.5 155.5 161.4 161 156.4 152.9 147.2 145.1 143.7 139 138.7 143 147.2 148.9 147.8 149.8 157.2 159.6 150.9 149.4 147.5 148.5 152.8 153.6 150.7 152.2 154.2 154 153 159.9 157.2 155.7 157.6 160.2 146.8 140.5 134.7 128.7 125.6 124 116.8 124.3 118.9 114.3 110.1 102.7 87.5 76.3 68.8 65.7 65.5 65.9 64.8 65.4 65.3 68 72.4 72.5 76 84.8 93.7 100.2 104.5 107.8 110.9 111.1 111.2 112.6 115.3 110.4 105.2 109.9 113.5 113.7 109.6 103.7 102.5 100.6 97.3 98.5 97.8 95.7 95.9 95.1 95.7 96.1 95.6 103.3 104.8 105.5 101.9 104.9 112.4 125.9 133.1 136.8 136.5 133.9 132.5 135.8 141.7 147.5 156 170.6 184.5 189.7 192.4 188.6 182.3 176.3 170.4 163.6 158 150.1 139.5 129.1 122.5 118.6 116.5 116.6 118.6 117.3 111.3 108.6
95.6 96.2 95.9 90.9 90.9 90.7 93.2 101.1 108.3 112.1 113.3 110.1 106.7 105.5 104.4 103 100.3 94.6 92.3 91.4 88.1 88.2 91.8 93.3 90.5 90.6 90 90.1 100.1 102.4 102.9 105.6 109.3 108.2 108.5 108.5 107.6 114 119.9 119.8 124.2 128.1 138.4 148.8 160.9 163.6 163 161.5 159.5 150.8 144 144 144 144 144 146.7 148.6 148.9 143.3 134.4 127 119.2 116.6 107.9 101.7 102 96 88.6 90.4 101.1 110.8 116.9 125.6 135.7 144.6 153.4 161.6 168.1 172.3 170 165 161.8 154.2 147 144.7 142.9 138.9 139.4 142.2 143.5 144.8 145.7 148.6 149.9 150.1 149 147 145.7 146.6 145.9 147 147 147.7 148.4 149.4 152.1 152.2 154.5 155.6 154.6 146 137.1 132.6 129.4 123.1 123 115.6 117 120.8 123.3 107.5 92.7 78.3 71.3 68.8 65.1 64.9 64.7 64.4 65 65.1 68.6 68.6 70.8 75.3 88.3 95.5 101 102.9 106.5 109.6 110.5 111.3 113.1 112.1 108.7 104.2 108.2 112.8 111 107 102.7 98.4 94.8 95.9 95.9 95.2 94.8 96.6 94.7 95.1 94.1 97.6 106.4 107.1 105 104.1 107.9 118.2 126.7 135.2 139.9 136.4 132.9 132.3 134.7 140.6 146 153.8 164.3 177 195.9 199.5 199.3 192 186.1 180.1 169.3 163.7 156.7 146.1 133.4 124.3 120.8 116.8 114.5 117.3 117.3 116.1 112.6
95.2 94.4 91.7 90.9 91 92 96.4 106.6 111.1 115.4 115.3 112.2 112.4 111.8 109.3 108.9 107.5 100 96.9 93.9 88.2 80.5 80.9 85.6 85.6 83.8 88.7 91.6 95.7 98.9 95.3 98.7 104.5 107.6 108.5 108.5 112.4 118.4 120.6 121 122.7 129.3 139.5 150.2 166.3 170.3 162.1 158.7 151.5 147.6 149.8 149.1 149.4 146 144 143.9 141.9 145.7 145 136.1 126.1 118.5 111.6 106.2 99.4 96.4 93 86.9 90.4 101.6 110 118 128.3 140 149.6 160.8 168.9 177.2 181 180.8 175.8 166.8 158.2 152.5 149.5 147.5 142.8 142.8 145.5 147.2 147.9 147.1 147.3 150.2 146.4 145.6 145.4 145.3 145.2 147.8 148.9 146.6 148.7 153.4 156.1 156.6 159.2 158.2 154.7 148.6 140.8 134.4 128.7 127.4 122.7 119.9 115.7 115.7 123.4 111.7 100.1 95.4 79.9 71.8 66.2 64.2 64.1 64 64 64.9 64.1 65.8 68.3 69.1 75.7 86.4 92.5 98.1 101.3 105.5 107.8 109.2 111.7 110.9 109.7 106.6 103.8 103.2 106.7 105.3 102.1 98.1 98.4 100.3 100.7 97.1 96.5 95.6 96.4 95.2 94.8 95.5 103.1 109.6 107.8 106.4 108.5 112.1 123.9 131.6 133.4 138.3 134.4 132.5 131.6 134.7 140.8 145.9 154.4 162.5 173.4 200.3 205.6 206.1 199.3 192.2 187.8 176.1 169.2 161.1 151.6 140.4 128.3 122.6 117.7 121.5 121.6 122.4 119.2 114.2
94.5 92.2 92.7 93 96.5 96.1 102 107.4 112.5 117.5 120.9 120.8 118.5 118.1 115.3 111.6 108.1 104.4 96.4 90.4 85.2 80.5 78 78.2 79.8 82.8 87 89.5 89.7 91.2 99.6 98.5 102.4 108 105.9 109.2 112.6 118.9 118.3 119.4 121.4 128.2 136.4 144.8 157.5 160.4 156.9 153.1 151.5 151.1 155.5 156.6 155.2 151.6 147.9 142.8 139.1 138.4 137.9 130.8 124.5 114.6 106.2 97.5 91.3 89.1 84.3 83.7 93.7 102.1 109.6 121.6 134.8 148.9 161.7 174.1 178.1 186.2 189.2 186.3 179.7 170.5 163.9 162 159 154.2 147.9 147.9 150.8 154.4 153.2 148.4 145.5 145.4 145.6 145.2 145 145.9 148.3 152.5 156.7 152.2 155.6 157.7 163 163.6 165.2 162.8 158 148.8 140.3 131.4 126.9 122.6 120.7 120.3 112.2 111.3 114.9 111.5 104.3 90.3 78.4 70.5 65.3 65.5 63.9 63.5 63.8 64.1 64.3 66.9 67.2 71.5 74.8 84.8 93.5 98 101 105.8 109.7 111.4 108.8 108.4 109 107.3 110.7 101.7 102.4 100.2 98.7 98.7 101.9 102.5 102.8 97.1 96.4 95 94.6 95 93.9 96.6 107.8 108.7 108.9 108.2 112 114.6 125.6 132.4 131 132.3 134.6 133.8 132.7 136.8 139.6 145.3 151.8 158 169.7 195.6 205.6 205 201.1 196.4 192 186.9 175 160.7 155.4 145.2 133.8 125.3 118.9 119.1 124.4 124.5 120 113.2
92.6 96.4 98.6 99 100.6 104.1 110.3 114.4 119.8 124.1 126.8 125.1 126.2 122.8 116.3 113.6 111 104.9 97.5 90.8 87.3 86.8 88.1 78.3 77.8 85.4 83.2 85.1 86.1 84.9 92.3 94.3 98.5 102.8 103.2 105.6 108.8 112.9 118.6 121.8 121.3 125 132.4 140.3 149 155.5 157.7 154.1 154.2 157.5 161.8 161.4 158.4 153.6 153.5 151.4 138.7 129.5 129 128.3 118.5 106.9 99.5 92.5 88.3 83.3 81.4 88.8 96 101.7 110.7 124.6 140 156.1 170.8 179.7 182.9 188.9 190.9 186.2 183.9 182.9 174.5 166.4 160.5 156.9 154.5 155.2 159.3 159.6 153.5 151 147.8 147.8 149.6 150.9 151.9 153.1 154.2 157.2 163.6 162.5 159.7 161.4 169 175.4 171.4 163.7 155.8 146.2 139.1 130.4 124.9 118.7 120.2 118.3 107 103.6 109.1 109.6 94.7 80.3 73.8 67.1 67.1 68.7 63.3 63.3 63.7 62.9 66.1 66.1 69.7 72.7 73 82.3 91.9 100.9 105 107.4 111.3 112.9 109.3 108 108.4 106.4 107.2 98.7 102.1 102.2 100.2 100.3 102.7 99.3 98.2 93.9 93.3 94 98.4 99.4 98.1 100.1 108.3 108.4 111.6 110.5 111.8 119.5 127.2 129.5 130.1 133.6 134.6 134.5 135.8 138.4 138.5 140.5 147.4 152.5 167.3 189.2 203.7 203.4 199.1 196.6 190.8 186.3 179.8 166.8 160.1 149.5 137.6 127.9 121.6 120.1 126.4 126.5 120.7 112.1
97 104.1 109.5 107.2 106.5 111.1 115.7 122.9 128.8 133 129.6 127 124.7 122.9 119.3 118.1 115.7 112.1 107.9 96.4 90.4 90.3 86.2 84.2 77.1 80.4 82 79.6 80.7 81.5 86.3 94.1 92.6 93.3 102.4 106.9 113.5 117.8 120.5 122.2 124.9 121.3 130.6 138.7 147.2 153.8 156.4 157.2 155.8 156.9 157.2 161.3 163.6 165.8 158.7 158.8 147.5 133.2 124.6 118.2 110.7 100.7 94.3 88.8 83.9 77.3 80.7 93.4 94 102.3 114.2 127.7 143.9 160.6 178.2 185.4 185.8 188.9 187.4 187.5 190.1 183.9 176.1 168.3 165.8 164.9 162.9 161.6 159.3 158.3 157.3 157.1 155.8 156.5 157.8 160.7 160.1 160.7 158.1 160.1 164.4 166.1 164 166.7 175.3 177.7 170.2 162.3 154.1 146.7 136.8 129 121 117 115.1 107.9 103.3 100.7 106.8 103.8 90.2 80.1 75.7 68.3 67.2 67 62.9 63.1 62.5 62.5 64.4 65.8 70.2 71.9 72.2 80.2 93 106.1 110.7 111.6 114.1 113.9 112.2 108.7 107.5 104.3 98.7 93.8 100.9 101.2 99.3 97 96.9 95.5 96.1 95.6 93.8 96.7 99.1 99.5 98.3 103.8 108.5 111.2 114 112 110.2 119.7 128 130.7 129.6 132.9 134.2 136.3 137.7 140.3 139.4 138.7 141.6 147.5 163.5 182.5 201.4 200 195.4 193.2 188.8 182 175.7 169.6 161.3 151.7 143.1 133.1 126.1 123 128.9 129.1 121.9 112.8
101.7 107.8 117.6 118.9 113.9 116.6 122.1 125.8 129.7 133.1 131.1 129.7 126.5 123.7 124.7 127.3 125.1 121.6 115.8 108.1 100.8 94.3 95.4 91.5 81 76.6 77.8 76.8 75.7 77.8 79.1 83.4 85.9 92.8 102.2 110.4 120.8 123.5 123.4 123.3 122.4 120.4 128.8 136.8 146.8 153.8 155.6 161.1 157.9 157.9 161.3 166.5 168.8 163.9 164.6 164.3 155.2 136.6 119 109 102.4 93.1 86.9 83.8 77.2 75.5 83.1 87.9 90.4 102.2 115.3 127 148.4 167 182.2 187.5 188.8 186.6 188.3 190 185.9 183.4 179.2 173.7 171.6 167 163.3 160.5 161.4 163.8 165.2 164.7 164.4 163.6 165.3 168.2 165.9 162.3 157 157 162.3 164.6 163 169.5 176.9 176.6 173.2 160.2 148.7 139.5 133 127.8 120.2 113.9 110.1 106 106.2 98.2 96.1 96.6 86.3 78 72.8 69.2 67.2 65.9 62.6 61.4 61.4 62.3 64.3 66.6 68.3 68.2 73.2 84.4 96 109 118.5 120.7 117.7 117.3 113.7 109.9 106.9 104.1 101 93.7 96.6 97.6 98.7 95.5 92.9 95.1 96.4 94.4 93.4 98.8 101.7 100.1 98.4 102.5 107.3 113.1 114.2 114.7 109.4 119.5 127.7 129.1 130.7 133.7 134.9 137 139.2 140.5 139.7 137.9 138.9 143.1 159.7 176.6 196 197.2 192.1 187.7 184.1 179 172.8 167.4 161.2 154.4 147.2 137.1 131.1 126.3 127.2 131.4 124.3 116
102.8 113.2 123.5 124.2 121.2 121.9 124.7 125.6 127.4 132 131.8 131 134.3 137.3 133.5 133.8 131.5 129.5 125.9 121.9 114.2 102.6 102.7 93.2 83.8 72.2 71.8 79.1 73.8 73.7 74.3 76.1 84.8 96.3 104.8 112.2 121.3 119 119.8 118.1 121.7 120.9 126.9 133.9 146.1 156.5 163.8 161.9 162.6 164.1 167.1 166.6 168.6 169.9 170.3 160.6 149.6 133.6 114.6 101.9 92.5 88.9 84.2 78 72.8 77.3 76.1 78.7 88.4 101 110.5 129.9 152.3 170.3 181 188 187.1 186.5 189.2 185.1 187.7 187.2 179.9 173.2 168.2 164.9 161.9 165.1 171 174 173.8 171.2 168.1 167.8 170.7 171.3 169.3 168.9 163.6 165.5 165.8 164.9 168.6 171.3 175.9 177.3 169.5 159.6 145.6 135.9 128.3 122.3 114.1 110.1 106.1 105.8 107.6 95.9 91.2 89.7 84 75.4 71.8 73.5 65.7 62.2 61.4 61.2 61.6 62.6 64.8 66.4 68 71 73.8 85.9 96.7 110.5 124 125.1 122.1 121.2 114.8 111.4 105.5 103.4 101.7 90.7 92.5 99.7 101.8 97.3 92.4 94.7 94.6 93.6 95.1 99.3 102.3 101.1 101.8 104.3 105.7 111.4 114.9 115.2 110 115.9 124.9 130.3 133.2 135.5 135.2 136.9 139.4 140.6 139 136.6 135.6 140.4 155.8 170.1 192.5 195 190.7 184.6 180.2 176.6 171.6 165.7 159.3 153.5 147.6 141.4 136.3 131 126.6 134.1 125.6 118
103.3 114.7 123.3 123.6 124.7 126.5 126.2 128.1 130.9 134.4 135.8 138.1 141.8 141.3 136.9 133.8 136.2 136.8 134.2 127.5 117.1 103 98 96.7 87.7 79.1 70.2 68.7 68.8 68.9 70.4 70.9 80 90.1 100.3 111.2 115.4 116.3 115.1 114.1 117.7 119.1 125 133 149.2 164.2 169.6 172.7 171.7 171.8 171.5 173.3 170.3 166.5 158 151.4 143.3 132.4 116.1 103 95.2 85.5 79.8 72.2 70.5 69.8 71.5 78.1 87 97.5 113.4 136 155.8 171.3 177.8 183 186.8 183.7 181.9 190.7 192.7 189.5 177.4 170.3 167.1 164.9 167.2 173.2 180.2 181.5 179.9 174.8 171.8 174.3 177.4 180.3 180.9 175.3 174.1 174.6 172.3 171.4 171.6 174.3 175.5 173.2 167.5 155.9 141.1 132.4 125.7 120.1 113.8 107.3 103.8 104 102.8 96.5 86.7 87.1 81.3 71.4 67.6 66.7 61.7 60.7 61.1 61 61.5 63.3 64.2 67.4 67.3 68.7 75.2 85 93.7 109.9 124.3 129.4 127.5 123.4 113.5 109 104.4 99.2 94.7 90.5 93.7 100.5 100.8 96.5 90.8 88.3 89.3 90.8 97.4 101.3 103.7 104.7 105.2 104.8 104.9 107.7 114 114 110 111.8 122.7 131.2 134.9 136.3 137 135.8 138.9 139.8 138.7 135.7 134.4 139 152.6 161.4 185.9 193.7 189.4 185.2 181.7 178.7 174.5 169.8 163.7 156.4 150.4 146.4 142 136.6 131.6 136.7 127.3 117.3
105 114.3 120.5 123.8 131 132.7 129.9 133.6 136.1 138.8 142.8 146.8 150.3 148.1 145.5 145.4 141.8 142.5 138.2 130.9 121.7 111.9 102.5 95.3 86.8 82.2 69.6 67.5 69.4 67.3 67.2 68.1 73.4 81.6 95.2 103.9 109.2 111.4 110.5 116.3 116.1 116 120.7 133.7 150.1 171.6 178.2 177.8 177.5 181.2 178.2 175.9 170.9 161 151.9 146.3 136.7 126.1 115.8 104.4 92.8 80 73.8 69.6 69.1 69.9 73.1 80.3 89.5 99.5 113.4 136.5 154.2 167.3 175.7 177.1 180 178.9 186.7 194.8 191.1 179.8 172.4 169.2 168.7 168.9 170.3 172.9 179.2 181.1 178.1 180.5 179.7 183 186.1 189.8 190.4 185.3 179.7 176.3 171.9 171.8 171.7 173.4 173 167.1 159.5 147.4 142.9 132.2 124.2 118.9 110.4 104.2 103.7 104.1 106.5 92.3 81.2 81.2 77.6 69.8 65.4 63.2 61.5 60.2 60.6 60.7 63.7 62.7 62.7 65.8 67.6 71.1 75.3 86.6 98.6 114 127.1 135.5 134.4 122.3 111.3 105.1 100.5 98 95.7 88.9 92.7 97.6 100.7 99.2 91.5 88.4 89.5 92.5 97.9 104.4 107.3 103.4 102.8 103.9 103.7 106.2 111.8 112.3 111.3 112 123.7 133.5 136.2 135.8 135.2 135.3 138.3 139.3 137.8 134.8 133.7 136 150.7 156.9 179.2 190.2 188.5 184 181.3 178.4 175 171.2 166.5 159.9 155.8 151.6 146.9 142.2 138.6 136.9 134.4 124.3
111.5 115.8 118.6 122.8 128.6 132.1 131.3 135.7 138.2 140.8 149.8 152.4 149.4 149.1 153.9 152.8 150.5 145.2 141.4 131.7 123.1 113.9 104.6 96.6 90 79.4 73.4 67.7 66.1 66.2 65.4 66.8 74.5 86.7 91.2 97.5 99.6 104.7 111.7 117.8 122.2 116.4 116.9 134.8 153.9 168.1 174.2 180.7 182.3 178.7 176 172.2 164.5 156.1 153.3 145.6 138.6 130.3 116.5 102.3 86 75.8 68.9 68 68.3 69.8 76.7 84.4 93.2 101 112.9 132.7 151.1 159.8 168.9 174.1 178.1 185.4 191.4 184.4 178 173.5 171.9 170.7 169.2 168.7 170.2 169.9 173.5 178.1 175.9 179.2 184.5 189.2 190.2 190.3 188.7 182.6 177 173.5 171.3 167.9 167.5 166.7 168.4 164.4 154.1 145.8 135 127.3 127.2 114.9 106 104.2 103.8 101.2 97.5 91 75.3 78.5 78 73.3 65.5 61.8 60.5 60.1 60.5 62.2 63.1 61.6 61.9 65 67.5 70.4 75.1 88.1 100.5 117.5 127.6 134.1 132.8 120.6 108.6 100.5 95.1 93.4 87.2 84.8 85.6 96.2 101.1 96.2 88 90.1 92.6 94.6 98.9 106.4 105.9 102.8 103.3 103.9 103.6 106.8 110.2 111.5 111.3 111.9 120.4 130.8 135.9 140.4 138 138.3 139.6 139.5 137.7 135.2 133.4 132.2 143.7 151.9 167.5 177.8 185.3 181.6 179.1 177 175.3 171.8 169.8 167.8 163.7 158.7 153.1 148.7 145.5 139 140 132.3
112.4 119.3 121.7 125 128.9 130.3 129.4 133.8 138.3 142.9 151.1 153.6 151.2 154.1 157.5 156.9 155.1 146.5 140.1 131.8 121.8 110.9 101.9 94.4 85.1 77.5 68.9 68.3 69.4 63.9 65.1 69.4 73.8 83.4 87.5 91.9 96.8 102.5 119.9 124.8 129.2 127.7 115.7 131.9 151.4 164.3 172.2 174.3 177.5 175 169.6 162.3 160.8 155.8 149.6 148.3 142.3 133.1 117.5 96.6 80.5 72 67.6 67.1 67.4 75.3 82.4 86.9 95.6 101.9 113.9 130.2 144.2 156 165.3 175.7 185.8 188.6 182.1 172.7 173.3 174.3 172.4 172.1 169.2 166.5 167.2 169.6 168 170.2 174.2 177.8 186.7 192.4 190.1 185.4 182.1 178.4 175.1 171.6 170.9 167.8 165.1 163.5 163.6 159.4 151.2 140.1 131.6 128.1 121.1 114.8 113.2 108.7 104.9 100.1 95.1 90.2 76.3 72.7 72.3 70.1 63.1 61.6 60 60.8 62.6 63.3 61.3 60.4 60.8 63.1 65 68.3 74.3 88.2 98 113.3 122.4 128.3 126.4 113.2 103.7 98.8 92.6 91.1 87.5 84.9 82.7 92.7 95.9 86.8 91.3 95.1 95.4 98.6 97.8 106.6 105 104.6 101.7 102 103.5 106.8 109.2 110.9 110.4 110.5 118 129.6 134.8 139.7 140.6 140.2 137.1 138.1 138.2 135.1 132.7 130.9 138.4 146.3 156.7 173.1 177.6 176.7 173.4 171.6 174 173.6 174.4 171.3 169.3 164.6 158.8 153.9 152.5 144.3 143.7 135.3
114.2 122 123.3 124.3 126.6 125.9 128.9 132.6 139.1 142 147.8 149.9 153.9 156.6 157.4 153 154 147.3 138.9 132.4 121.7 108.5 95.5 92.9 87.6 78.3 75.2 67.3 68.5 62.7 62 69.4 70.8 75.8 80.4 86.5 95.1 102.3 117.5 121.8 128.5 128.4 119.7 125.9 145.2 160.7 168.9 173.9 171.1 165.9 162 162.6 158.7 155 148.8 144.8 137.8 122.8 101.9 89.9 83 76.3 70.4 66.8 67.6 78.4 86.8 91.7 96.4 103.1 116.2 131.6 145.6 152.8 169.2 180.5 188.1 177.8 171.4 169.9 171.1 170.3 169.5 169.4 168.1 163.2 162.5 162.2 164.8 173.1 180.8 186.1 186.4 187.2 186.2 182.8 182.1 178.8 172.2 168.7 166.2 163.4 161.1 161.1 157.4 152.4 148.7 139.4 131.1 121.7 116.2 112.7 111.3 109.2 106.1 99.8 93.9 92.2 79.8 72.9 69 64.5 62.9 61.4 59.8 66.6 69.6 61.3 60.4 61.1 62.4 64.1 64.9 69 75.4 85.5 95.5 107.9 119.2 121.2 115 106.6 100.2 99.2 92.4 88.4 86.7 83.4 79.6 88.1 84.4 87.5 98.4 98.2 99 97.8 96.9 104 103.2 102.8 100.8 99.1 103.7 105.9 107.3 111.1 108.7 109 117.4 127.8 132 137.9 139.2 140 135.2 136.2 135.1 132.1 129.5 128.3 133.1 140.6 148.8 167.3 173 172.2 169.7 165.7 165.9 165.7 169.3 170.1 163.9 163.2 160.2 157.2 156.6 151.7 146.7 136.8
114.4 122.9 123.6 122.5 121.8 123.6 126.5 134.2 140.1 141.6 145.4 152.8 154.3 153.2 153.5 151.6 148.1 143.8 133.6 125.1 119.3 107.4 96.5 90.7 88.1 87.1 76.8 65.8 62.3 61 60.6 63.7 68.7 72.8 77.3 87.9 93.2 98.4 107.1 115.2 122.7 129.6 121.1 126.6 140.6 160.8 167.2 167.6 168.9 167 164.8 165.8 160.7 151.8 143.2 135.8 124.9 109.7 99.7 90.5 88.9 82.3 76.1 65.9 67.5 77.8 88.6 90.2 94.9 106.6 118.2 135.9 145.7 154.4 168.4 174.2 175.6 171.6 170.4 165.7 165.3 165.3 164.4 164.8 164.1 162.8 163.6 165.1 170.6 178.3 186.6 187.5 184.7 184.6 186.6 188.9 187.1 182.5 178.1 171.4 167.8 163.5 163.7 161.1 156.3 152.7 143.7 134.9 127.6 120.9 118.6 117.2 111.6 108.1 103.8 100.6 98.7 90.7 77.9 70 67.9 66.5 64 60.9 59.8 64.5 63 60.5 60.2 60.8 61.6 62.2 64.3 70.5 70.9 85.5 90.7 100.5 109.6 110.7 109.8 105.2 100.7 96.7 91.8 83.2 77.1 77 79 80.3 86.9 97.2 100.1 100.4 104.1 99.2 99.9 103.4 101.8 100 97.1 99.8 103.2 104.8 106.6 109.5 107.1 107.8 120.5 127.9 129.4 136.3 136.6 138 135.2 134.3 138.5 131.7 128.4 128.3 132.5 137.5 144.5 164.8 170.3 169.6 166.8 166.5 166.7 163.4 162.4 165 162.6 161.1 156.6 155.1 157.9 157.4 148.8 141.5
112 121.4 125.4 119.3 120.5 124.9 129.6 135.5 141.5 143.2 148.1 147.5 146.9 151.7 156.3 154.2 142.6 134.6 129 122.1 114 106.7 99 89.1 81.1 77.7 72.7 63.2 60.2 60 60.1 63.5 70.7 72.2 78 83.1 88.6 95.1 104.7 120.9 130.3 126.9 122.4 128.3 140.8 156.3 160 159.9 165.7 169.6 169.9 163.8 154.9 143.6 133.3 119.7 107.4 101.6 99.5 95 91.2 82.7 73.9 67.8 65.9 75.9 85.8 86 95.9 106.2 118.2 135.1 148.5 162 163.7 167.3 177.7 174 164.7 157.3 157.4 157.9 158.1 161 164.3 166.5 169.5 175.7 183.2 189 186.1 189 190 190.4 193.6 194.1 192.9 186.9 180.4 173.6 170.1 164.7 163.3 161.4 156.9 147.8 140.8 135.2 129.9 130.4 127.2 121.9 116.7 113.5 106.7 106.2 102.2 93.1 87.1 71.5 68 65.7 62.6 58.8 58.4 59 63 61.8 59.9 60.1 60.3 60.8 63.8 67.4 68.5 79.3 83.8 92.2 100.1 104.2 105.4 101.8 97.6 95.3 82.4 74.1 74.6 76.1 78.4 84.4 93.7 97.3 97.5 104 102.7 101.5 99.6 98.4 98 98.1 96.5 99.6 102.4 102.7 106.4 107.8 105.7 105.9 120 125.5 128.5 132.6 133.3 133.1 133.5 136.2 141.2 136.8 129.4 128.3 133.3 137.5 143.5 162.9 170.2 168.9 167 168.4 167.8 163.9 161.6 164.3 163.6 161.1 157.6 154.4 157.8 158.6 150.6 150.1
112.8 120.9 126.2 119 120.3 126.7 129.3 134 140.9 140.4 144.5 145.4 149.1 157.5 160 152.4 144.5 132.8 127.2 124.9 117 104.3 91.7 83 77.1 72.3 67.1 61.2 59.2 59.2 59.8 62.6 69.2 73.7 80.2 84.2 88.5 91.4 103.3 117.6 124.4 126 122.3 124.6 140.3 144.5 151.5 155.9 162.3 171.1 177.5 160.7 145.7 133.4 119.3 110.7 107.2 105.5 105.2 99 89.7 82.4 75 67.4 63.7 70.7 77.3 82.9 96.4 105.6 116.7 132.8 147.3 154.2 156 158.4 162.1 158 150.9 151.6 153.8 158 161.8 166 171.3 173.9 178.1 183.5 188 189.8 191 194.3 198.2 198.3 198.8 197.7 198.9 194.1 185 176.7 172.1 171.3 169.5 167.2 156.6 150.8 142.7 137.8 140.1 135.8 127.1 125.3 119.7 114 111.3 106.3 103.9 102.9 90.6 75.3 65.5 63.5 61.4 58.9 56.8 57.5 61.2 62.9 60.1 59.3 58.7 60.2 63.9 65.2 63.2 71.1 76.9 85.5 94.2 102.3 102.9 101.6 94.1 83.4 73.9 73.1 74.1 75.8 84.3 91.9 99.7 100.9 103.6 103.9 101.4 98.8 98.4 97.4 98.9 97.5 95.7 97.2 99.6 102.8 105.7 106.5 104.6 104.2 113.8 121.7 129.2 127.7 127 126 131.6 136.7 142.2 138.6 131.9 129 132.8 137.9 142.9 159 171.9 173.3 168.9 169.8 171 165.8 161.7 163.4 163.5 162.3 159.4 156.1 155.5 159.7 152.1 149.6
