ncols 200
nrows 89
xllcorner 350000
yllcorner 480000
cellsize 50
60.7 63.6 71 77 83.5 92.3 89.9 82.8 75.3 70.8 72.2 71.8 67 65.1 66.4 65.2 61.8 56.3 53.4 51 52 52.3 51.7 49.1 49 49.4 50.5 52.5 49 46.3 44.6 43 37.3 31 29.9 30 29.7 29.4 29.5 31.1 33.5 33 39.3 40.4 35.3 35.2 36.3 38.3 43 55.7 61.5 63.9 68.4 71.4 60.4 49.9 51.4 56 62.6 68.1 63 53 56.3 56.3 57.1 57.6 54.4 53.2 54.1 62.1 66.9 70.1 74.7 79.6 84.2 88.4 92.8 96.9 100.4 98.8 87.8 72 59.6 55.9 55.7 56.8 58.6 60.1 63.5 70.7 76 82 91.4 96.4 101.1 106.3 108.5 99 105.7 109.3 118.8 124.5 133 140.9 145.9 142.6 140.1 142.9 147.2 153.8 159.7 162.4 165.3 169.9 172.9 176.3 186.8 196.8 202 203.9 202.4 199.1 197.1 195.9 195.5 199.8 210.1 218.4 234.3 243.5 245.5 257.2 262.5 266.8 268.9 271.1 268.6 262.2 252.3 245.9 238.5 232.7 224.5 215.2 203.3 192.8 192.9 198.2 212.2 221 217.2 211.7 207.4 212.7 213.5 209.6 198.7 201.9 207.6 212.5 216.4 219.9 224.1 225.4 222.7 214.3 215.5 221.7 223.4 218.8 213.8 203.6 196.5 189.7 183.6 183.5 182.4 186.4 187.1 184.1 180.8 178.4 165.3 178.8 179 174.8 170.2 167.4 171.6 174.1 177.2 183.8 188.8 192.9 197.8 202.3 206.8 213.3 206.6 207.9
63.2 67.1 68.7 77.5 85.9 89.5 85 79.1 75 73.4 74.8 74 69.4 70.6 70.2 68.3 66.1 63.3 59.8 55.7 51.1 53.7 53.5 49.9 48.8 48 50.5 49.8 46.4 45.5 45.1 43.4 36.9 30.5 29.6 29.3 29.2 29.2 29.4 29.7 30.1 34.8 37.3 36.5 34.6 33.9 37.6 39.1 45.5 54.4 58.6 64.7 71.8 74.1 61.4 49.4 50.4 54 63.6 69.7 62.2 53.1 53.7 53.9 55.9 55.7 52.8 51.4 52.6 60.7 64.8 69.2 75.7 82.7 87.7 92.3 97.2 102.9 100.2 91.8 76.8 64.5 55.2 55.4 55 55.4 59.6 61.5 65.9 72.3 78.2 88.5 97.1 104.4 110.3 112.5 98.8 98 109.8 116.2 124 131 139.3 141 139.5 138 141.5 147 150.7 155.9 160.7 164.6 166.8 173 178.4 186.5 192.2 195.4 195.7 194.4 194.9 193.9 193.4 192.3 192.3 196.9 208.6 220.7 231.4 239.6 246.5 254.7 259.8 264 265.3 267.2 264.5 254.8 249.5 242.4 236.9 233.7 227.9 218.5 205.5 194.8 191.1 195.8 212 218.3 213.8 207.9 205.4 207.6 207.3 201.1 195.2 201.8 208.1 213.5 219.6 225.8 231.6 233.5 228.3 220.3 223.7 224.7 225.4 221.3 214.1 205.8 196.4 187.4 182.6 176 174.3 177.3 177 175.3 176 173.2 166.2 176.9 175.5 168.9 166.1 168.9 172.6 174.3 179.4 184.8 189.6 192.9 197.6 204.5 211.4 215.3 203.5 204.8
66.5 70.3 71.8 76.3 82.1 83.6 80.2 78.1 77.2 76.8 77.6 75.5 75.8 75.5 74.3 73 69.8 65.8 61.8 58.5 51.5 52.5 55.5 53.3 49.7 47.5 47.3 45.7 45.7 45.1 45.2 43.2 36.6 29.9 29.1 29.4 29.3 29.1 29.9 29.9 30.1 30.3 35.6 32.5 32.9 34.1 39.1 40.8 46.2 51.6 56.9 65.2 75.3 76.2 60.6 48.5 48.5 52.9 64.6 68.2 59.8 52.3 53.2 55.7 54.5 54.2 51.8 51.1 52.5 58.8 64.5 68.8 78.8 88.1 94.4 100.9 103.9 99.4 89.8 78.9 69.2 56.7 54.9 55.1 55 57 59.7 61.8 66.2 75.5 84.5 96.9 105.5 114.4 112.4 105.9 95.4 107.2 113 119.1 125.7 135.1 140.6 136.1 136.3 139.2 145.2 150.3 154.2 160.7 165.8 169 172.7 178.1 182 186.6 190.5 191.1 190.8 191.8 195.2 195.1 192.3 194.3 195.2 195.7 207.5 218.2 226.3 235.6 242.8 250.7 254.8 257.1 259 260.6 256.3 248.1 241.9 241 235.9 231.4 224.3 214.7 205.3 199.3 190.9 194.2 210.1 214.7 209.5 203.6 198.4 200.5 193.7 192.4 195.2 202.5 208.2 215.8 223.4 231.9 234.4 231.9 226.3 219.4 222.8 222.7 223.5 222.2 212.5 204.7 193.6 185.6 180 173.9 171.5 170.6 169.4 168.2 168.1 165.7 165.6 172 169.9 165.3 168.2 170.7 174.5 175.7 180.9 184.2 189.3 192.4 197.2 206 213.9 210.5 199.4 201
68 70.4 74.6 76.7 80.3 80.3 77.9 75.9 77.1 77.9 77.7 79.5 80.4 80.6 78.4 74.9 71.3 66.7 64.1 61.3 55.8 53.8 57.2 56.5 50.4 48.4 47.6 45.8 46.9 45 44.4 41.9 35.2 29.6 29 29.1 29.3 29.3 30.2 29.5 31.3 30.1 29.8 36.3 30.6 36.6 37.9 40.2 43.8 47.7 55.2 69.3 78.6 75.3 58.9 48.6 47.9 53.6 63.9 65.4 56.7 52.4 55.2 56.6 53.7 56.3 51.4 50.7 53.2 60 64.1 70.6 84.6 95.2 100.8 101.7 98.6 91.3 83.9 73.8 66.8 56.5 54 54.6 55.2 56.2 58.8 61.9 70.4 77.5 88.2 98.9 111.8 112.9 107.1 94.9 98.3 108.3 116.3 122.5 131 138.2 136.9 133.5 136.1 141.1 146.6 152.9 158.6 165.8 169.3 170.7 175.9 180.7 182.3 186.3 188.8 191 193 197.4 198.3 199 199.9 198.8 196.8 196.5 204.5 210.8 219.8 227.5 236 243.1 246.3 250.1 251.2 249.1 244.9 240.7 240 240.8 230.7 228 221.9 214.1 208.1 199.9 191.1 194.6 204.8 208 200.6 198.4 196 192.4 192.4 194.4 199 202.5 208.3 216.7 230 236.3 236.6 227.2 219.9 214.5 219.5 219.1 219 218.3 205.2 197 185.2 181.7 179.1 171.2 168.9 168.2 167.2 165.5 162.7 162.1 165.5 167.4 162.5 168.4 173.6 172.8 174.9 177.7 180.3 183.1 187.5 190.5 193.9 208.4 215.1 204.4 195.7 196.7
71 71.3 74.4 79.2 80.8 79.6 78.4 78.6 77.7 77.2 78 81.3 84.2 85.1 85.6 80.2 76.5 69.6 65.5 62.7 59.7 54.8 58.2 58.3 52.9 47.6 47.6 45.8 46.3 44.8 44.1 41.4 34.5 29.1 29 29.3 29.4 29.5 29.3 29.5 31 29.2 29.5 29.8 37.1 38.5 37.9 38.6 41.8 46.9 57.3 72.3 78.7 72.5 56.7 46.9 46.3 51.8 61.4 61.5 55.4 53.7 54.9 54.8 54.7 54.4 50.9 50.6 53.8 60 64.6 74.5 87.6 94.5 96.1 93.9 89.7 83.3 75.5 66.7 59 54.1 53.9 55.7 56.9 55.1 59.1 62.1 66.9 77.1 89.8 105.5 111.4 106.2 101 92.9 100.4 108.6 120.2 129.3 131.9 131.6 131.8 132.9 137 142.3 147.8 156.4 166.3 170.7 168 173 176.1 181.4 185.9 189.3 191.2 194.7 196.1 198.9 201.5 201.8 202 201.1 200.3 198 202.5 209 217.9 224.8 230.1 232.7 237.6 239.8 242.3 241.5 240.8 236.1 236.9 235.3 226.4 225.1 217.7 208.4 204 198.3 189.6 192.3 200.4 201.1 199.9 197.2 193.4 192.4 192.4 200.5 199.9 198.3 207.3 223.3 230.6 227.7 222.8 217.8 211.8 208.9 211.1 210.6 211.4 210.8 203 188.4 182.5 176.8 178 172.5 169.7 167.9 167.8 167.9 161.6 160.6 162.1 161.4 164.8 172.8 178 180.3 177 177.8 179.8 182.1 184.8 187.4 192.3 207.9 210.6 198.3 194.1 195
74.3 75.9 79.5 80.9 80.3 80 79.9 80.6 82 78.3 77.7 83.3 87.6 91.6 91.2 84.2 79.5 72 66.7 63.8 59.7 55.7 57 59.6 56.9 50 46.7 44.7 44.7 43.5 41.8 39.5 33.3 29.3 29 29 29.8 29.4 29.4 29 29.4 30.4 30.8 29.8 35.4 38.8 37.3 36.7 41.3 48.5 59.1 73.7 75.2 67.8 53.8 45.6 45.8 51.9 58.8 58.5 53.6 53.6 54.1 54.2 52.3 51.6 50.4 51 56.1 59.7 65.3 76.7 86.3 88.2 86.5 83 81.5 75.8 67.7 62.7 55 53.1 54.3 55.4 56.8 56.9 59.1 63.1 66.5 76.7 92.4 104.9 104.1 97.7 94.6 91.9 103.1 113.2 125.8 134.5 125.9 125.9 127.7 133 138.6 143.6 149.7 162.6 169.6 166.3 168.1 171.2 178.1 183.9 189.1 193.7 195.4 198.2 198 200.5 202.6 205.7 206.6 199.3 201.7 203 204.8 209 214.7 219.7 220.8 224.9 227.5 228.7 229.6 232 231.6 232.6 236.2 235.1 226.1 223.5 217.9 210.5 204.9 195.6 191.7 187.8 195.7 198.7 200.3 194.5 189.8 192.6 199.8 199.8 195.8 193.6 208.8 223.1 221.9 220 210.9 205.7 203.1 198.9 200.8 198.5 201.8 203.1 192.2 181 179.1 172.9 170.9 169.9 167.9 167 168.3 165.8 159.7 159.6 159.3 162.6 168.1 174.4 179 181.4 181 180.1 178.4 181.2 183.4 184.7 191.4 204.9 205.3 194.3 193.5 194.8
81.1 79.4 81.2 83.9 84.8 83.3 82.6 82.1 80.7 79.4 77.5 83.6 90.6 97.6 94 86.6 80.4 74.4 68 63.8 57.5 55.1 56.2 56.5 54.2 49.4 47.2 44.9 45.2 49.5 42.5 40.2 33.6 28.8 28.8 29.2 29.4 29.6 29.4 28.9 28.7 31.8 30.3 35.6 42.7 36.9 37.6 35.6 39.4 49 63.1 71.6 69.7 61.7 50.3 44.2 44.6 50.2 55.7 55.4 52.4 51.2 51.7 51.5 49.7 50.1 50.1 52.6 56.4 61.2 67.8 76.4 79.4 78.8 75.8 74 71.7 68.5 62.5 57.1 52.6 52.9 54.8 56.4 56 56.8 58.1 61.6 66.7 76.8 88.4 96.2 94.7 89.7 90.6 95.9 106.4 117.6 126.4 126.3 121.5 121.6 125.7 131.7 139.5 146.5 153.4 163.3 166.3 163.2 165.8 172 179.7 188.7 192.9 197.8 199.9 200.8 203.6 205.4 208.1 207.4 206.3 202.1 203.8 206.7 210.5 212.8 213.6 213.2 213.8 217 219 222.7 224.7 226.3 225.4 231.3 232.8 234 227.7 219.2 216.3 210.5 202.4 191.7 188.2 186 192 195.1 193.4 189 185.7 194.5 198.8 196 191.7 193.6 207.2 217.5 214 211.9 203.9 196 191.6 190.7 188.1 188.3 190.8 189.8 180.2 171.5 173 174.1 171.2 166.3 165.9 167.7 167.5 163.1 157.4 158.9 164.7 170.3 173.8 176.7 177.9 180.5 180.9 183.1 183.4 183 183.9 182.6 191.4 202.6 199.8 193.6 193.4 194.6
93.4 90.9 88.3 87 86.2 85.7 83.3 80.3 77.8 77.3 75.7 79.7 88.8 95.7 98.2 90.1 84.7 71.6 66.1 62.6 55.9 55.5 55.7 55.8 52 49.9 47 45.3 44.6 47.3 40.9 40.5 34.6 28.6 28.6 29.4 31.5 29.4 29.4 29.4 28.7 29.2 34.6 40.5 48.8 43.7 37.6 35.1 36.5 50.9 62.4 66.6 62.5 54.6 47.5 43.4 44.4 48.4 52.9 52.8 51.3 49.9 49.7 49.9 49 50.5 51.4 52.9 56.3 60.9 67.6 71.3 71 67 65.3 65.3 66 62.9 58.5 51.1 52.9 54.2 55.9 56.4 56.5 56.4 58.7 61.4 65.4 75.6 83.5 87.5 83.2 84.2 88.9 97.8 108.6 113.5 114.8 115 117.4 120.6 127.2 132.8 142 151.7 161.9 168.3 163.3 161.1 165.8 174.1 182.4 189.5 195.6 199.5 202.4 205.6 208.8 211.3 212.1 209.7 209 205.5 208.4 209.6 212.9 215.2 217.3 218.1 216.5 215.2 214.9 218.3 220.4 223.3 222.2 228.2 232.6 231.8 228.1 218.8 211.7 206 197 187.8 183.8 183.8 188.6 189.6 186.8 183.6 185.7 197.2 196 192 187.7 191.2 199.7 209.5 205.3 197.5 190 186.5 184.2 181.4 174.8 174.6 179.8 178.4 173.6 170.5 171.1 172.9 175.4 170.5 165.9 167.9 167.3 161.3 156.5 159.1 168.9 173.2 177.5 180.6 182.2 184 182.8 183.3 187 187.4 190.5 184 194.2 202.5 196 193.7 193.7 195.8
101.5 99.2 96.1 94.4 92.8 89.3 83.7 80.9 78.8 77.4 72.2 71.4 81.6 89 92.8 92 83.4 68 60.2 58.1 56.9 55 55.4 53.8 50.4 47.8 45.3 45.4 45.9 45.5 42 40.5 33.9 28.7 28.6 32.3 33.6 29.5 30 29.2 28.5 31.1 38.4 47.4 52.9 44.2 37 35.1 36.1 49 59 59.3 55.3 48 41.5 43.3 44.5 46.9 50.3 51.4 50 49.3 48.7 48.5 48.4 52.4 53.7 54.6 57.6 62.6 65.8 66.5 63 57.1 56.7 61.5 62 58.7 51.9 52.3 55.1 55.5 56.1 57.3 58.1 58.2 58.3 60.3 66.2 73.6 79.2 74.3 75.4 81.4 87.2 94.4 101.5 102.6 107.7 110.4 115 121.4 128.6 138.5 145.7 157.2 167 164.9 160.4 163.4 169.1 176.2 184.6 190.8 195.3 200.1 205.2 208.7 213.1 214 213.4 212.7 208.9 208.4 211.1 212.8 215.6 219.1 221.5 223.1 220.8 213.9 209.9 209.9 212.9 214.6 221.4 230.3 233.1 228.3 222.3 217.5 206.6 199.9 191.6 183.5 182 181.9 183 184.9 181.7 183.3 190.3 193.1 190.7 186.4 185.6 188.5 194.9 200.6 193.4 184.6 178.9 179.1 179.7 175.2 168.7 170.7 175.1 172.9 173.7 170.8 174.4 171.5 167.9 167.8 166.8 169.5 166.1 158.2 157.9 165.1 173.6 177.1 182.9 185.9 187.3 189.6 187.6 184.4 189.3 187.5 187.5 187.5 198.1 200.3 194.3 193.2 195.2 197.2
107.8 107.8 105.8 103.9 102.3 101.1 98.5 94.8 92.4 88.2 82.8 79.1 77.9 80.9 83.4 82.4 77.5 68.3 59.8 56.7 56.4 55.5 54.3 52.8 50 47.7 47.2 49.5 51.5 47.2 43.5 41.7 36.8 30 33.6 38.6 33.9 28.7 29 29 28.7 31.9 42.3 52.7 53.6 42.6 35.3 37 37.1 45.4 54.4 49.8 47.4 41.4 37.7 40.5 43.5 46.1 46.3 47 47.5 49.2 49.5 48.9 52.3 57.8 56.7 54.5 57.7 63.6 66.5 67.6 60.2 54.6 53.9 58.8 57.5 49.9 54.6 56.1 57.4 57.7 59.3 63.7 61.8 60.7 58.9 59.9 67.6 70.4 72.6 71.8 74.8 80.7 85.2 88.2 94.9 100.8 105.2 107.8 113.8 120.7 133.7 141.5 150.8 160 165.6 161.4 161.7 165.3 170.4 178 184.4 190.4 195.2 200.9 206.1 211.4 214.6 212.7 211.7 210.4 210 210.9 213.6 216.5 219.4 223 225.9 228.3 225.6 216.8 209.4 207.9 208.5 211.8 221 228.1 228.2 225.8 219.4 213.8 207.6 197.2 190.4 184.8 185.1 185.7 178.4 178 176.3 183.7 186.6 186 182.7 181.5 182.1 184.6 188.8 193.4 183.9 174.1 172.5 174.4 172.3 168.9 165.4 169 171 170 171.3 169.9 171.8 169.6 168.4 165.5 167.7 170.1 164.2 154.9 156.2 167.6 178.7 183.8 187.4 190.2 192.8 194.3 193.8 188.5 186.5 187.4 187.2 189.2 198.5 197.8 193.8 194.6 195.7 196.8
113.1 113.3 113.9 111.6 110.9 108.8 107.9 104.6 100.4 95.2 89.7 84.5 80.4 76.7 75.9 75.6 71.9 64.1 57 55.3 54.1 54.7 53.7 52.7 50.6 48 50.6 54.1 54.7 49.2 44.2 42.3 40.3 33.9 37.9 38.2 32.4 28.7 28.4 29 28.3 32.7 45.8 55 51.4 40 35.4 36.3 36.5 44.4 43.7 44 41.8 38.1 37.9 39.9 41.8 44.2 45.1 45.4 47.1 49.3 48.4 49.4 54.2 57.6 55.7 53.9 58 65.1 70.6 69.7 59.2 52 53.3 53 48.5 53.5 59.3 61.7 62.8 64.7 69.2 70.2 64.1 61.6 60.3 62.3 64.4 66.4 68.2 71 77 84.5 84.9 91.4 98.4 103.6 107.4 111.5 117.7 123.6 137.9 145.4 159.7 165.5 162.4 158.1 160.9 164.5 170.8 177.7 184.4 190.4 196.9 204.3 209 211.9 211.6 209.5 208.1 211.9 211.6 213.5 217.1 224.3 230.3 232.1 236.2 233.5 228.1 218.5 212.3 208.9 206 209 213.6 219.6 222.3 221.5 217.5 210.5 203 194.4 184.5 181.2 186.7 186.3 182.8 174.6 177 180.9 183 184.9 185 184.2 181.5 182 185.4 187.7 178.2 170.9 167.1 168.4 164.9 165.3 164.5 164.3 166 167.1 168.6 168.5 166.1 166.4 165.4 161 166.5 167.3 158.8 154 155.8 170.3 182 187.4 192.5 192.5 197.6 201 195.9 190.6 186.5 187.2 187.3 190.6 197.6 196.3 192.8 195.2 197.4 196.8
113.9 116.6 118.7 118.7 117.7 115.9 112.4 108.3 103.2 97.3 90.6 83.5 77.5 74 68.6 66.4 65 59 53.8 52.1 53.1 53.2 51.9 51.1 48.1 50.5 54.7 58.3 56 51.6 46 43.3 41.1 37.1 42.4 40.4 31.2 28 28.5 28.7 28.8 30.2 45.3 53.4 48.1 37.8 33.5 35.5 36.9 41.8 44.6 40.9 37.6 38.2 40.5 43.6 40.9 42.8 43.7 44.8 45.9 47.8 47.7 49.8 53.4 54.7 52.6 54.3 58.6 67.1 71.2 66.1 55.2 49.5 47.9 48.7 53.4 59.3 63 65.8 69.5 76.1 80.6 74.7 67.3 60.3 60.8 61.9 63.3 65.4 67.4 71.9 78.5 83.8 86.3 92.3 99.5 106.2 109.9 115.5 123.4 131.4 139.4 144.9 154.4 162.5 156.3 155.9 161.5 167.1 173.6 180 186.8 193.4 202.1 206.2 206.6 207.2 207 205.3 211.5 213.2 214.2 216.6 223.1 232.5 238.1 239.5 236.9 231.7 225.6 221.3 220.4 215.3 202.9 202.9 205.9 207.6 209.5 211.8 209.9 203.5 196 187.2 182.3 178.9 183.8 183.6 181.4 173.6 179.7 182.2 185.4 187.5 189.5 188.4 186.4 182.2 181.8 183.4 176.4 168.9 165.1 164.1 164.1 166.2 165.4 163.9 164.8 165.2 165.8 163.4 161.6 162.4 162.6 158.8 162.6 162.8 153.3 152.7 158.9 169.2 181.5 188.4 189.3 195.2 204.1 202.9 196.5 192 187.1 185.7 186.5 192.4 198.2 195.1 193.1 194.8 195.8 196.5
112.6 115.4 120.3 122.4 121.8 119.3 114.2 109 101.1 93.8 87.7 80.6 73.2 68.1 63.2 59.8 56.9 56.3 53.3 51.4 52.2 52.2 52.7 51.7 51.7 56.4 60 60.4 59.4 55.2 48.4 45.2 42.8 41.6 45.5 40.7 29.1 28.4 28.3 28.7 28.6 29.2 43.4 52.2 45.4 36.2 30.7 31.8 36.1 38.2 39.6 37.2 37.3 38.1 38.7 37.9 39.1 43.6 42.6 44.8 45.4 47.3 47.4 49.9 51.3 52 50.5 52.2 59.2 65 63.8 58.5 49.8 46 47.4 54.9 59.6 62.9 65.7 70.7 74.6 80.9 81.7 74.1 67.4 62.2 60.6 61.5 62.9 64.8 67.2 69.6 76.3 83.4 89.1 93.7 99.4 106.5 113.4 116.3 125.8 136.3 139.3 141.1 147.9 151.5 149.3 155 163.9 171.2 178.2 186.3 191.4 195.9 199.4 200 200.8 202.8 203.5 208 214.8 214.9 215.9 219.3 227.7 232.2 234 232.5 231.4 228 227.5 226.6 224.6 222.1 211.4 203.4 201.9 202.4 203.2 203.2 201.4 196 190.1 183.5 178.3 175.6 178.9 178.7 170.9 176.6 179.5 184.1 188.4 191.7 194.4 195.7 194.8 190.9 182.8 179.1 174.9 167.5 161.8 161.8 164.5 165.9 165.1 162.8 162.5 162.5 162.3 161.5 160 158.6 156.2 156.4 159 157.8 151.8 152 159.9 166.8 176.3 180.1 187.8 199.2 204.9 201.2 196.4 192.1 187.4 185.1 187.6 193 196.6 194 192.5 194.3 194.2 194.9
106 110 113.6 116.4 116.6 113 107.4 102.3 94.8 83 75.3 71 64.4 61.4 58.2 53.6 52.7 51.3 49.5 49.7 51.2 52.3 52.1 51.9 55.3 60.5 63.7 63.1 62.8 58.4 49.8 45.7 45 46.2 46.1 39.1 28.6 28.1 28.1 28.4 28 28.5 39.9 47.8 41.3 33.4 29 30.3 34.6 35.8 37.1 36.8 37.4 37.9 38.2 39 40.3 41.2 43.4 43.8 44.4 46.6 46.8 48.2 48.9 49.7 48.9 50.2 56.3 60.5 55.9 48 46 46.9 48.7 57 63 66.5 70.9 76.2 80.4 86.5 79.6 72.6 66.2 60.6 59.8 61.1 64 65.2 67.5 71 80.4 84.1 89.4 94.1 101 111.3 117.4 121.9 132.4 143.1 139.2 136.9 141.4 143.3 147.4 156 169.9 179.3 186.4 186.5 190.2 191.5 194.1 195.3 197.3 199.3 203 208.2 212.7 214.4 217.3 222.7 226.1 227.5 228.7 229.8 231 231.6 232.1 231.5 234 235.7 225.6 212.3 205.2 199.8 199.2 198.1 194.7 185.6 181.7 178.4 177.6 173 170.9 169 173 176.2 181 186.8 191.4 195.5 198 200.2 199.2 194.3 187.5 178.9 174.6 165.9 161.8 161.8 163.2 163.4 162.6 161.9 161.8 162.2 162 163.2 162.5 159.5 155.3 155.8 157 152.7 151.3 151.8 157.7 164.5 169.2 177.4 185 195.6 203.2 199.2 195.1 191.3 186.8 184.9 188.7 192.3 195.3 192.7 191.8 192.8 192.3 193.7
99.8 101.9 104.6 106.4 105.4 101.1 95.6 90.7 82.9 74.3 67.1 63.4 59.2 56.3 54.7 50.9 50.3 49.5 48.3 48.6 50.5 51.7 51.1 54.7 59.2 64.3 65.1 68.2 70.6 64.7 49.6 48.2 50 48 42.7 36.7 28.4 27.9 28.2 28.7 28.1 29.1 37.3 43.3 37.2 29.7 28.9 29.8 33.6 35.8 37.2 37.5 37.6 38 38.4 39.1 40.8 42.5 41 43 43.5 44.9 45.8 46.7 47.4 47.6 48.4 48.6 52 53.1 46.8 45.2 45.9 46.9 50.6 60.7 67.7 71.3 76.8 82.4 90.4 85.1 79.1 68.9 62.3 58.5 59.4 61.3 63.5 65.6 68.5 71.4 81.9 83.2 90.3 96.6 105.2 112.6 120.2 127.5 137.5 141.9 137.4 132.5 134.6 138.2 150.3 162.1 176.9 181.4 181.9 182.1 185.2 187.9 190.4 191.6 194.1 199 202.7 206.4 209.6 212.9 216.6 221.1 224.1 228.5 231.2 232.5 233.5 234 234.7 239.1 247.7 247 234 218.3 208.7 203.5 201.5 197.2 192.8 191.9 188 184.5 181 174.9 169.7 167.7 170.7 174.4 184.7 190.6 195.3 199.2 203 204.4 202.3 196.6 189.5 178.6 172.8 166.3 161.8 161.8 163.2 165.9 165.4 165.4 163.2 162.7 161 161 160.2 157.2 153.8 154.8 153.6 150.7 151.1 151 156.3 162.2 165 171.5 179.1 190.1 196 196.5 192.6 189.5 186.2 183.6 188.6 193.5 195.7 191.2 190.6 191.1 190.4 191.7
94 95.7 99.1 100 96.1 91 88.3 81.9 75.1 68.5 61.4 57.9 54.1 51.5 49.8 49.3 48.8 48 47.6 47.6 46.8 49.8 51.6 55.8 60.1 66.2 65.3 65.1 64.2 55.1 50.8 52.8 55.3 48.6 42.1 35.9 28.1 27.7 27.9 28.1 28.2 29.2 35.7 39.2 34.6 29.2 28.9 29 33 31.7 33.6 36.4 38 38.3 38.6 39.2 40.8 42 40.6 41.7 42.4 44.3 44.8 45.2 45.1 45.1 46.1 46.9 48.3 47.7 43.1 44.9 46.1 50.5 60.4 69.6 73.9 77.7 85.7 92.7 92.2 82.1 72.7 65.4 59 58.2 59.6 61.4 63.3 65.5 67.6 78.1 78.3 86.5 93 99.3 106.8 112.4 121.5 130.5 139.2 137.2 133.6 130.9 132.6 139.9 151.5 163.1 171.5 175.2 176.4 178.9 181.8 184.5 187.1 188.7 195.3 200.2 203.4 205 206.7 211.8 216.1 221 225.4 228.8 231.9 236.4 237.6 239 237.8 247.6 252 250.2 242 228.3 219.2 208.5 205.1 202.6 200.4 191 190.1 186 183.4 178.4 170.7 165.8 165.6 173.5 184.9 194 199.9 204.4 208.8 207.9 202.7 196.3 190.1 181.8 169.9 163.8 161.8 164.9 168.6 172.8 173.1 175.1 170.3 170.8 163 158.7 155.8 154.8 152.6 152.3 150.9 149.6 149.8 149.9 153 156.8 158.8 165.2 173.4 181.6 188.3 194.9 190.1 186.8 184.8 183.9 188.4 195.1 195.4 189.2 189.6 188.9 187.6 187.3
89.7 92.4 95.2 95.3 92.1 86.4 82.1 76 70.9 63.3 56.5 51.1 48.9 47.6 47.8 47.7 45.5 45.1 46 46.3 47.6 49 50.4 54.5 60.8 66.7 67 63.4 57.9 49.5 53.6 58.5 57.2 48.5 41.5 36.2 29.2 28.3 28.1 28.5 28.2 28.4 33 33.1 33.5 28.9 28.8 28.8 32.8 31.7 32 36.6 38.5 38.7 38.8 39.4 40.2 40.5 40.7 41.3 41.6 42.6 43 44 44.6 45.8 45 44.6 47.3 46.8 42.8 45.3 50.8 58 67.2 73.6 78.2 82.8 87.4 84.4 80.7 72.5 64.9 59.7 57.2 57.9 59.3 61.2 63.2 65 74.5 80.6 85.8 90.5 93.3 98.3 105.4 114 125.3 127.5 134.8 131.9 129.5 132.6 136.6 143.8 148.8 154.9 165.4 169.2 171.9 175.5 181.4 183.3 181.6 189.3 195.4 198.8 201 201.9 205.2 211.6 217.4 221.2 224.9 228.4 234.8 239.4 240.1 243.1 242.8 250.8 255.8 257.5 247.1 236.7 230.1 215.9 211.2 206.5 204.9 199.6 197.1 194.6 188.2 180.3 173.1 165.5 164.7 170.6 180.2 187.4 194.5 201.3 207.9 208.5 202.8 195.4 188.4 179.1 170.9 163 166.4 176.5 177.7 176 179 181 180.7 176.5 167.9 157.5 153.8 151.7 151.1 151.2 149.9 148.5 148.6 149.7 152.5 153.9 156.3 162 168.3 177.1 187.4 193.3 186.9 182.3 182.7 182 186.1 194.4 192.2 187.2 187.9 186.8 186 184.1
82 85.5 87.9 87.7 86.5 81.1 74.6 67.2 60.7 53.9 49.2 46.7 45.8 45.2 45.1 46.2 44.6 44.1 44.3 45.7 46.8 47.8 49.7 54.4 62.5 66.1 64.1 60.1 52.9 46.9 56.5 59.4 55.3 47.2 40.3 36.4 31.6 30.1 28.4 27.6 28.1 28.7 32.4 31.5 31.2 29.8 28.8 29.3 32.8 33.5 31.9 36.4 38.2 37.8 38.2 38.6 39.2 39.4 39.9 40.1 40.5 41.4 42.6 44.9 47.6 48.5 48.2 46.8 46.2 45.1 44 47.2 52.9 60.8 69.2 73.8 72.9 71.7 74.7 71 64.8 56.9 55.6 55.2 56.2 57.6 59.8 60.7 62.9 65 78.3 83.4 90.3 92.4 92.6 95.4 99.8 107.9 115.2 120.7 126.4 125.3 126.7 130.6 136.1 141.7 144.4 153.2 162.1 167.6 172.6 179.4 184.8 186.4 185.8 188.4 192.1 197 197.8 201.2 207.8 214.7 217.4 220 223.2 229.2 235.9 240.5 244.2 245.6 245.8 253.8 257.9 256.5 246.8 243.1 236.8 223.9 216.9 211.7 208.5 206.4 202.1 197.1 188.7 181.6 173.9 169.7 164.4 165.5 170.3 175.2 182.6 190.6 197.9 202.7 202.5 193.6 185.4 174.4 168.3 165.2 174.3 183.4 182.8 179.6 184.4 189.4 184.9 179.8 173 163.5 158.3 151.9 152.2 154.9 150.1 148.1 147.3 148.6 152.5 153.7 154.9 160.1 164.6 173.9 186.1 189.1 185.4 182 180.8 180.2 183.3 189.4 187.6 188.1 187.7 185.6 184.2 181.7
77.7 79.7 80.5 79.7 76.9 70.6 65.6 59.1 53.2 48 45.7 44.8 44.8 45 46 46 44.8 44.7 44.5 45.5 47.2 49.6 51.3 55.2 62.9 64.4 60.8 56.7 48.6 46.4 52.4 55.1 51.5 44 38.3 35.3 31.8 30.1 28.4 27.8 28 29.9 29.4 29.9 31.9 31.4 29.7 31.8 30.7 32.2 33.8 35.3 36.8 37.8 38.7 39.7 39.4 40 40.2 40.7 41.8 44.4 48.1 50.9 53.3 54.4 49.3 46.8 44 41.5 44 49.4 51.8 59.9 65.2 67.5 62.6 57.7 59.6 57.7 53.7 52.6 53.5 54.4 55.6 56.7 58.7 60.1 64.7 73.4 82.3 92.5 96.8 94.8 92.7 93.3 94.3 102.1 108.8 111.6 110.4 115.3 123.8 129.9 138.5 144.8 151.4 156.5 164.5 171.6 176.7 181.9 186.6 186.9 189.5 193.7 196.8 199.8 204.6 211 213.7 213.2 217.2 219.6 222.6 228.9 234.7 239.4 243.3 244.9 247.9 255.4 256.7 253.8 252.5 250.4 241.2 227.2 217.7 206.4 199.8 198.7 199.3 197.8 192 182.5 172.8 168.5 163.5 162.5 161.5 161.2 166.3 173.8 181.9 189.3 194.8 190 183 172.9 164 165.6 181.9 185.1 184.4 183.7 190.6 193.5 187.1 182 175.7 167.9 160.2 158.1 162.6 160.7 155 149.6 146.3 147.2 150.8 152.5 153.6 156 158.1 169 179.3 180.6 185.6 182.5 177.6 175.3 178.8 183.8 186 188.6 187.9 185 182.1 178.8
72.2 73.3 74 72.6 68.2 62.6 56.4 52.3 47.1 44.2 43.8 43.7 43.8 43.8 45.4 45.7 44.3 43.8 44.8 47 47.9 49.7 52.6 56.7 61.5 62.1 58.7 52.6 46.3 44.3 46.9 51.1 48.8 42.3 37.7 34.4 32.6 30 27.7 28.3 28.2 30.6 31.4 32.2 33.2 34.9 33.4 35.7 34 32.5 37 37 36.2 37.4 39.2 39.7 39.8 40.1 40.2 40.9 47 52.3 54.8 57.6 59.9 60.9 52.5 46.2 43 38.8 44.1 47.2 51 57.9 59.9 59.7 55.3 52.1 51 50.8 51.2 51.8 53 54 55 56.1 57.5 62.8 71.1 76.7 91.7 98 98.7 92.7 93.6 95.5 96.4 102.2 106.8 111.1 116.8 122.8 130.4 137.4 144.6 150.8 158.1 164.7 168.5 174.1 179.8 183.8 186.6 187.9 193.5 197.7 201.1 206 212.4 215.6 216.6 216.3 217.4 219.8 222.9 228 233.3 242 242.9 242.7 248.8 253.9 252.6 252.9 254.9 250.3 242.5 235.5 224.3 209.2 193.9 188.4 185.3 189.4 188 180.6 173.5 167.9 168.1 167.7 165.1 160.5 159.7 158.5 165.1 176.3 184.8 182.7 175.5 165 157.7 168.6 178.7 182.6 182 184.9 194.8 196.6 188.1 183.8 178 170.2 159.3 165.9 168.9 162.8 157.3 152.5 145.5 145.9 148.8 151.6 153.2 155.1 157.7 165.4 175.3 180.6 187.1 183.3 174.5 171.2 175.5 179 186 187.9 187.1 184.3 179.2 174.6
65.7 67.3 66.9 64.5 59.5 54.7 51 47.9 44.3 42.7 43.2 43.4 43.1 45 44.8 44.8 43.7 42.9 44.1 46.2 48 50.1 52.6 58.2 61.8 60.1 56.8 50.6 44.2 41.9 41.7 46.1 44 40 37.6 34.8 31.4 27.4 29.4 30.2 28.7 32.9 33.6 33.9 33 33.6 34 33.7 32.4 32.3 37 37.7 37.5 37.2 38.4 39.3 38.9 39.4 39.8 44.1 51.4 56.8 59.7 63.2 66.3 64 56.5 48.1 42.1 39.6 44 44.4 47.1 52.4 53.6 52.9 50 48.9 49.1 49.9 50.5 51.1 52.4 53.5 54.5 55.4 57.8 68.8 74.6 87.2 96 100.3 96 91.7 94.1 96.6 98.6 106 111.5 115.9 120.4 126.5 134.3 142.2 148.8 161.6 164.4 167.7 173.2 178.6 182.6 185.6 189.2 194.7 197.4 201.9 205.8 211.7 216 219.5 220.4 217.6 218.5 221.4 223.3 226.2 234.5 240.5 238.5 242.6 246.5 247.9 250 252.4 252.5 247.9 243.3 238.6 227.7 212.8 198.3 182.5 178.8 178.8 178.8 180.6 176.3 171.2 171.4 170.7 170.9 171.8 168 157.7 157.3 162.6 174 173 164.8 156.5 156.5 166 173.6 176.4 177.1 183.4 192.7 196.8 190.6 185.5 179.9 172.9 163.2 171.3 171.9 163.5 157.1 152.1 146 145.3 147.5 150.6 153.5 156.7 159.3 165.4 173.2 179.6 185.7 180.9 171.6 167.3 170.4 178.2 182 184.8 183.6 179.4 176.2 170
58.1 63.5 62.6 61.1 56.4 51.5 47.9 44.6 42.6 42.4 42.2 44.1 48 49.1 46 44.4 43.8 43.4 44.4 47 48.8 51 54.1 61.2 61.3 57.7 53 46.5 41.2 41.4 37.4 39.2 38.2 38.3 38.7 35 30.8 27.9 31.2 30.1 30.9 31.7 31.3 33.6 33.5 32.5 32 34.7 29.4 34.2 38.5 37 36.8 37.2 37.8 37.8 37.2 39 43 47.3 54 61.1 64.8 69.8 73.7 65.2 57.2 48.4 41.3 38.5 44.3 45.3 47.9 48.3 48.6 48.4 48.2 48.1 48.7 49.3 49.8 50.5 51.5 52 53.6 54.8 61.3 70.9 81.8 91.1 100.8 97.2 91.3 91.6 96.9 101.1 104.7 111 116.8 120.8 125.4 132.4 139.7 150 160.7 164.5 167.7 171.6 176.7 182.4 185.8 189.3 194.9 199.6 203.4 210 212.4 218.4 222.5 225.6 220 219 223.3 223 224.3 226.8 234.5 237.6 238.5 241.6 243.5 245.9 248.1 252.9 252.4 247.6 241.1 232 221.3 211.2 199.2 183.6 178.8 178.8 178.8 178.8 177.7 175.4 174.5 173.8 173.8 174.1 170.1 160.4 156.4 156.5 162.3 162.8 156.1 154.2 160.3 167.9 167.9 168.1 169.7 176.6 185.4 191.9 192.4 186.9 179.3 173 167.9 173.2 171.3 163.5 155.2 145.1 143.9 144.7 147 150.4 154.8 156.2 159.2 165.3 171.1 177.7 183.1 176.9 168.1 164.9 169.3 176 179 180.8 180.2 173.7 172 165.5
51.1 54.7 56 55.2 51.9 47.2 44.7 42.1 42.6 42.9 46.8 49 50.8 49.5 45.5 43.7 43.6 44.2 46.4 48.6 50 52.4 58.6 62.9 60.3 55.5 50.5 43.3 39.4 36.5 34 34.2 35.1 38.9 41.4 36.2 30.8 29 31.2 30.8 31.3 28.4 28.6 32.7 34.3 33.5 32 32.8 33.5 38.8 32.6 37.1 35.4 34.2 34 35.4 36.7 39.6 50 53.9 59.4 64.7 69.5 75.5 78.5 69.3 51.9 44.2 39.3 40.9 43.5 45.5 46.7 46.5 46.7 46.9 47.2 48.1 48.7 48.8 49.2 49.9 51 51.8 52.9 55.9 66.9 75.9 86.1 95.5 98.4 91.9 88.9 93.2 100 105.2 108.8 114.4 119.2 124.8 132.1 138.6 148.4 158.3 162.5 166.1 170 174.2 179.1 185 190.7 194.4 198.4 203.3 207.9 215.2 220 224.1 227.8 225.3 221.2 223.6 227.1 227.1 227.8 227.4 232.7 235 237.1 240.6 242.7 247 248.4 254.4 255 249.1 241.7 233.1 216.3 205.7 195.7 183.6 178.8 178.8 178.8 178.8 178.5 179.5 179.8 179.9 179 174.6 168.9 163.5 156.6 155.6 156.4 156.4 154 154.2 162.4 167.9 160.8 156.6 159.8 167.9 175.3 183 186.8 183.9 175.7 171.1 167.9 168.4 165.1 159.4 149.8 142.9 143.1 144.2 146.3 148.9 151.9 156.5 158.6 164.2 168.9 176.1 180.4 173.9 165.7 162.9 167.9 173.2 176 177.7 174 169.9 167.1 160.6
46.9 49 49.9 49.6 46.9 44.6 42.3 39.9 47 49.9 52.6 54.2 52 48.2 44.2 43.3 43.4 45.1 48.6 50.2 51 54.8 61.8 62.9 59.5 54 47.4 42.3 39.6 35.2 33.9 33.8 35.7 40.8 45 36.2 32.2 28.3 32.3 31.4 28.5 28.3 28.8 33.4 34.5 34.5 32.3 32.8 36.4 34.2 33.3 35.9 35.1 32.6 31.4 31.1 37.6 43.9 53.4 58.1 62.9 69.6 76.4 78.6 71.2 61.2 46.1 40.3 39.9 41.2 44.3 44.7 45.2 45.8 45.5 46.8 47.3 48.1 49 48.7 49.2 50.4 51.2 54 56.8 65 66 76.1 87.4 95.5 92 87.8 90.5 97 104.9 110.9 114 116.9 120.2 126.6 135 143.4 153.7 157 161.6 167.3 172.3 179.4 186.8 194.2 196.7 197.8 203.4 207.8 211.2 220.1 225.4 229.3 225.4 222.3 223.1 226.5 227.5 229.3 229.1 229.4 229.2 231.9 234.9 240 243.3 246 250.5 251.7 252.4 247.5 240.9 229.9 223.5 207.2 198.3 178.8 178.8 178.8 178.8 178.8 180.8 183.8 185 184.8 180.6 174.8 168.6 164 159.3 155.3 155.3 154.5 154 154.9 161.1 165.1 153.6 148.4 149 157.8 164.1 171.5 175.7 178.1 171.8 166 163.9 160 155.7 150.7 142.6 141.8 142.3 144.4 146.8 148.8 151.6 156.8 160.2 162.7 166.6 173.7 176 169.3 162.6 161.7 166.1 171 172.6 174.1 169.4 165 162.3 154.1
45 45.7 45.8 46.4 43.7 41.7 41.5 46.6 50.3 52.8 57.4 56.5 50.6 45.8 43.4 42.6 44 45 45.5 44.5 48.5 57.3 62.1 61.9 57.6 51 44.6 40.6 43.9 34.3 33.7 33.8 38.3 45.9 46.3 35.4 31.5 27.4 32.4 32.4 31.7 31.2 29.5 33 33.3 34.3 34.7 35.6 35.4 34.5 29.6 33.2 34.1 31.8 31.7 35.5 39.6 51.4 57.8 63.2 65.8 71.8 78 74.7 64 55.6 41.9 39.7 39.8 41.4 42.9 44.1 44.1 44.7 45.7 46.8 47.1 48 48.6 48.5 48.9 51.9 54.8 57.4 64 67.2 66.4 76.1 86.5 88.9 84.9 85.6 90.6 97.8 105.7 110.8 110.8 112.5 121 131.3 141.2 146.9 150.4 154.2 160.3 165.2 173.2 181.2 190.1 197.4 198 202.6 207.1 211.9 217.8 223.3 227.4 225.4 222.6 224 227.1 234.1 230.8 230.3 230.6 231 231.4 231 233.3 239.8 243 246.6 250 250.7 246.4 245.6 237.9 232.2 219.3 206.8 198.4 187.2 178.8 178.8 178.8 183.8 186.5 188.3 192.6 188.6 181.6 174.8 167.5 163.8 160.7 156.8 155.2 156.1 155.1 154 158.1 160.2 150.7 147 145.9 145.4 149.5 157.7 164.7 169.4 165.7 159.6 156.7 148 141.8 140.8 142.7 144 142.6 142.8 148.9 149.7 153.3 157.1 157.3 158.4 162.7 171.5 170.6 165.5 160.7 160 164.8 167.9 168.5 169.3 162.7 160.2 157.4 150.1
43.2 44.4 43.2 39.9 41.7 40.9 45.4 49.1 51.9 56.4 61.3 56.3 47.5 43.8 43 43 43.3 44.5 45.6 48.1 53.7 60.3 62.7 60.4 54.8 46.9 40.4 38.5 37.5 34.6 33.6 34 42.8 49.3 44.5 34.2 32.1 27.1 31.2 32.4 31.9 31.6 31.4 33.1 34.4 34.4 35.6 35.7 35.9 36.6 33.3 33.7 31.8 32.9 33.5 36.8 43.9 55.4 61.3 61.6 62.7 65.6 68.8 64.1 55.7 49.7 39.9 38.9 39.5 40.5 42.7 42.6 43.2 43.8 45.1 45.9 45.7 46.4 46.9 48.9 50.7 55.7 59.7 62.4 66.3 71.1 69.7 71.8 81.3 84.1 78.7 84.4 91.2 103 107.2 106.2 105.3 107.6 120.6 140.3 143.1 139.2 140.3 150.1 160.4 169.3 176.1 183.3 191.3 195.9 201 206.3 211.3 216.9 221.8 223.9 223.7 222.5 220.1 226.1 233.9 235.3 234.1 232.5 233.4 234 234.5 234.4 234.1 238.4 241.4 244 248.2 248 243.2 241 239.2 237.6 224.3 213.9 204 193.3 188.5 185.5 188.2 189.9 190.8 188.2 194.2 189.5 181.9 174.1 165.3 161.6 157.4 159.4 158.1 158.8 155.3 152.8 153 151.3 147.9 146.9 145.2 144.1 143.1 148.5 154.6 159 157.7 153.2 148.7 139.1 140 145.4 148.2 151.5 146.9 143.4 148.4 149.8 153.2 159.6 161.9 160.6 165.5 170.4 167.7 164.1 158.9 158.7 162.5 164.9 164.9 161.5 157.6 156.3 152.1 145.8
41.8 40.2 43 42.8 42 41.2 46.7 50.8 55.1 62.8 61.7 53.8 44.9 41.6 41.4 41.8 42.9 43.6 45.2 50.4 56.3 62.2 62.1 57.9 51.4 43 38.2 40 41.2 35.4 33.9 37.4 45.5 49.1 41.9 33.7 32.4 30 28.4 30.1 30.3 31.6 31.4 33 34.3 34.3 34.9 35.6 35.2 35.2 32.3 31.2 33.8 33 35.4 37.6 48.1 56.8 58.8 56.6 55.4 57 57.6 51.2 43.7 39.1 38.7 38.4 39.1 40.5 42.1 41.5 43.1 43.4 44.3 45.1 44.5 44.6 48.1 54.6 56.7 58.5 62.4 67.7 70.4 74.7 76.4 66.3 73.4 78.8 76.2 82.7 94 104 101 100.2 101.3 103.3 115.6 132.9 132.9 130.7 138.7 149.8 162.4 171.9 178.5 185.1 192.3 191.6 199.2 206.5 212 215.8 218 219.3 219.4 215.9 220.9 228.8 232.6 235.9 235.2 234.9 236.3 237 237.6 237.2 237 236.9 239.4 241.5 245.1 244.8 240.1 238.9 237.4 237.4 232.4 219 211.3 198.3 195.3 194 195.2 195.1 192.2 186.4 190.6 189 179.6 169.5 161.1 157.6 155.4 161.3 163.8 164.5 157.1 155 155.7 156.5 156.9 152.4 149.5 148.2 150.4 141.1 144.1 148.8 149 145.2 142.5 138.2 142.1 148.2 153.4 158.2 152.4 145.8 147.4 149.1 152.6 158.5 165.6 166.3 168.9 174.3 172 165.3 158.2 157.2 159 160 160.6 156.5 153 152.2 147.6 140.7
38 42.8 43.3 42.9 40.7 43.4 47.1 52.6 58.9 64.9 58.8 46.5 42.2 42.1 43.8 45.1 45.6 44.4 46.4 51.6 59.1 62.5 59.9 53.8 46.5 39.6 37.3 41.4 41.2 35.3 33.4 38 46.1 47 38.2 32.6 30.7 31.7 29.1 28 29.7 29.1 29.6 32.6 33.9 34.2 35.4 36.6 35.8 34.9 31.8 31.2 31.5 33.9 35.7 40.2 48.5 54.2 52.4 48.3 46.9 47.2 46.6 42.7 40.3 37.8 38 38.3 38.8 39.7 40.7 40.9 42.2 43.2 43.3 44 43.8 44.1 49.8 55.6 57.5 65.5 70.7 74.3 76.8 79.7 74.9 63.6 66.8 71.5 74.2 81.2 92 98 96.2 96.9 97.5 101.4 109.3 123.1 126.1 127.6 134.3 148.5 165.2 178.4 185.3 184.9 185.6 187.6 195.4 201.4 206.6 210.4 211.5 215.2 214.6 217.1 220.5 228.7 233.4 233.2 235.3 237.2 239.3 240.4 241.2 241 239 238.3 238.4 240.1 242.3 239.9 237.7 236.8 234.8 233.5 228.2 223.3 211.8 197.2 193.1 190.7 192.3 192.6 187.7 183.6 184.5 185.2 176.5 164.7 155.7 153.4 156.6 164 167.7 167.1 163.8 160.9 161.3 163.2 162.2 159.8 156.4 153.1 150.7 145.4 140 140.6 141.2 138.4 137.8 137.8 138.9 150.9 157.9 165.3 158.7 150 150.1 149.9 153.4 163.2 173 178.6 179.3 179 174.5 166.9 158.5 155.6 156.4 157.2 156.8 152.1 149.4 147.6 141.8 136.2
41.1 41.8 43.4 42.2 39.8 44.8 49.5 57.3 65.8 62.5 52.1 43.5 43.2 45.9 48.5 50.7 51.5 49.7 48.5 53.4 59.4 61.1 57.3 49.8 43.4 38 37.1 41 41.8 35.8 34 37.6 43.5 43 35.7 31.3 32.3 33.2 30.8 27 28.9 28.3 29.3 31.6 33.6 36.6 40.6 41 37.4 34.8 31.7 31.8 32.7 34.3 35.9 39.5 44.9 47.5 44.5 41.7 39.4 39.8 41.1 41.4 41.3 38.7 38 37.8 38.2 38.8 39.8 41.4 41.2 41.4 43.4 42.1 45.7 52.8 53.6 59.9 65.1 69.4 76.1 80.2 85.1 83 69.7 61.4 63.5 65.5 70 76.8 82.9 88.9 91.4 93.6 96 99.5 105.3 115.2 121 122.5 126.7 142.3 156.7 169.8 175.7 177.7 178.9 185 192.1 198.1 203.1 205.2 207.9 213.7 213.4 216.7 220.2 226 229.9 232.2 235.8 240.6 246.4 245.1 245.9 245.6 241.3 239.5 238.8 238.8 239.9 240.7 237.5 237.3 232.5 225.5 220.8 216.1 205.4 189 181.2 181.4 184.3 186 182.1 176.8 176.3 177 168.4 155.8 150.6 154.6 163.3 168.8 169.5 168.4 165.2 163.7 170 169.1 169.1 164.8 160.4 156.5 152.5 147.4 142 138.8 137.4 136.7 137.3 137.3 139.3 150.9 165 169.3 164.7 153.1 152.4 152.3 159.6 170.5 181.4 187.1 188.5 185.6 178.5 171.5 160.1 154.2 154.2 154 152.7 148.1 145.7 143.1 137.3 132.7
42.1 40.8 42.2 39.7 39.3 46 53.6 62.5 65 55.9 45.3 43.2 46.7 48.9 50.8 54.1 55.8 57.7 52.8 55.3 58.4 57.5 52.3 46.5 41 37.6 42.6 41 40.8 35.8 33.6 37.2 39 37 32.7 33.6 35 34.2 32.2 29.2 29.6 31.4 29.4 31.9 34 38.7 44.5 44.4 37.4 33.6 32.7 34.9 35.2 35.5 35 37.5 39.5 39.7 38.2 35.4 37.8 39.9 40.8 39.3 40.6 39.6 37.2 37.4 37.8 38 39.9 40.7 41 41.5 42.5 43.7 51.2 47.5 55.7 62.3 68.1 75.4 79.9 85.8 87.5 80.3 66.2 60.2 61.9 63.5 68.1 73.6 76 82.3 88.8 93.7 97.8 102.2 105.6 111.9 114.5 116.8 124.9 137 147.1 156.3 164.9 172.2 175.9 182.3 187.2 193.1 200.8 202.2 204.3 205.5 210.4 215.7 221.2 226.5 231.1 233.9 247.9 258.7 258.8 254.6 252.3 250.3 246.3 242.7 240.5 239.6 241.3 241 239.4 233.6 227.9 226.8 224 209.1 201.1 176.6 168.2 168.7 171.4 174.7 172.8 170.5 167.4 165.1 158.4 149.4 150.9 158.1 167.2 170.3 172.3 172.6 169.2 166.5 175.5 176.5 173.6 168.7 165.1 159.6 153.8 148.8 144.4 139.2 136.6 136.3 136.4 136.4 140.2 154.2 165.1 169.5 166.9 156.3 155.7 152 161.4 175.1 186.1 194.7 195.5 191.2 185.2 177.3 162.8 154.8 150.4 150.7 149.1 144.4 142 138.6 133.4 129.8
42.9 40.3 39.6 39 41.1 49.1 58.2 61.2 59.1 46.7 43.5 46.3 49.4 51.3 53.5 56.1 60.9 62.8 55.8 55.8 56 53 48.6 43.6 38.3 36.9 37.4 39.6 40.2 35 33.7 36 35.8 33.8 32.4 36.5 37.4 34.2 32.7 29 28.7 32 30.4 32.6 34 41.1 48.3 45 36.1 34.1 34.7 36.3 35.7 36.2 36.5 35.2 37.3 37.7 34.5 33.4 35.4 37.4 39.7 37 39.2 39.2 37.2 36.8 37.2 37.8 39.4 39.9 40.8 41 49.2 45.8 43.8 47.3 55.9 61.7 71.1 80.3 86.7 85.8 79.2 73.6 59.7 58.7 60 63.2 67.4 75.6 81 85 89.6 94.6 98.3 100.4 103.7 106.8 111.4 118 124.4 130.7 138.1 150.9 159.6 166.7 172.4 180.5 187 194.4 197.2 198.9 201 209.4 211.8 218.3 224.4 231.7 235.8 243.1 258.8 269.2 271.6 267.3 262.5 257.8 253 248.4 249.6 251.3 247.8 244.3 241.6 235.1 229.6 225.1 224 218 201.2 176.7 159.5 158.5 155.7 159.1 162.1 165.4 160.6 154.2 148.2 151.5 157.8 163.8 167.5 173.6 177.1 178.2 177 172.7 175.8 180.6 176.6 172 171.8 164.8 156.6 149.5 145.7 140.2 136.4 135.8 135.5 136.1 141.9 154.4 163.2 166.6 164.7 158.1 158.1 150.9 161.6 177 190.3 201.6 200.2 195.7 188.6 179.6 166.1 155.3 150.1 145.8 145.3 141.8 139 135.4 131.3 127.6
43.4 39.4 38.6 38.7 44.5 52.4 56.1 58.7 52.9 46.5 46.8 49.1 52.4 54.9 56.8 60.1 65.1 61.2 55.6 53.8 52.5 48.4 44.6 39.3 37.2 36.4 37.2 38.8 38.3 34.1 32.8 34.2 33.7 32.4 33.2 40.4 38.3 34.4 32.5 29.4 28 31.4 30.5 31.6 34.1 42.3 46.3 41.9 35.1 34.5 38.8 38.7 37.3 36.5 36.4 36.9 35.6 36.2 32.3 32.2 32.4 35.8 37.1 35.7 38 36.6 36.1 36.4 39.2 39.7 40.8 41 42.4 47.9 43.1 44.4 44.6 50.2 56 67.5 77 87.2 87.5 83.9 75.5 68.5 62.5 58.4 58.8 61.7 65.2 74.7 82.3 87.4 90.3 94.3 97.2 98.7 101.9 106.8 111.9 117.8 123.4 129 137.5 147.2 156.4 162.7 167.8 181.6 187.4 192.1 193.2 195.4 206.1 211.4 216.6 220 229.5 238.9 240.7 254.1 264.4 272.9 278.9 278.4 272.5 270.9 257.4 254.9 257 260.6 257.6 252.5 243.7 239.2 234.3 227.7 220.5 211.4 193.3 178.9 165.4 160.5 151.1 149.1 151.6 153.9 151.6 148.2 150.5 157.6 166 170.1 172.2 177.3 182 183.9 181.6 177.2 173.2 178.2 175 172.4 175.2 167.9 159.4 150.2 145 141.4 139.4 134.9 134.1 135.7 144 152.7 160.9 164.7 163.1 158 155.9 147.7 161.1 176 188.2 197.9 201.1 197.7 191.3 181.7 169.6 157 150.4 147.3 143.3 138.7 136.8 132.7 129.6 125
43.3 38.8 38.2 40.5 47.3 53.5 55.5 54.9 49 48.2 48.4 52.2 55.4 58.1 61.6 66.8 67 58.9 52.1 49.8 47.9 44.5 40.6 38.2 37.1 39.2 38.8 39 38.8 34.3 32.8 32.7 32.5 32.3 37.8 41.6 37.8 33.8 31.6 29 27.6 29.8 31.2 32.3 35.2 42.3 43.2 38.2 34 37 41.8 39 38.2 34.9 35.6 36.2 33 35.1 36.1 32.9 32.2 32.8 34.2 33.9 34.6 35.3 35.7 37.3 39.9 40.2 41 43.7 46.7 46.2 48.3 47.3 43.3 51.2 57.9 72.3 78.8 79.2 78 78.8 68.9 62.7 59.7 56.2 57.6 60.5 66.7 79.6 84 88.7 91.2 94.6 98.1 101.1 103.5 108.4 114.1 119.1 124.1 129.1 135.6 144.2 154 160.8 169.6 178.1 183.6 187.4 189.1 200.5 211.5 217 223.4 228.8 235.4 240.9 251 259.8 265.5 272.6 276.6 276.6 279.5 275.6 260.6 273.1 273.1 264.8 258.8 255.4 247.9 244.5 238.7 232.5 224.6 208.5 188 181.7 169.7 160.3 151 146.5 148.4 149.5 146.1 149.2 156 167.2 173.9 176.9 178.6 182.1 189.6 189.8 184.6 177.8 172.8 170.5 170 172.7 175 165.9 157.7 150 145.9 142.6 142.4 135.4 133.5 135.1 142.2 152.2 157.8 161.2 159.7 155.6 151.7 144.9 155.7 171.4 182.6 188 194.8 195.5 191.7 183.3 171.6 157.8 151.3 147.9 143.4 138.4 133.8 129.7 126.1 121.7
41.2 37.7 37.9 41.7 48 52.4 51.7 48.4 45.4 46.6 49 54.2 57.9 62.6 71.5 69.7 63.4 53.5 47 46 45 43.5 39.9 38.1 38.4 40.9 44.5 45.5 42.9 36.1 33.5 32.6 32.4 35.4 42.3 41.7 36.9 32.8 31.2 28.2 27.7 28 31.4 32 36.9 42 39.6 34.8 34.2 39.3 44.3 44.1 40 33.4 31.1 33 32.3 32.5 34.3 31.7 35.6 32.7 33.2 33.3 34 34.9 35.5 38.3 39.8 40 43.9 45.5 48.9 50 51.9 51.4 43.3 52 60.7 69.9 76.9 71.9 70.1 68.2 59.3 54.6 54.5 55.2 57 62.9 73.9 80.9 87.9 90.5 93.5 95.5 99.8 103.6 111 115 119.2 123.4 125.1 129.4 134.3 141.2 150.4 159.5 165.8 175.7 181.9 184.5 193.3 206.4 212.7 220.7 224.9 231 235.6 241.1 253.9 260.9 263.9 270.8 272.4 274.4 276.5 275.3 268.4 282 279.3 271.8 261.9 255.9 251 246 239.2 231.1 223.4 204.3 197.7 180.8 173.5 164.3 152.8 149 147.8 147.7 144.9 150.2 158.1 172.4 179.2 182.4 182.7 185.1 190.4 187.8 182.5 177 171.2 166.7 164.6 170.7 171.2 163 156.6 149.6 145.6 142.5 141.6 137 132.8 133.8 142 150.1 154.5 156.7 154.2 150.5 145.4 144.9 153.1 165.8 175.9 181.5 186.1 190 190.6 183.1 172.9 158 153.4 148 141.2 136.8 133.3 128.9 122.3 118.1
39.1 37.6 37.7 42.8 48.2 52.3 49.7 45.5 46.5 46.7 50.1 55.1 61.8 69.1 70.6 65 56.9 50.1 45.8 45.8 47 47.6 43.6 39.2 40.9 46.9 51.7 51.6 47.5 40.9 37.1 33.1 35.6 43.4 45.5 41.2 35.8 32.4 30.8 29.6 27.6 28.9 31.2 32.6 36.9 39.3 35.9 33.2 34.6 42.5 45.2 45.8 41.3 35.1 30.5 30.3 30.7 32.8 32.4 32.1 32.2 39.4 33.9 33.3 33.8 35 36.8 38.7 39.8 43.2 44.6 48.7 52.6 52.7 53 51.1 43.1 50.2 58.2 66.1 72.3 64.6 62.3 58.9 53.7 53.2 54 58.4 63.9 71.8 79.8 85.3 91.3 92.7 96.4 101.1 107.5 111.9 114.8 117.9 121.3 126.3 123.8 125.2 128.7 137.5 146 153.1 162.1 172.1 177.7 182.2 196.9 207.5 215.8 219.4 223.8 228.6 236 241.2 250.3 259.2 261.1 267.8 270.7 277.5 278.1 270.4 274.8 280.7 278.6 273.9 259.8 255.6 256 245.1 240.4 228.4 215.6 203.8 194.6 181.7 177.7 167 159.6 152.2 151.2 152 147.3 150.5 160.4 176.4 179.9 178.8 176.4 182.1 184.3 180.5 178.5 174.5 169 165 162.9 171.7 168.7 160.4 154.5 149.5 145.4 141.8 140.1 136.8 132.5 133.2 136.8 146.6 149.7 152.1 148.6 145.6 143.8 144.7 147.3 158.7 168 174.2 178.2 185.5 187.8 182.1 171.6 161.1 156.8 151.9 141.6 135.9 132.8 128.9 123.3 116.3
37.7 37.3 38.4 44.1 48.3 50.4 47.5 45.1 45.2 46.2 50.4 57.4 63.3 67.6 68.8 63.9 55.3 47.4 46.6 49.4 51.9 52.6 47.9 43.3 46.8 51.7 54.2 53.2 48.8 44.2 39.5 36.4 43.5 51 47.9 39 33.1 31.3 30.6 27.9 27.2 28.8 31.2 32.5 35.1 36.6 34.2 33 38.8 45.7 45.6 43.7 38.8 32.3 30.2 30.3 30.8 31.4 31.7 30.9 33.9 33.9 39.5 39.5 34.2 36.1 38.3 38.8 42.8 43.8 45.5 54.7 55.1 54.5 52.2 49.4 43.1 49.8 54.7 61.2 64.4 58.6 53.6 52.4 52 53.1 54.3 61.9 70.4 75.3 80.5 86.9 90.8 93.9 99 105.6 110.4 114.9 118.5 122.6 127.8 129.7 123.1 124.6 128.9 134.1 140.6 148.7 156.1 165.2 174.1 184.9 194.7 204.2 209.9 215.5 220 230.6 239.1 244.1 249.5 253.2 261.4 269.9 272.2 274.6 276.2 271.5 275.5 278.8 276.3 269.1 261.7 254.7 252.6 244.7 237.7 227.9 216 202.5 193.6 183.8 175.9 168.1 158.9 157.7 159.6 157.3 147.5 152.3 163.7 172.3 171.1 168.4 167.7 174.2 177.1 174 173.3 170.2 166.1 163.6 164.9 170.8 169 159.1 153.2 148.7 144.5 138.4 138.3 135.1 132.4 133.2 134.7 141.3 145.2 146 144.4 142.6 142.5 141 142.8 148.1 157 165.8 172.6 179.4 184.2 179.8 170.9 164 159.8 152.9 142.2 134.1 131.4 128.4 121.8 113.6
37.1 37.6 39.4 44.2 47.7 48.3 46.6 45 45.8 45.2 51.4 56.9 61.9 66.2 66.6 62.2 52.3 47.6 50.5 53 55.9 58.7 54.4 49.7 48.7 52.7 54.2 52.5 49.8 48.1 43.1 43.4 52 52.2 45.9 37.1 31.6 29.5 29.8 27.3 27.3 29.9 30.5 32 33.6 34.1 33.4 36.1 43 47 47.7 42 34.6 30.6 30.2 30.6 30.9 30.5 31.4 32.6 33.1 33 33.5 33.3 45 42.7 40.3 47.3 43.1 45.3 56.2 56.8 57 54.3 49.7 46.1 43.1 47.9 51.4 54.5 55.7 51.4 50.4 54.3 56.4 55.4 59 63.5 71.6 77.7 83 86.8 90.1 95.7 101.7 106.9 112 119.2 123.8 129.8 134.8 128.9 119.9 123.3 126.5 130.2 135.6 143.5 150.2 159.9 168.8 179.5 189.8 197.5 204.8 210 219.8 229.9 237.5 243.6 248.2 252.7 260.7 270.2 273.2 270.4 274.1 274.4 282.2 284.1 280.7 272.2 258.1 251.1 249.9 241.2 231.5 227.4 216.3 203.3 192.2 182.5 172.6 168 162.2 163 162.6 157.3 147.7 152.4 161.8 163.9 159.6 156.9 157.8 161.9 165.4 166.2 168 163.9 161.8 161.5 166.2 168.2 167.6 156.3 148.8 146.1 143.2 139 136.3 134 131.5 131.6 133.8 137.4 139.8 142.1 144.4 142.3 141.1 139.1 138 138.8 140.5 155 165.8 172.8 179 177.1 171 165.7 164.1 155.4 143.6 136.2 131 126.7 120.6 111.9
39.3 37.9 41.3 46.9 49.3 49.1 46.6 48.4 48.6 44.5 49.2 54.8 59.5 63.6 62.8 58.1 48.6 49.8 52.6 56.5 59.7 65.3 58.9 51.7 45 50.9 52.8 50.7 50.4 48.7 45.9 49.6 54 48.9 41.8 34.2 30.8 30.1 29.2 26.9 27.5 28.9 30.1 31.6 32.2 32.5 33.7 37.6 44.3 47.5 45.1 37.5 31.9 30.3 30.3 30.8 34.2 34.6 33 32.5 32.6 32.7 33 34.2 36.6 44.2 46.3 44.1 42.2 54.2 58.4 58.1 55.9 51.9 47.1 45.3 43.8 44.8 47.2 48.1 47.1 50.6 55.8 59 61.1 62.5 63.5 64.8 71.4 77.3 81.7 86.3 90.6 97.4 103.3 109.1 114.6 126 133.2 141.3 134.3 124.1 118.9 120.5 123.7 128.5 134.8 142.8 149.2 156.9 165.4 174.7 185.1 193.5 199.6 205.8 216 227.1 234 245.5 248.8 250.6 259.4 267.7 268.7 268.8 271.7 274.1 280.1 282.3 276.4 271.4 256.3 247.7 242.8 235.1 228.1 220.2 211.6 202.2 190.5 180.2 171.1 165.1 166.2 168.6 162 155 149.8 150.5 155.2 153.2 145.4 146.5 147.8 150.6 154.3 158.4 158.1 158.6 157.9 158.8 162.3 164.1 160.1 150.7 144.1 144.1 142 140.2 138.2 131.8 131 131.3 132.5 135.7 140.4 144.6 151.4 149.2 140.9 138 138.8 138.8 138.8 142.4 157.7 167.6 173.8 174.4 171 170.1 167.2 158.1 145.9 140.5 135.2 127.6 122 112.3
43.6 39.1 43.9 50 50 49.9 51.3 56.2 49.6 43.4 46.8 51.9 56.3 60.1 58.2 51 49 52.4 55.8 59.9 64 68.7 62.3 54.1 40 47.8 49 47 49.4 49.8 50.2 52.2 51.3 44 37.1 31.2 30.6 30.1 26.3 27.1 28.9 30.4 31.2 31.9 31.7 34.1 37.6 39.9 43 45.9 41.6 34.6 30.5 30 30 33.4 34.6 34.9 33.5 32.9 32.5 32.6 32.8 34.1 36.3 37.6 44.5 41.7 45.7 52 57.6 57.2 53.2 49.3 44.9 42.4 41 43.1 43.2 43 48.2 54.7 58 61.1 64.1 67 69.4 68.6 71.3 75.2 80.1 84.6 87.2 98.1 106 112.3 119.2 129.1 132.4 131.5 128.4 120.2 116.5 118.4 121.7 128.5 137.2 146.8 151.7 157.6 165 173.5 180.8 188.5 196 202.9 211.4 221 229.8 242.1 245.9 247.3 255.3 260.3 262.8 263.5 265.4 271.5 275.3 278.1 275.5 266.6 250.7 243.8 237.9 233 222 214.6 205.9 196.5 187.5 178.5 166.8 166 173 172.6 166.2 153 146.6 144.5 146.6 142.4 141.5 143.1 140.9 142.1 146 150.5 148.3 152.7 152.9 153.9 156.9 157.7 153 145.6 142.7 142.4 141.9 140 137.3 131.1 130.7 130.8 132.2 135.8 138.7 148.4 152.5 150.3 142.8 138.8 138.8 138.8 138.8 138.8 148.6 160.8 168.5 170.4 170 172.4 166.1 157.8 149 140.9 135.6 129.1 123.8 114.9
47.4 41.9 46.5 49.1 50.2 51.7 55.7 57.8 50.7 43 44.7 48.1 52.1 54 52.3 48.2 50.5 54.1 59.1 63.2 68.2 69.5 59.2 50 39.4 43.6 44.7 45.2 48.7 51.7 53.6 53.2 48.2 39 33.1 30.6 30.1 29.4 26.3 27.1 29.9 30.6 30.9 30.9 33.1 36.2 38.8 41.4 43.5 42.6 38.4 31.4 29.9 28 29 33.1 33.5 34.1 33.7 34.3 32 32.4 32.8 34.8 36 39.6 41.3 46.6 49.6 50.5 52.5 54.7 51.3 47.3 43.4 40 38.2 37.9 43.1 43.1 51 56 59 63.3 67.8 70.3 73.8 75.2 71 74.9 80 85.5 88.5 95.4 114.6 122 125.5 121.4 120.8 123.2 122.2 115.3 113.7 116.3 120.2 128.8 142 151.2 155.8 161.6 170.6 174.2 178 183 190 196.7 207.3 216.5 226.8 236.1 239.3 242.9 251.4 253.8 258 259.5 261.4 266.4 269.6 271.4 266.2 257.8 245.8 239.6 235.3 228.6 216.7 209.9 199.8 190.1 178.9 171.9 160 168.7 172.4 171.4 163.2 147.3 140.3 139.2 139.1 142.1 143 142.4 141 141 142.3 143.2 141.7 145.9 144.5 148.6 150.9 149.9 147 144.3 143.7 143 140.2 139.1 136.7 130.5 130.3 130.2 132.4 135.2 142.7 151.3 156.8 151.7 144.8 140 139.8 138.8 138.8 138.8 137.2 154.3 162.2 165.6 166.9 173.1 169.1 161.7 150.8 143.7 137.5 129.3 123.9 119.6
50 44.1 46.1 47.5 50.4 53.8 57.9 55.3 50.4 44.2 42.9 44 45.9 46.7 46.7 48.8 51.4 55.6 60.4 65.4 71.3 65.6 52.8 43.6 39.1 39.8 40.9 44.4 50 54.5 56.7 53 45 35.8 30.5 30.4 30.1 28.4 26.8 28.3 28.3 29.3 30.1 31.3 34.6 37.4 39.3 41.1 42.6 39.5 35.5 30.7 28 28 28 31.8 33.5 33.8 33.7 34.4 31.5 31.9 33.5 34.6 36.7 44.2 40.4 51.8 54.4 53.7 53.4 48.7 48.9 45.6 43.6 39.8 36.9 38.6 42.9 47.3 51 56.9 62.2 68.9 73.1 75 82.8 79.4 73.6 75.2 80.8 86.9 84.1 84.8 99.3 110.3 113.6 111.5 112.2 115.4 113.3 110.7 110.3 114 118.7 132.8 150.1 158.7 160.3 167.1 172.4 171.8 174 177.7 182.8 190.7 200.7 210.7 219 228 230.6 236.8 244.4 248.8 251.8 256.6 258.2 262.2 265.8 264.9 259.2 250.3 241.9 235.1 230.4 223.5 211.8 202.3 189.4 181.8 172.5 165.6 160 167.6 167.8 165.6 156.9 142.4 137.7 137.9 136.4 139 140.3 144.3 146.1 143.6 141.6 140.1 140.2 139.2 139.3 142.5 144.9 146.6 150.7 150.4 145.6 143.7 140.5 138.8 134.8 129.5 130.2 130.6 133.1 135.6 145.9 156 160.5 153.1 146 145.8 144.1 138.7 138.8 138.8 138.8 149.7 157.2 158.9 163.8 171.5 168.6 161.1 151.7 144.7 138.1 132.3 125.6 121.3
49.5 44.9 45.2 46.4 50 54.8 60.4 55.3 49.9 45.4 42.2 41.4 42.1 43 45.4 48.9 52.5 56.6 61.9 68.8 69.9 60.1 48.2 39.6 38.7 37.5 41.4 47.5 51.7 55.7 55.2 49.2 41.4 33 29.8 30.3 29.7 27.3 26.9 28 28 28 28.3 32.2 35.7 38.4 40 42.1 41 37.4 33.4 29 28 28 28 29.2 33.4 33.8 32.7 33.3 31.1 31.5 33.2 35.6 37.6 40.1 44.5 53.5 53.1 52.3 53.6 50.3 47 45.8 43.4 38.3 36.2 37.1 39.1 45.3 52.4 59 66.5 74 79.6 83.3 85.2 79.9 74.1 75.3 81 84.2 79.6 74.4 83.4 92.4 100.9 103.4 104.1 107 105 106 106.9 109.1 114 134.7 154.9 165.7 166.8 170.8 171.4 168.6 171.1 174.8 177 183.6 193.3 203.9 212.5 215.7 222.6 231.1 238.3 244.6 247.7 251.6 252.2 255.3 260.4 258.1 252.6 242.7 237.7 229.6 224 216.5 205.1 194.8 182.5 173.3 164.7 158.8 155 160.9 160.8 156.6 146 137.9 133.8 136.7 137.8 135.9 136.3 141.2 142.3 144.5 143 140.1 140.2 137.7 136.7 137.7 140.4 148 154.6 152.2 147 143.9 141.4 139.1 133.4 129.3 130.9 133 134.4 135 148.2 158.8 159.5 154.7 148.8 146.6 145.8 142.2 138.8 138.8 138.4 146.3 151.2 154 159.7 168.5 168 161.2 152.6 145.4 139.6 134.4 127.5 123.1
49.2 44.2 43.3 44.4 46.9 55.2 60.6 56.9 47.1 42.6 39.9 39.5 39.8 40.8 46 49 52.8 58 64.1 72.1 65.7 55.1 44.2 36.8 37.1 37.5 43 49.3 52.9 55.5 51.8 45.3 38.5 32.9 29.7 29.8 28.7 26.5 27.4 26.8 27.9 29.1 29.4 32.9 37.8 38.8 40.6 41.6 38.9 35.1 30.6 28.6 28.1 28.4 28.7 30 32.2 33 32.9 31.5 31 31.7 33.9 37.1 39.8 40.7 50.8 50.9 49.7 51 51.3 48.4 45.8 44.4 43.7 42.7 35.7 36.1 37.3 45.3 53 61 69.5 78.8 84.8 89.3 84.7 77.3 71.8 71.6 74.7 74.6 74 72.6 77.2 83.8 91 95.8 97.7 97.6 98.3 100.5 100.6 106.6 118.4 133.1 152.7 164.2 164.6 167.8 168.5 169.4 172.1 173.3 174.6 178.5 186 196.8 203.8 209.3 214.5 224.2 231.8 238.8 244.2 246.5 251.8 250.7 252.7 253.6 245.1 239.7 232.3 225.4 218.1 209.9 199.1 189.4 176.5 166.8 157.9 153 150.9 152.6 150.4 143.6 139.2 136 133.2 135.8 137.5 138.3 138.5 138.8 138.3 140.9 142.1 140.3 139.8 138.1 136.5 136.2 140.3 148.1 155.2 152 147.3 143.7 141.3 137.2 130.2 130.2 135.1 137.8 135.7 137.4 152.2 159 158.5 154.6 148.4 145.9 145.7 144.4 140.6 137.5 139.7 141 144.9 147.4 154 164.2 167.9 160.3 152.2 146 140.4 135.3 129.9 125.6
45 42.2 41.9 42.9 47.5 55 55.2 53.4 41.6 38.7 38.5 38.6 38.5 40.7 46.3 49.5 54.3 59.2 69.2 67.4 56.9 49.2 41.5 35.1 36.8 40 44.6 50.4 54 54.6 48.1 42.1 36.1 32.1 30.2 28.8 26.1 26.2 27.5 28.3 30.1 30.9 31.3 34.3 37.8 38.4 39.8 39.6 36.8 33 28.3 28.5 28.5 30.4 31.9 32 32.3 32.5 32.4 30.2 30.9 32.5 35.5 39.9 39 46.4 49.3 48.4 47.8 47.7 47.4 47.4 41 40.7 40.1 38.4 42.6 37.6 37.6 44.6 51.1 64.8 76.7 83.5 87.1 85.1 82.4 73.1 68.5 66 66.3 67.3 69.1 73.1 76.4 81.2 87 90.2 91.9 92.5 92.9 96.3 100.5 107.7 115.5 125.5 143.8 155.3 158.7 162 167.5 174.2 177.4 178 175.5 177 180.3 189.4 196.7 203.3 208.7 217.6 224.9 232.5 237.7 241.7 240.9 243.6 245.9 244.7 242.9 237.9 227.4 222.5 213.8 204.5 193.8 186.3 176.2 167 154.6 147.3 145.7 147 146.2 141.9 138.9 136 134.1 132.9 135.5 137.3 140.1 137.9 137.5 139 141.1 143.8 144.1 143.4 138.7 136.1 140.2 148.6 154 151 147 143.7 140.9 134 128.7 134.3 138.3 139.6 137.1 139.2 154.4 161.4 157.4 152.5 147.9 146.2 145.5 148.2 145.9 144 147.2 143.9 138.3 140.8 147.4 157.8 163.8 162.2 153.8 145.7 138.2 134.1 130.7 126.9
41.9 40.9 41.6 42.6 47.7 53.1 48.4 46.5 39 38.3 37.5 37.8 37.6 40.3 45.7 50 54.4 64.1 69.9 63.7 51.5 44.5 38 33.3 37.1 40.6 45.2 51.3 53 51.9 44.2 38.8 35 30.4 29.4 27.1 25.9 26.2 27.2 26.7 28.7 30.1 32.2 34.1 35.1 37.5 37.6 37.8 34.4 29 28.4 28.8 29.7 30.5 31.5 31.8 31.9 32.1 30.5 30.2 31.3 32.8 36.9 39.5 38.3 45.4 46.9 44.9 44.7 44 45.3 43.1 40.8 41.1 40.3 38.2 36.7 37.4 45.5 47.1 52.1 68.4 79.5 85.1 82.4 78.1 73.8 64.4 63.1 62 63.1 66.6 68.9 73.3 77.2 80.7 84.1 86.1 89.3 94.5 98.9 101.2 104 108.4 113.9 119.4 130.9 143.3 150.5 160.5 170.1 178.1 182.5 181.9 177.1 176.7 177.9 182.6 190.2 196 202.7 210.4 217.1 225.1 230.7 235 236.2 237.1 239 241.7 242.2 235.4 225.4 217.9 210 201 192.1 184.4 173.7 162 152.2 146.3 143.7 144.3 143.4 142.1 140.1 136.4 132.2 132.5 135.8 139.1 142 139.1 138.4 141.1 143.5 146.7 148.8 148.4 143 138.6 139.4 146.6 151.2 150.4 146.7 143.5 140 135.7 128.3 135.2 142.1 141.5 139.2 140.9 154.8 159.9 154.5 150.1 150.1 151.1 150.6 149.9 147.5 152.4 154.8 149.4 142.2 136.5 142.6 151.2 158.9 158.7 152 144.3 136.3 133.6 133 131.1
40.4 41.2 43.7 44.8 49.3 49 45 41.1 37.3 37.4 37 36.4 36.5 38.6 43.9 49.9 57.7 68.4 65.6 58.9 48.4 40.6 37.5 32.7 37.4 39.6 44.8 50.1 49.8 47.9 41.1 37.1 33.8 28.5 28.2 26.1 25.8 26 27.5 29.8 29.9 30.4 31.8 33 34.5 35.8 35.3 34.4 29.6 28 28.8 29.5 30.1 30.3 30.5 30.6 31.5 30.3 30.2 30.3 31.8 39.5 38.3 38.5 43.5 43.8 44.3 43.2 41.9 42.4 45.4 44.6 40 40.7 39.9 39 36.4 40.2 45.3 46.4 51.1 62.8 70 73.5 74.6 71.4 68.6 62.5 60.4 60.4 62.8 65.3 70.7 75.3 78 80.2 78.8 81.3 92.4 99.5 103.2 104.6 105.9 108.3 113 118.8 126.7 134 145 164.4 173.7 180 183.7 185.2 181.8 175.6 175.8 177.8 183.1 188.4 196.3 202.5 210.4 216.8 223.8 228.9 231 231.9 234.8 237.8 237.8 229.4 220.8 212.5 206.2 198.7 190.8 181.3 172.2 165.9 156.6 149.1 144.8 141 139.4 139.4 138.7 134.1 137.1 137 140 148.4 151.5 148.8 139.1 141 144.9 149.1 152.6 150.3 144.9 140.5 138.5 144.2 148.1 151.7 151 145.8 142.4 137.5 130.4 132 144.4 144.2 139.1 142.2 154.6 157.1 151.9 151.2 153.1 153.2 151.6 149.2 148 156.9 157.6 153.3 145.2 135.8 135.7 144.7 153.8 156.1 149.4 142.8 136.8 134.9 136.3 133
41.3 44.7 46.6 46.9 45.9 45.3 43 38 36.7 36.5 35.8 35.3 36 37 40.6 53.9 64.5 65.5 61.1 56 45.2 38.2 36 31.7 37.3 39.6 44.6 47.3 46.2 43.6 39.6 36.6 32.8 28.4 26.4 26 25.5 25.8 28.5 30.2 30.4 32.4 34.1 36.3 36.4 35.1 32 28.9 27.7 28.3 28.6 29.2 30 30.4 30.5 30.5 30.7 30.3 30.2 30.2 32 34.9 39.5 37.8 42.3 42.7 43.3 41.2 39.7 40.8 42.3 40.4 40.1 40.1 38 37.4 36.8 41.3 43.7 45.6 49.7 53.9 56.5 63.2 65.5 65.3 64.4 61.8 60.8 59.2 60.9 63.8 77.7 79.7 82.1 80 74.3 85.5 97.2 105.8 107.6 108.6 111.9 110.3 111 117.6 123.4 126.8 136.4 154.1 171.8 176.1 178.6 182.2 181.2 179.3 172.1 171.9 176.3 181.7 189.6 196.8 202 209.9 217.1 222.4 224.4 227 229.8 233.1 234.7 225.9 216.1 208.9 203 196.5 188.1 177.4 168.1 163.6 159.3 153.1 147.6 143.1 135.8 137.2 137.3 136.7 141.8 144.5 152.7 157.1 157 152.3 142.4 139.2 143.8 151.1 152.6 150.2 144.8 140.6 138.7 145.8 149.5 153.5 154.5 149.8 145 141 135.1 127.6 142.7 144.8 139.1 142.7 153.4 154 153.3 157.8 155.2 152.1 148.6 146.1 151.1 158.1 161.4 156.5 147.8 141 134.9 138.9 148.8 154.4 147.1 141.5 135 137.2 138.5 135
42.9 48.6 50.2 50.3 49.6 43.6 40.5 35.7 36.5 36 34.7 34.8 35.5 35.7 42.5 52.1 62.9 61.6 56.9 53.9 45.4 36 33.4 31.9 36.8 40 41.9 43.4 43.4 40.7 38.1 37.4 33.6 27 26.1 25.9 26 25.7 28.4 29.7 30.2 33.4 37.2 39.7 38.2 33.3 29 27.9 27.3 28.4 28.1 28.5 28.8 29 29.5 29.8 30.9 31 30.4 30.4 31.9 36.2 38.4 37.8 38.2 41.2 39.5 38.1 38.5 39.3 39.7 39.2 37.6 36.3 35.2 38.3 37.7 40.9 44 45.4 45.8 48 50.5 54.5 58.8 62.8 64.4 66.1 65.8 62 59 67.4 83.5 86.5 84.9 79 72.9 85.3 99.4 108 113.3 113.9 112.1 109.2 109.7 113.1 116.4 120.6 127.5 141.1 156.5 168.8 174.7 176.5 174.7 175.5 171.7 166 169.1 176.1 183.9 190 196.6 204.1 211.7 216.1 219 222.4 224 226.7 228.3 226.4 215.2 207.9 201.7 193.2 183.1 175.5 168.9 162.2 158.5 154.2 149.2 143.9 137.2 136.1 135.7 137.6 143.8 150 154.1 159.2 157.9 153.2 144.9 138.8 141.2 145.8 147.2 146.7 142.6 138.5 140.4 148 153.2 156.6 156.7 152 147.5 142.9 137.9 128.8 134.4 143.3 138.4 142.6 149.7 150.6 155.9 158.1 153.1 148 144.2 143.7 150.2 160.2 165.2 158.4 148.3 141.9 136.5 135.2 144.2 150 144.3 137.6 134.8 139.9 139.8 135.4
45.7 49.2 50.6 51.3 49.8 43.5 36.9 34.4 37 34.2 33.6 34.2 34.8 36.2 41.5 53.2 59.2 56.3 52.9 49.6 42.1 34.4 32 31.5 36.5 38.1 39.1 41.8 41.4 38.6 36.5 35.8 32.5 26.6 25.8 25.9 26 26.2 26.5 27.9 32.4 35.2 38.7 41.4 38.2 31.5 26.8 27.5 27.4 27.7 28 28.6 28.8 28.8 29.3 29.6 30.6 31.4 31.3 31 32.5 35.8 37.9 36.3 38 39.4 36.8 34.3 36 38.1 38.6 38.2 37.1 37.1 38.2 41.8 41.2 41.5 44.2 44.5 45.2 45.1 49.1 55.9 60.8 64.3 68.2 71 69.7 64.9 60.8 66.5 79.4 83 80.3 75.9 69.3 79.7 93.6 105 109.5 108.5 106.7 105.2 107.7 110.1 113.6 116.6 122.6 130.3 141.5 156.7 170.4 170.6 166 166.7 164.7 160.4 164.2 169.3 177 184.8 191.7 198.8 207 211.9 215.4 218.4 221 221.7 220.7 222.4 209.6 205.6 200.4 194 185.7 176.1 168.4 161.6 157.7 153.3 148.8 144.4 144.1 136.6 134.5 134.2 146 154.9 159 161.1 155.5 151.8 145.7 138.8 137.4 140.7 141.3 141.1 138.9 134 141.3 146.7 152.1 151.6 155.7 153.8 147.6 142.6 138.2 131.9 131.4 140.9 136.6 141.8 147.2 147.3 154.8 156.6 150.5 146.4 141.8 142.7 149.6 157.8 163.1 159 150.6 143.4 136.9 133.5 141.1 144.7 140.1 133.7 136.9 141.6 139.9 134.3
46.4 48.1 48.7 48.4 45.6 40.5 34.8 33.8 33.5 33 34.1 34.8 35.4 35.2 41.1 50.3 53.9 50.9 49.3 44.4 37.3 32.2 30.9 32.3 35.9 36.7 38.1 41.6 38.8 35.7 33.7 33.3 30.4 26.1 25.9 31 25.8 26.4 26.8 28.4 31.8 38.1 40.4 43.2 36.7 28.4 27.5 27.2 27.4 27.6 28.1 28.7 28.7 28.7 29.4 29.8 30.1 31.3 31.8 31.8 32.3 34.4 37.5 35.1 38.6 38.1 35.7 34.8 34.8 37.2 37.6 37.9 38.2 39 40.7 40.3 40.8 43.8 44.2 43 44.1 47 51.9 57.7 62.5 67 71.6 75.2 71 66.1 61.6 59.4 68.7 74.3 73.1 68.1 66.8 73.8 88 97 100.4 99.3 102.7 106.1 108.6 108.8 110.1 113.2 119.1 124.5 131.9 145.1 158.9 163.2 160.4 158.2 158.6 157.2 160.4 164.1 170.9 178.5 184.6 192.8 201.8 209.2 211.7 215.5 218.3 217.3 214.1 211.5 202.6 199.2 195 193.4 187.6 176.6 169.9 161.1 155.7 151.1 147.1 146.4 146.6 137.1 133.8 133.3 142.8 149.4 155.4 158.6 153.2 148.6 144 138.8 134.3 135.5 135.5 134.3 133.4 132 138.7 142.7 144.8 144.5 148.5 151.3 146.9 140.5 136.2 132.1 129.8 140.3 135.1 141.6 144 145.8 151.9 153.7 147.9 143.7 138.5 140.2 148.5 154.3 158.2 157.8 151.9 144.5 138.3 132 137.5 140.5 136.3 129.7 137.9 141.5 138.6 132.6
45.7 45.7 44.8 43.3 39.9 35.7 34.6 33.4 32.9 33.4 36.1 37 36 36 40.6 46.9 49.8 46.3 46.4 41 35.1 31.3 30.9 34.4 36 35 37.3 38.5 36.1 33.4 32.1 30.9 27.2 26.4 29 29.7 26 29.1 32.2 29.6 33.6 41.2 41.3 40.9 33.5 27.8 27 27.1 27.3 27.7 28.2 28.8 28.7 28.6 28.9 29.8 30.3 30.9 32.1 32.5 33 34.1 37.1 35.3 39.1 36.1 35.1 35.8 36 37.2 37.3 37.8 38.4 39 39.3 39.3 40.9 43.2 44.2 44.6 44.5 45.6 49.9 57 66 70.3 75.8 76.1 70.3 65.5 60.5 56.4 60 61.9 62.3 62.8 64.4 69.5 78.7 84.4 88 96.7 103.5 109.9 112.9 114.6 109.4 108.7 115.8 119.4 123.7 134.7 144.2 150.9 152.3 148.4 149.3 152.7 159.9 163.4 171.3 177.9 186.4 191.4 198.9 205 207.5 207.5 210.8 210.7 206.3 201.4 199.1 193 188.1 188.9 185.2 174.6 169.4 159.8 151 146 143.1 149.9 147.9 140.6 140 138.5 136 139.1 144.2 150.3 151.8 146 141.8 137.9 132.2 131.3 131.3 129.3 128.5 129.7 132.8 135.1 137.1 138.6 141.9 143.7 143.6 137.6 133.7 125.4 133.7 136.7 135.4 141.4 142.3 142.1 147.6 148.5 144.1 140.5 135.4 139.5 144.3 148.8 152.3 155.2 152.8 145.9 139.5 130.9 135 136.5 132 128.5 137.6 140.1 135.4 128.9
42.3 39.3 38.1 36.4 32.7 31.1 31.1 31 32 34.9 36.8 36.2 35.7 34.9 38.2 43.5 44.6 44.1 41.4 36.4 31.7 30.9 30.9 35.6 35.3 33.8 36.9 36.8 34.9 33.1 32.4 31.4 28.2 26.8 28.6 29 25.7 28.6 31 31 36.1 42.2 40 36.4 29.8 26.7 26.8 27 27.3 27.8 28.3 28.8 28.5 28.8 29.1 29.4 30.2 30.9 31.8 32.1 33.1 33.8 33.7 35.6 36.4 34.8 35.2 35.9 36.4 36.9 37.6 38.1 38.4 38.9 39.6 40.1 41.5 42.4 43.5 43.6 44.2 45.5 49.1 56.6 69 74.3 73.3 72.2 68.4 63.4 55.1 54.9 56.7 58.2 60 61.4 63.4 67.2 72.3 78 87.3 96.7 107.9 112.8 115.8 116.4 110.8 105.9 111.5 114.9 119.8 127 132.9 136.9 138.3 140.8 142.8 148.3 155.2 161.7 171.6 178.6 188.5 194.8 199.6 202.7 204 202.5 200.8 202.3 198.6 193.8 188.2 185.2 182.4 181.3 180.2 169.9 164.1 157.4 150.7 140.1 141 150.3 149.8 145.8 146.3 144 140.3 137.1 135.1 141.9 147.4 143.2 136.7 133.7 128.6 132.7 130.4 127.9 127.2 127 129 129 131 133.3 135.8 136.2 136.8 132.1 125.7 128.2 137.2 132.7 137.3 143.2 143.1 138.6 143 144.6 140 136.7 133.1 137 139.4 143.1 146.9 150.6 152.1 149.2 140.6 130.2 132.7 133.2 128.6 128.3 135.9 139.1 131.2 126
35.1 32.8 30.1 36.1 28.9 29.7 31.1 31.7 32.1 34.2 35.1 34.6 34.1 32.6 36.7 40.4 40 40.4 37 31.5 30.5 31.1 31.2 37 35.8 35.1 35.7 35.5 34.3 33.2 33.7 35.7 33.9 29.6 27.9 27.5 25.8 27.9 28.8 30.9 35.5 37.3 35.3 32 26.8 26.5 26.7 26.9 27.2 27.8 28.3 28.7 29 28.8 29.1 30.1 29.7 30.8 31.4 32 32.7 35.3 34.4 34.5 35 35 35.5 36.3 36.8 37.3 37.9 38.1 38.4 38.8 39.4 40 40.6 43.2 42.3 44 46.8 48 51.4 54.6 63 65.6 65.2 64 60.5 56.6 53.1 54 55.4 59.4 63.4 63.7 64.2 66.6 72.4 78.6 88.3 101.9 110 115.1 118.4 115.9 108.8 102.7 106 111.8 117.5 123.9 127.9 130.1 132.8 136.9 139.5 143.6 150.3 159 168.2 175.1 184.4 191 195.9 199.5 200.1 197.7 193 194.2 193.9 187.8 183.7 178.5 176 174.2 172.3 165.1 158.1 152.3 147.3 137.4 141.8 149 150.8 152.5 152.2 147.3 144 140.4 135.7 134.4 141.1 137.2 132.1 128.8 127.9 133.3 135.9 134.9 131.5 127.3 124.7 125.8 127.3 129.3 130.7 131.8 130.3 123 125.1 134.1 131.4 129.4 137.2 143.4 142.5 135.4 137.9 139.5 136.4 133.2 130.5 133 133.8 137.3 142 146.1 149.5 148.1 140.6 131.8 128.1 129.9 124.7 128.9 134.2 136 131.4 123
29.9 28.6 29 29.1 29.4 30.4 32.2 33.6 34.4 34.1 33.4 32.6 31.6 32.6 35.2 37.2 37.6 36.1 33.1 30.9 30.7 31 33.6 36.3 35.4 34.9 37 35.4 34.1 34.3 36.5 39.3 39.8 36.4 29.1 25.6 25.5 28.5 28.7 31 34.1 32.8 31.4 27.8 26.2 26.4 26.6 26.8 27.2 27.7 28.2 28.7 28.9 29 29.4 29.8 30.3 31 31.6 32 32.5 36 33.2 33.9 34.7 35.5 35.9 35.4 36.2 36.6 37.6 38.3 38.5 38.8 39.3 39.9 40.6 43.7 42.6 46.1 48.6 48 51.6 52.1 54.8 54.7 54.3 50 51.4 52.6 51.8 52.8 57.2 61.7 64 65.5 65.8 67.1 73.3 80.6 88.3 103.6 109.6 113.4 113.3 111 103.2 96.6 99.5 105.5 112.4 116.2 123.5 126.5 130.2 133.1 135.9 140.4 150.1 158.5 165.9 173.9 181.3 189.1 194.2 195.4 195.9 192.9 189.5 186.8 188 182.2 177.3 173.6 171.5 168.9 165.1 158.9 150.7 147.2 142.7 135.7 139.1 145.1 148.6 155.6 157.7 151.3 145.9 142.5 137.9 133.5 136 132.2 128.8 127.1 131.8 138.3 143.1 140.8 136 131.2 125.1 123.1 124.5 125.7 126.5 127.8 124.9 123 125.8 128.7 123.7 125.3 135.4 140.5 137.8 132.2 133.8 134.8 132.5 129.7 129.1 129.1 128.6 132.5 137.5 142.7 147.2 146 139.4 132.3 130.1 125.4 123.8 127.9 132.5 132.7 127.6 121.1
28.4 29.1 29.4 29.3 29.6 30.5 32.3 33.2 33.5 32.4 31.1 30.1 30.2 30 33.8 34.3 33.8 32.3 30.5 30.9 30.9 34 34.8 36 35.3 34.5 33.9 33.6 33.8 35 37.8 42.2 41.5 38.2 32.1 25.5 24.8 28.4 28 30.9 32 30.1 27.8 27.1 26.5 26.3 26.6 26.8 27.2 27.7 28.1 28.4 28.8 28.9 29.1 29.6 30.4 31.2 31.9 32.3 32.6 36.3 33.3 34.1 34.7 35.4 35.6 36.3 36.5 37.3 38.1 38.4 38.5 39.1 39.6 40.2 40.8 43.5 42.7 43.6 43.9 44.5 45.2 46.7 47.3 47.7 48.6 49 49.8 51 50.8 51.2 51.6 52.4 54.6 56 55.9 60.7 69.1 77.5 94.7 101.6 103.7 104.6 103.2 99.3 91.9 90.9 91 96.8 104.8 113.8 120.7 124.5 127.2 130.4 133.4 137 149.1 157.8 164.3 169.4 179.6 187.2 189.3 190.7 190.6 189.2 183.7 179.8 179.5 173.9 170.4 168.2 164.2 162.9 158.7 152.6 147.2 142.8 138.5 133.9 137.2 141.1 148.1 154.6 160.4 155.2 148.6 143.2 138.3 133.5 129.1 128.7 127.1 130 137.2 143.4 149.9 144.8 138.8 134.3 127.5 124.4 120.6 122.3 123.3 121.2 121.9 126.7 128.2 126.3 122.6 123.1 130.7 135.6 133.5 126.4 129.2 130 128.7 127.3 128.1 126 125.4 127.2 133.3 139.8 145.6 143 137 132.3 129.6 123.9 122.7 127.1 130.2 129.1 124.1 121.6
28.4 29.2 30.7 30.3 29.2 29 31.3 31.6 31.2 31.4 30 26.9 26.4 29.7 32.9 32 31.7 29.9 30.4 30.7 34.6 37.5 36.2 36.3 35.8 34.8 35 34.4 35.1 36.4 38.5 44 42.4 37.8 32.4 25.9 25 26 27.2 31.1 31.5 28.4 25.9 26.2 26.2 26.2 26.4 26.7 27.1 27.5 27.8 28.2 31.5 29.6 29.5 30.3 30.5 31.3 32 32.5 32.8 36.2 33.6 34.2 34.8 35.5 35.8 36.3 36.9 37.4 37.7 38.3 38.8 39.5 40.2 40.8 39.9 40.1 40.7 42.6 44.2 44.9 45.2 45.4 46.5 47.4 48 48.3 48.9 49.5 49.7 50.6 51.2 51.8 53.2 54.2 54.8 55.4 56.5 62.1 77.9 85.3 90.4 91 87.6 79.6 87.9 95.9 100.5 104.1 107.9 114.2 117.8 121.3 123.4 127.9 127.5 133.9 148.1 153.1 158.6 163.5 171.2 180.3 183.8 185.7 187.1 182.8 177.2 175.4 173.4 172.3 166.6 163.5 160.4 157.7 153.1 146.9 142.6 138.5 134.4 131.6 136.3 138.5 146.7 153 161.9 156 149.6 143.6 137.6 131.7 129.2 127.9 126.9 131.9 137.2 143 147.8 146.8 140.5 135.7 130.2 126.7 119.4 119.2 119.4 120.5 122.9 131 132.8 129.4 124.4 122.1 125.9 129.9 124.6 122 122.6 124.2 125.6 125.8 126.8 124.2 124 125.1 130.9 137.2 141.9 138.9 135 132.7 129.3 121.8 121 126 127.4 125.7 121.8 122.6
29.3 31.4 34.1 33.7 28.4 28.2 28.3 28.6 29.4 29.6 29.4 24.9 23 25.9 29.1 30.5 32.3 30.9 30.9 34.5 39.9 42 38.4 37.7 36.8 34.6 34.7 34.5 34.8 38.4 38.8 42.9 41.3 36.2 30.8 25.1 25.1 24.5 27 30.3 28.4 26.6 25.9 26.1 26.7 26.5 26.6 26.9 26.9 27.2 28.2 29.1 29.8 28.6 29.1 30.1 30.6 31.3 32 32.5 33 35.5 34.1 34.2 34.6 35.4 35.6 36.1 37 37.4 37.8 38.2 38.9 39.6 40.5 40.7 40.7 41.5 42.5 42.7 43.8 44.8 45.6 46.1 46.6 47 47.4 47.8 48.3 49.4 51.1 54.2 54.4 52.3 53 53.9 54.8 55.6 56.7 58.4 62.9 73.3 77.2 76.1 75.6 85.8 93.9 100.5 105.6 108.9 111.8 116.4 118.8 121.1 121.6 123 125 132.4 143.1 148.9 150.7 161.1 170.1 176.6 177.3 176.9 179.5 176 170.8 170.6 172 171.8 165.5 161.2 156.1 151.7 148.5 142.9 135.4 131.1 127.5 130.4 133.6 135.6 145.2 153.8 160 153.5 148.7 142.2 137.3 132 129.2 126.7 126.7 132.4 136.3 139.9 143.8 146.6 140.7 135.8 132 127.7 118.5 118.2 118.8 124.2 130.8 134.8 136.6 131.4 126.8 121.6 123.1 124.5 124.5 126.7 126.1 124 124 125.1 125.2 124.1 124.1 124.4 127.9 134.5 138.8 137.6 134.7 134.2 129.6 122 119.4 124.3 124.4 122.5 120.8 125.5
31.2 35.8 40.2 38 32.1 32.4 28.6 27 28 30.7 30.4 25.2 21.6 23.2 25.9 30.5 33 30.6 31.2 40.6 48 46 38.6 37.2 36.5 34.7 34 34.4 35.5 38.2 38.5 39.6 38.8 35.8 31.4 24.9 25.1 25.3 27 28.5 25.4 26 25.8 25.9 30 29.1 26.6 28 30.2 31.5 29 28.3 28.6 28.8 29.1 29.7 30.9 32.1 31.9 32.5 33 34.5 34.4 34.2 35 34.8 35.5 36 36.7 37.4 37.9 38.5 39.1 39.7 40.5 41 43.6 41.3 42.6 43.8 44.2 44.5 45.2 45.9 46.3 46.8 47.7 48.8 50.7 52.8 57.4 60.7 61.9 62.1 58.4 53.6 55.4 55.7 56.3 58.3 61.1 63.8 68.5 76.4 84.7 90.2 97.9 103.5 107.4 111.1 114.9 118.3 121.6 123.1 124.6 124.3 125.9 132.9 138.7 144.6 150.7 164.6 178 178.9 175.4 170 171.3 168.5 166.4 166.6 167.8 169.9 164.1 158.9 152.4 147.3 143.3 140.1 134.6 129.1 125.2 128.4 130.8 137.2 147.6 153.5 157 152.4 145.8 142 138 133.3 129.3 126.4 128.9 134 136.8 140 142.5 143.1 140 135.6 132.3 127.1 118.8 117.5 118.2 125.5 140 142.7 136.8 130.8 126.1 120.9 121.9 125.1 129.7 132.1 132.1 129.9 124.8 124.2 124.3 125.2 127.3 126.6 128.2 132.4 135.8 137.1 137.9 136.4 130 123 117.5 121.3 121.1 118.9 120.2 128.2
34.6 39.7 45.8 40.6 35.8 36.1 31.3 31.7 33.1 35.6 30.9 26.5 24.7 24.3 25 31.6 33.7 32.4 37.5 46.3 52.6 47.2 37.8 36.1 35.5 34.8 33.5 34.2 34.2 33.5 35.8 36.6 36.8 35.8 32.1 25.1 24.9 25.1 27.4 24.9 25.9 25.9 25.9 26.9 29.3 26.9 26.4 28.7 35.1 33.4 29.6 28 28.6 28.4 29.4 29.1 29.8 30.6 32 32.3 32.7 33.6 34.5 33.9 36.7 37.4 35.5 36.1 36.9 37.7 37.2 37.8 38.7 39.8 40.4 40.6 43.6 41.4 42.1 43.2 43.7 43.9 44.6 45.6 46.3 47.2 48.9 50.4 52.3 58.9 62.1 63.5 65.1 65.8 66.8 66.8 54.8 55.6 56.4 56.7 59.3 65.5 74.6 81.5 90.7 92.6 99.5 105 109.1 112.8 116 119.8 123.2 126.5 129.1 129.1 130.1 132.5 136.3 141.2 152.5 166.3 178.7 174.1 170.8 169.3 164.6 159.6 160.8 162 163.3 168.6 165.4 157.6 149.5 145.9 141.6 135.6 134.8 130.9 123.8 124.3 125.2 132.9 143.5 149.8 151.7 148.9 142.7 139.6 137 132.9 126.5 128.7 133.3 136.7 142 144.3 147.1 145.4 140.2 135.5 132 125.9 121.9 116.5 118.2 130.8 141.5 143.7 134.7 128.5 124.2 118.8 118.4 123.4 131.3 135.3 135.4 132.1 126.9 124.5 125.3 128.2 130.9 130.4 129.2 132.4 135.9 139.7 141.5 136.6 130.9 125.9 120.3 115 118 116.1 120.8 128
36.2 43.7 49 39.4 39.5 39.5 37.1 34.6 36 39 32.1 28.4 27.6 25.6 26.8 34 35.5 36.1 42 50.2 53.6 46.3 36.7 34.8 34.2 34.5 33.2 34.1 32.6 31.3 33 33.1 33.8 34.8 31.3 24.7 25.3 25.8 25.6 25.7 25.9 25.7 25.6 25.6 25.9 26.3 28.2 32.7 41.7 34.6 28.1 27.9 28.4 28.8 30.1 29.8 30.2 30.7 31.1 31.9 32.3 32.7 35.7 37.8 40.5 37.4 36.1 37 37.8 38.6 39.4 38.6 38.6 39.7 39.7 39.9 40.6 41.4 42.2 42.7 43.3 44.2 45.6 47.6 49.5 50.1 54.3 59.2 59.1 62.4 64.6 65.8 67.3 68.7 70 71.3 72.8 69 61.9 57.8 57.5 65.7 76.5 83.9 88.4 91.4 98.7 107.3 111.5 114.8 118.2 122 124.9 128.2 133.1 133.5 130.5 130.9 134.3 139 151.8 167.5 172.2 168.9 167 164.4 159.1 156.1 153.1 157.2 159.2 163.7 163.5 152.1 144.4 142.1 139.4 136.8 130.8 129.2 124 119.7 124.2 129.8 136.2 143.9 145.7 143.4 140.3 137.4 135.1 131.5 128.9 135.1 140.1 143.7 148 149.1 149.1 146.6 140 135.6 132 127.6 122.7 116.3 116.6 132.6 140.4 137.8 131 122.7 119.8 114.5 115.5 122.6 130.8 135.8 136.4 132.6 127.1 125.4 127.2 131.2 133.4 132.8 129.6 131.7 135.6 141.2 144.3 140.4 133.5 126 120 112.2 113.3 114 120.8 126.5
39.3 48.9 45.2 42.7 43.9 45.7 48.2 41.6 39.5 38.3 32.1 28.5 28.8 27.6 29.1 35.8 36.9 38.9 46.2 53.5 53.7 44.7 35.5 34 33.6 34.3 32.9 31.9 30.8 30 28.9 30.3 32.5 33.1 29 24.8 25.1 25.7 25.1 25.6 25.7 25.6 25.6 25.9 27.7 28.8 31.7 39.9 45.5 33.4 28.9 28.9 28.7 31.1 30.6 30.2 29.9 30.7 30.7 31.7 32 32.3 37.2 43.1 41.2 36.4 36.7 37.2 38.3 38.6 40.5 40.2 38.6 39.7 40 41.7 41.5 41.9 42.1 42.6 44.2 47.6 48.8 53.6 56.9 57.8 62.7 65 65.2 66.4 67.8 69.4 70.6 72 73.8 75.6 79.6 77.3 72.7 59.8 58.1 61.7 78.3 85.7 89.2 92.7 99.8 107.7 112.7 116.6 120.9 124.3 127.1 132.4 137.8 137.5 133.9 128.7 131 137.7 146.1 154.8 162.3 162.4 162.3 160.7 157.1 152.3 149.3 151.3 155.3 157.6 155.6 147.9 142.6 135.9 133.2 132 127.7 124.5 120.7 117.8 121.6 126.3 130.5 135.6 137.9 137 135.6 134.6 132.4 125.8 131.9 138.8 143.8 148.8 150.6 150.8 149.9 146.1 140.2 136.1 131.3 127.7 123.6 115.2 115.5 130.8 137.1 134.8 129.5 124.2 115.6 113.4 113.8 120.2 128.1 135.5 136.5 131.7 127.2 127.7 129.9 133.6 135.2 134 130.6 131 134.4 142.5 149 144.7 136.4 125.3 119.5 111.3 110.2 112.3 119.6 123.5
40 47.4 44 50 49.8 51.1 51 45.9 42.1 38.4 32.5 29.4 29.3 29.4 32.2 34.5 35.5 40.4 49 52.9 47.9 38.5 33.7 33.1 32.8 33 32.9 31.3 29.9 28.9 26.9 27.2 28.8 30.2 27 24.7 25.2 25.1 25.1 25.4 25.4 25.2 25.1 26.6 28.7 31.1 36.1 41.4 43 34.4 30.3 30.7 30.9 30.6 29.5 30.1 30.1 30.5 31 31.1 31.3 31.9 37.2 41.5 37.8 35.7 36.4 37.2 41.4 40.6 40.2 39.2 38.6 40.5 41.1 43.6 47.3 45.3 45.9 46.2 47.1 48.2 51.6 55.9 60.1 63.1 65.3 68.2 69.4 70 71.7 72.9 74.8 77.4 79.2 80.3 82.8 81.4 77.9 68.9 59.7 58.8 71.9 86.2 89.8 93.4 98.9 105 111.2 115.1 119.9 125.2 134.7 138.8 140.4 137.8 133.8 128.7 130.9 137 139.1 148.1 151 155.8 158.3 157.1 153.4 150.3 146.7 147.6 153.9 153.9 147.6 144.1 139.3 132.2 130 127.8 125.5 121.7 119.3 117 115.7 124 127.2 130 131.9 131.7 131.2 129.8 128.9 123.7 134.8 142.7 146.7 145.2 145.8 146.5 147 145.3 140.4 135 130.6 126.9 123.2 115.8 114 126.7 131.9 133.3 129.2 123.2 115.6 113.3 113.4 120.1 125.5 132.3 133.9 129.7 126.4 128.7 131.7 134.9 136 134.1 130.7 130.2 134 142.2 148.3 141.8 134.2 125.6 120.3 114.8 110.6 111 117.6 119.6
45.1 47.6 50.1 53.4 54.9 57.4 51.7 47.4 42.7 37.3 32.4 31 30.3 30.5 32.2 34.5 35.2 41 44.6 51.7 47.8 38.7 33.5 32.6 31.9 31.9 31.2 28.5 27.4 26.3 24.7 26.3 27.7 27.5 26 26.1 24.8 25.2 25 25 24.8 24.6 26.4 30 31.6 34.3 36.9 40.6 39.9 31.9 30.6 31.1 31.6 31.4 29.2 28.9 29.6 29.8 31 30.5 30.8 31.7 37.1 38.1 35.8 35 35.5 39.6 42.2 39.6 38.9 38.1 38.4 39.1 41.1 47.3 48.4 48.3 47.9 48 49.1 50.2 55 60 64.3 66.8 69.3 71.7 74.2 75.6 75.5 77 79.3 82 84.6 86.1 87 86.3 81.7 73.8 62.1 59.3 64.6 80.2 89.3 91.4 95.9 102.4 108.8 112.9 118.1 126.4 131.8 135.3 135.8 136.9 134.5 128 128.1 132.2 135.5 140.8 146.6 155.7 160.6 157.1 153.5 149.4 146.1 146.4 150.6 148.7 145.3 141.4 135.8 130.8 128.9 125.8 125.3 126.8 121.3 115.5 114.2 119 122.7 124.6 126.5 127.3 127 125.3 123.1 125.2 133.5 139 143.2 138.4 139.3 139.7 140.8 142.1 139.7 134.7 129.8 125.8 122.1 118.5 114.4 120.7 126.6 130.1 128 122.1 117.3 112.6 113.1 118.2 123.5 129.4 130.3 126.8 126.6 129.1 132.7 136.5 138.1 136.8 131.3 130.3 134 141.3 147.2 138.5 130.9 124.9 120.3 114.6 109.8 109.2 114.4 115.3
46.5 49.6 54.8 57.4 60 59.1 53.3 47.2 42.4 35.8 32.3 30.8 30 30.4 33.4 35.1 33.5 38.4 42.3 50.3 46.1 35.7 33 32.4 31.4 31.3 28.4 26.9 25.7 24.3 24.1 25.5 27.6 26.7 25.7 26 24.9 24.9 24.5 24.7 24.7 24.5 28.4 31.2 32.3 33.5 37.9 38.7 35.3 29.6 29.8 31 31.8 32 29.6 28.8 29.1 29.4 29.9 30.4 30.5 32.2 37.2 36 34.5 34.5 36 39.9 41.1 41 38.8 38.3 39.2 40.1 43.6 47.8 48 48.5 51.1 53.5 55.2 56.9 60.8 64.9 69.2 74.6 76.3 78.2 79.4 79.6 80.1 81.1 84.9 86.8 89.5 92.1 92.7 90 85.3 74.3 60.3 59.9 64.6 76.2 86.4 90.8 92.6 95.9 101.9 107.2 113.8 119.4 124.6 128.9 130.5 133.6 133.8 128.1 127.6 130.9 133.7 138.4 147.3 153 157.6 157.9 154.6 151.2 147.7 144.8 147.7 145.2 141.4 137.2 131.6 128.7 126.9 127.8 132.1 129.9 122.2 114.3 112.6 113.6 117.8 121 122.6 122.7 122.5 121.5 119.9 122.5 128.7 132 132.3 131.9 134.2 135.4 136.9 138.1 136.4 132.5 128.5 124.4 121.3 118.4 112.9 113.4 118.1 126 126.9 122.3 117.3 113 112.3 113.9 119.9 125.9 125.8 124.3 126.9 129.7 133.4 138.5 141.6 142.1 135.1 132 133.7 140.4 145.1 141.3 130.4 124.3 118.2 112.8 108.4 107.4 110.5 110
45.7 51.5 56.5 60.5 63.8 57.2 51.7 46.2 42.8 38.5 31.2 30 28.6 31.2 33.8 34.5 32.2 35.3 41.5 43.3 39.1 32.8 29.5 29.6 29.7 30.1 26.7 28.3 25 24.5 24.3 25.5 27 25.3 24.9 24.9 24.7 24.5 24.4 24.4 24.4 26.6 29.2 30.6 30.9 33.8 35.9 36.1 31.3 27.1 27.5 30.9 31.3 30.5 28.8 28.7 29.1 29.6 29.6 30.1 31.8 32.7 37 35.1 34.3 35.6 37.1 40.4 43.8 43.2 38.5 40 39.9 43.5 45.7 47.8 49.3 52.2 54 55.9 58.7 62.7 66.9 70.9 76.9 83 83.6 85.8 84.8 84.9 84.9 88 91.7 92.5 95.8 97.7 98 94.1 87.9 73.4 60.7 60.9 72.7 78.5 86.1 92.3 93.6 94.3 96.1 102.4 108.7 113.6 118 122.4 126.3 129.2 131.8 130.5 127.6 129.2 130 134.4 141.7 148.3 152.6 156.7 155.5 151.5 146.8 142.2 143.6 141.8 138.4 134.4 130.5 128.2 127.2 130.5 131.9 126.5 121.4 113.7 111.4 111.2 112 116.5 118 117.7 118.1 120.3 119.7 120.5 121.8 119.2 124.8 127.8 129.5 130.5 132.7 133.4 132.2 130.3 127.7 126 125.1 121.1 113.2 111.6 111.9 120.6 125.5 122.1 117.6 113.7 111.9 112 114.5 121.2 121.7 123.3 126 129.5 134.7 140.8 145.5 144.7 137 131.5 133 137.3 141.3 140.8 133.3 122.4 113.7 109.7 105.8 104.5 105.8 105.3
45.5 51.1 57.2 62.5 62.3 54.6 49.7 45.2 42.1 37.6 30.3 29.7 29.3 31.5 34.4 34.3 31.9 35 38.9 37.2 32.7 28.7 26.1 26 27.2 27.5 24.9 31.2 26.4 25.4 24.1 24.7 26.3 25.2 24.2 24 24.6 24.6 24.5 24.5 25 26.6 29.7 29.3 30 32.3 33.5 32 27.8 26.8 27 29 29.8 29.4 28.7 28.7 28.9 29.1 29.8 31 33 35.5 37.2 34.5 35.2 38.9 39.6 42.8 46.3 45.2 40.1 40.6 43.5 46.4 48.1 50.4 53.7 54.4 56.4 60.3 64.8 68.2 72.7 81.6 88.9 92.3 93.8 92.8 91.4 91.1 91.4 94.3 93.6 93.9 93.1 93.9 94.6 94.7 87.2 71 61.4 66.2 75.2 79.3 83.8 90 97 98.3 95.6 101 107.1 111.6 115.3 120 123.8 126.6 130.2 134.3 131.2 126.3 128.2 132.1 137 144.7 149.8 153.5 153.2 151.1 146.6 143.1 139.1 138.2 136.1 133.7 131.5 128.9 127.6 132.9 129.6 123.7 118.9 113 109.7 109.2 109.8 114.5 117.4 119.5 122.3 122.5 119.7 116.3 117.7 116.6 120.8 122.9 125.2 125.7 126.9 126 127.3 125.9 126 128.1 127.5 123.5 115.4 110.8 110.8 114.8 124.5 121.2 117.5 114 111.7 111.5 112.7 116.6 119 123.1 125.3 129.7 136 142.2 146.1 141.4 135.9 131.2 130 133.7 137.2 136.7 126.8 119.7 110 105.8 103.2 101.5 100.6 99.9
43.8 52.1 59.3 66 62.7 53.8 48.1 44.2 40.8 35.5 29.5 28 30 32.7 35.6 33.5 32 34.1 35.3 33.2 28.2 25.6 25.7 25.1 25.1 25.3 24.5 31 26.7 25.5 24.6 24.2 25.5 25.4 23.9 24.3 24.4 24 24.3 24.3 25.6 26.9 26.7 28 29.4 30.5 31.2 29.3 26.8 27.2 27.3 27.6 28.9 29.8 28.7 28.7 28.9 31.4 31.3 31.4 37.7 38.1 37.5 34.2 33.9 37.9 40.9 45.5 46.5 47.2 43.5 46.2 45.7 48.2 49.6 54.2 55.9 57.6 60.7 65.8 70.4 76.3 85.9 96.7 104.3 106.3 101.9 99.1 96.9 96.2 96.1 94.5 91.8 89.3 89.3 90 90.3 90.2 83.6 67 62 67.3 75.1 78.4 83.7 89.7 97.1 103.8 99.2 97.7 104.9 107.7 113 117.2 121.3 129.3 132.8 137.4 133.2 126.7 126.2 128.5 132.9 141.4 149.6 148 147.7 148.2 144.9 142.6 137.7 136.8 136.1 135 133.2 129.9 128.4 131.2 126.3 119.2 114.7 109.7 108.8 108 112.6 115.7 119.6 125.4 129.4 128.8 125.2 121.2 115.6 114.4 118 120.4 121.6 121.7 121.9 121.9 122.1 122.1 125 129.4 129.7 125.1 119 111.5 109.8 111.8 122.7 120.4 116 113.3 110.9 111.6 112.4 114.4 118.6 121.9 125.5 131.1 136.5 141 141.6 136.6 133.2 128.9 126.4 129.8 132.3 132.8 124.1 117.6 109.4 102.8 101.9 99.7 96.7 94.8
46.6 53.1 61 68.1 63.4 52.3 45.9 41.6 39.1 34.3 29 27.5 29.3 34.9 36.8 34.1 32.4 33.4 33.4 30.6 26.4 25.8 25.6 25.4 24.9 25.2 25.8 24.5 25.7 25.5 26.3 25.2 24.7 24 23.9 24.4 24.5 24.5 24.2 24.5 28 29.5 28.1 26.7 27.3 29 29 26.8 27.2 27.5 27.5 27.5 28.7 28.8 29 29.8 29.4 29.8 30.6 34.1 37.1 38.5 36.7 32.9 35.7 39.7 41.1 43.8 43.5 45.4 47.6 47.4 47.8 49.2 52.7 56.6 59.4 62.1 66.5 72.5 80.6 90.6 102 112.8 119.1 121 114.8 109 103.8 101.4 98.2 93.1 89.1 85.6 84.8 85.6 86.1 86.1 82.9 66.3 63.2 64 72.2 77.6 83.4 90.3 96.6 100.8 98.8 96.9 100.6 105.1 109.3 113 115.8 130.2 136.2 136.9 133.9 124.2 123 124.6 127.8 136.2 143.5 140.9 141.4 142.5 142.4 140.3 137.5 138.2 139.5 138.2 134.7 131.6 127.3 125.5 121.2 112.7 108.1 108 108 108.8 112.7 116.7 123.8 128.6 132.7 132.5 128 123.3 118.4 113.4 114.4 117.8 117.8 118.8 119.1 118 118.3 119.6 122.5 126.2 129.4 124.5 119.4 113 109.6 114 120.4 118.1 113.9 111.6 111.5 111.7 112.3 113.6 117.4 121.3 126.8 132.4 136.6 139 137.6 132.1 129.6 125.1 122.4 125.8 128.7 129 121.2 115.1 107.1 101.1 99.1 97.2 93.6 90.1
47.9 55.5 61.8 64.9 60.9 50.7 43.4 38.5 35.6 30.8 27.8 27.5 29.1 33.6 35.6 32.3 31.3 31.8 31.6 27.2 26.1 25.5 25.7 25.3 25.3 26.6 26.5 26.2 23.8 24.9 26 25.1 23.2 24.4 24.8 23.8 24 24.1 24.2 25 31.3 32.8 29.3 28.3 29.8 28.4 27.2 27.1 26.8 27.1 27.3 27.7 27.9 27.9 28.2 28.1 28.5 28.8 31.3 34.9 37.1 38.8 36.1 33 38 43.4 44.9 45.3 45.8 46.1 47.8 48.2 47.4 50.4 54.7 59 63.4 68.1 73.8 83.3 93.3 105.9 117.8 126.9 134.4 135.5 133 124.1 115.3 106.3 100.3 94.5 89.4 85.3 82.4 81.6 81.7 80.8 78.1 71.4 64 63.3 63.8 71.2 80.3 86.4 90.9 94.2 93.7 92.5 99.8 104.6 105.9 109.2 113.6 123.1 127.8 128.5 125.7 120.3 119.7 120.6 122.7 130.1 135.4 135.6 135.5 136.5 135.7 135.9 136.6 141.7 143.5 140.6 136.5 131.7 126.6 119.1 115.5 109.2 107 107.1 107.5 107.8 111.1 119.3 129.2 133.6 138.1 136 130.4 123.4 119.7 114.7 112.1 112.2 114.4 115.6 115.5 114.8 114.4 116.2 119.1 122.3 128.5 126 116.7 112.1 108.8 115 116.4 115.9 113.5 110.5 113.3 113.5 114.1 114.7 120.3 123.6 129.3 135 136 135.3 132.2 128.3 125.7 122.1 118.6 121.8 125.3 125.7 118.8 113.5 105.5 98.7 96.4 93.3 88.9 86
48.2 54.5 58.5 60.4 56.4 49 39.9 32.6 29.2 27.1 26.3 26.1 27.7 32.2 32.3 30.9 29.2 29.3 27.9 26.3 25.9 25.9 25.4 25.6 25.7 27.7 27 23.8 23.4 24.2 23.8 23.7 25.2 25.3 24.7 23.9 24.1 23.9 24.1 27.8 35.2 34.3 29.2 29 30.9 31.4 28.1 27.8 26.8 27 28.3 27.6 28.7 29.6 27.9 27.7 28.2 29.5 31.7 35.2 38.5 39.3 35 33.4 39.6 44.3 45.3 46.4 46.3 47 47.1 47.6 47.6 53.7 58.7 63.7 69.3 76.4 86.8 97.9 109.5 120.7 130.6 141.3 146.6 149.1 146.7 139.7 131.6 121.2 108.4 99 92.1 85.9 82.8 81 79.6 77.3 74.9 74.2 69.4 64.2 64.6 64.6 72 80.2 85.2 88.6 89.7 88 93.6 98.8 102.5 105.9 108.8 115.5 119.1 119.1 117 112.7 115.5 116.5 118 123.9 128.2 129.8 130.4 130.5 129.5 129.7 135.7 142.3 143.1 139.8 136.5 132.3 124.7 117 111.9 108.7 107.2 106.6 107.6 110.6 115.5 125.2 135.3 140.5 143.6 141.3 133.6 127 124.9 120.3 116.4 112 109.9 109.2 108.3 107.3 109.3 113 115.7 119.2 123.6 116.6 113 108.5 109.3 113.8 114.4 112.3 113.1 114.4 114.9 116 116.8 117.1 121.6 125.5 130.6 135.9 133.4 131.4 126.9 124.2 122.2 118.2 114.6 118.6 122.5 123 116.3 111.1 106 99.7 96.4 92.6 88.6 85.4
46.4 51.4 53.9 55.2 50.6 44.2 36.4 28.2 26.7 25.8 26 27.1 28.8 31.1 32 30.1 28.1 29.8 29.8 27 26.1 25.9 25.6 25.4 26.6 28.7 27.7 24.2 26.1 23.2 24.2 24.7 25.5 25 24 23.6 23.8 23.8 24.4 32.3 38.2 34.2 29.2 28.5 30 29.7 29.1 28.7 27.5 27.7 28.1 28.6 29 28.6 28.5 29.1 28.9 30.9 32.3 36.9 45 39.9 35.4 36.7 42 44 45.3 45.7 46.3 45.6 46.3 47.2 52.7 59.3 65.1 70.9 77.3 88.3 101.3 113.6 125.1 136.8 148.4 156.5 161.1 161.4 157.9 151.2 142.8 134.6 123.9 109.7 99.6 90.4 85.6 83.4 80.1 77.6 77.6 77.4 75.2 69.2 66.5 65.6 65.3 71.5 76.1 80.8 80.3 85 90.7 96.3 99.4 103 106.2 107.2 110.4 111.2 110 108.7 110.3 110.4 111 117.7 122.9 125 125.7 124.3 123.6 124.2 131.3 137.6 138.7 136 132.6 128.2 121.7 114.4 109.5 106.8 106.9 107.6 110.3 114.2 123.2 129.6 136.3 142.5 147.4 143.8 137.5 133.8 130.2 125.1 119.7 114.2 113.7 114.5 113.6 109.9 106.3 110.1 112.1 112.5 113 111.7 107.4 107.8 108.2 110.1 113 114.9 116.4 117.1 117.6 117.5 118.3 117.9 121.3 127.2 132.6 135.9 130.4 127.2 123 120 117.7 112.9 111.9 115.4 120 120.6 114.2 108 102.7 98.1 94.8 92.6 89 88
43.1 46.4 46.8 48.9 45.6 38.8 31.4 27.2 26.3 25.8 26.8 26.6 28.9 31 31.4 28.5 27.5 29 30.5 29.6 25.7 25.5 25.7 26.4 28.1 28.6 26.6 23.6 29.6 23.8 24.3 24.1 24.9 24.6 23.4 23.2 23.4 23.8 27.6 35.9 39.3 33.2 28.8 29.6 34.5 33.3 30 28.2 27.1 27.4 30.1 30.3 32.1 30.4 29.6 30 28.5 31.8 35.8 39.1 43.1 40.3 41.7 44.2 43.1 43 45.2 45.6 45.5 46.4 47.1 50.5 56.1 63.7 70.1 77.5 91.3 104.6 116 131.4 143.7 155.3 165.2 171.7 173.8 173 169.7 162.3 155.6 148.3 138.5 125.4 110.7 99 88.9 86.6 83.4 82.9 82.7 81.6 79 74.3 73.6 70 66.6 66.2 68.7 74.1 72.4 80.5 88.4 92.9 95.2 98.1 102.6 104 106.2 106.9 106.8 106.8 106.5 106.4 107.8 114.4 120 121 120.4 117.1 116.6 122.1 125.7 128.5 130.1 129.8 127.5 124.6 119.7 114.2 107.1 107 107.3 109.7 112.5 120.7 130 137.3 141.1 139 140.5 138.2 138.5 137.7 133 126.4 120.1 117.2 119.2 119.6 117 113.4 109.3 105 105.2 106.8 106 106.4 106.8 107 108.8 112.3 112.9 116.2 118.3 119.8 120.4 120.2 119.4 117.5 122.1 129.7 136 134.8 128.4 124.9 120.9 117 113.7 109 109.7 113 117.7 117.8 112.1 105.4 100 96.6 94.2 91.8 90.5 88.1
39.6 41.8 41.4 42 40.5 34.1 29.2 27.4 25.8 27.6 28.9 28.4 29.9 30.7 31 29.4 28.1 29.2 29.7 29.3 26.7 25.5 26.2 28.5 30.1 29.3 23.6 23.4 28.1 23.2 23.8 23.2 23.7 23.8 23.7 23.9 23.3 23.7 30.7 38 40.2 31.8 26.7 30.4 36.1 35.6 31.5 29.3 28.4 29.2 31.4 32.3 30.4 30.7 29.7 28.5 28.8 32.9 36.8 41.6 45.3 40.7 47.4 48 44.2 44.8 44.7 45 45.4 46.5 49.7 53.6 60.9 71.3 81.4 94.2 106.7 119.5 135.9 150.2 161.5 171.8 179.1 187 188.9 186.8 182.5 173.4 165.8 158.1 150.6 135.5 121.6 112.7 99.1 90.4 88.5 87.2 87.2 85.4 82.5 78.6 78 77 72.6 66.7 67.1 68.5 69.6 72.4 84.9 90.4 92.7 95.3 99 102.2 104.3 105.2 105.5 106.3 106.4 106 106.9 112.6 117.1 117.6 114.7 110.5 110.7 115.2 118.2 117.7 118.9 120.7 123.5 123 121.1 116 108.1 106.9 109.4 110.3 116.7 127.9 133.7 138.1 136.4 133.6 130.7 129.7 133.7 136.9 134 125.7 119.5 119.6 123.3 123.7 118.7 114.9 110.9 104.7 104.7 104.5 105.1 106.2 106.4 106.7 109.5 113.4 113.1 117 120.8 122.4 123.2 122.8 121.7 119.1 122.5 130.2 135.6 132.2 126.8 122.6 118.3 115.8 111.5 108.7 108 111.2 116.4 115.8 109.8 104.2 98.9 96 93.2 90.6 89.8 87.4
35 37.5 37.9 37 35 31 28 27.1 26.6 28.1 28.7 30 29.9 30.5 30.5 30.1 30.2 30.9 29.6 29.1 27.5 27.2 27.3 29.1 29.7 26.6 23.9 23.7 22.5 22.5 23.2 23.5 23.3 23.6 23.6 23.8 23.4 25.3 33.7 39.3 38.3 29.5 26.8 32.9 36 35 32.7 31.3 30 30.6 32.1 32.9 30.3 28.5 28.8 29.4 29.4 33.6 37.6 43.3 46.7 41.2 47.5 48 44.6 44.4 44.5 44.8 45.6 48.7 52.3 59.2 66.4 78.6 93.2 110.6 126.1 141 155.8 167.1 177.8 187.2 193.2 200.8 200.7 197.8 192.1 184.2 174.3 166.4 157.8 149.5 140.3 126.2 110.9 97.7 93.1 92.3 91.3 88.7 86 82.5 81.8 80.1 78.3 73.6 68.4 67.9 70 72.8 83.3 88.7 91.3 94.8 97.9 100.2 102.3 103.1 105.2 106.6 107.3 106.6 105.8 110.4 113.3 113.3 111.7 109.6 108.7 109 110.9 110.6 110.9 112.8 119.2 123.5 122 116.1 107.6 108.5 111.5 112.1 120 124.2 126.1 126.8 125 122.1 120.9 123.2 127.4 130.3 127.4 121.6 117.9 121.9 126.7 123.5 119.2 115 111 106.4 104.4 104.8 105.2 105.6 106 107.6 109.5 109.7 114.2 118.8 122.9 125.7 126.3 125.1 123.6 121.1 123.2 129.8 132.5 128.7 124.5 120.6 117.9 116.3 110.4 107.5 107.2 110.7 115 114.2 108.7 104.4 99.5 96.2 93.3 91.8 90.6 85.8
29.5 32.3 34.1 34.2 31.8 28.6 26.9 26 26.4 28.1 28.6 29 29.4 29.8 30.2 30 32.1 34 31 32.7 31.6 29.9 30.1 31 29.6 24.6 22.6 23.5 23.3 23.4 23.5 23.3 22.9 23.5 23.4 23.3 23.6 28.6 35.8 39.2 34.6 27.2 29 34 35.9 34 32.5 31.9 30.9 30.9 32.6 30.7 28.7 29.1 29.2 29.5 30 34.2 38.2 40.6 43.3 41.7 42.4 44.2 43.4 43.5 44.2 44.8 47.2 52.2 56.9 65.5 78.1 93.3 117.3 138.3 151 165.6 175.5 185.9 196 205.8 208.7 208.1 208.9 204.4 198.5 190.7 183.3 174.6 169.2 161.7 152.1 141.5 126.3 107.7 97 94.2 94.7 93.1 88.7 85.5 84.3 84 83.4 81.8 79.4 68.6 70.2 74.1 79.4 85.2 90.5 93.9 96.3 97.9 100.1 103.5 106.8 107.9 107.8 106.9 106.7 107.1 107.7 107.6 108.4 110.9 112.7 114.1 111.1 110.4 109.9 109.1 115.9 119.8 117.7 112.2 107.5 113.6 112.8 113.5 115.9 115.2 114.5 113.9 114.3 113.9 113.7 117.7 121.5 121.6 119.8 115.7 115.6 122.4 129 123.5 118.2 114.2 110.6 107.3 103.8 104.3 104.9 105.1 105.3 108.1 107 111.6 116.7 121.2 125.5 129.4 129.7 127.1 125.2 123.9 122.9 127.1 127.6 125.1 122.9 120.8 119.3 118.1 111.1 107.1 106.8 110.9 114 112 107.5 105 103.8 99 95.3 93.7 91.4 87
28.9 29.3 31.6 31.8 29.9 27.2 26.6 25.7 26 27.8 28.6 28.9 29.4 30 29.8 29.8 33.8 34.5 32.5 32.9 33.3 32.4 31.6 32.3 28.6 23.2 23.7 24 25.2 23.4 25.6 24.7 23 23.2 23.4 23.1 23.7 31.2 37.4 36.6 30.2 26.8 30.7 33.8 35.7 33.1 35.6 32.5 30.8 30.7 31.6 32 29.1 29.5 30.1 30.6 33 35.9 37.9 37.6 39 42.3 41.3 43.8 43.5 43.8 45.5 46 48.9 55.4 62.6 71.9 88.1 113.1 145.2 164.6 178.1 184.5 194.2 203.3 213.5 221 224.5 225.4 223.3 217.6 209.6 202.4 196.4 190 182 173.5 164.2 152.8 138.6 121.1 104.4 97.6 93.3 91.4 90.8 90.4 89.9 89 88.9 86.9 84.9 69.3 70 77.4 87.3 89.4 87.8 91.9 94.5 95.8 100 106 108.8 108.9 107.8 106.9 105.8 104.7 104.7 105.4 110.1 114.4 115.8 113.6 113.6 111.7 113.8 107.7 110.9 111.4 110.2 106.3 111.3 113.6 109.8 109 107.2 106 105.2 104.5 105 107.3 109.7 114 117 114.3 113.3 110.6 113.5 121.5 127.5 121.6 116.5 113.4 109.6 105.5 103.2 104 104.2 104.4 104.5 107.8 111 115.2 120.2 125.7 130.4 133.4 130.8 128.1 126.3 124.2 121.7 123.8 123.6 121.8 122.6 125.5 125.5 120.1 114.2 108.6 106.5 110.5 112.5 109.8 106.1 105.3 108.3 105.9 102 97.5 94.1 88.5
28.5 28.8 30.4 30.1 28.6 26.6 26.4 25.6 26.5 28.2 28.8 28.4 28.4 29.1 29.2 31.1 35 35 32.8 31.8 32.1 32.3 34.9 38.8 30.4 23.2 24 25.8 25.7 25.1 25.6 25.2 23.3 22.9 23.1 23.1 24.4 33.2 36.4 32.5 27.9 28.2 31 33.7 33.1 35.4 36.4 32.2 30.3 30.3 32.1 30.9 29.6 30.6 32.1 33.4 36.4 40 40.2 37.5 39.5 43 42.5 43.1 43.4 44.1 47.5 47.8 53.1 60.1 68.8 83.5 104.5 132.5 164.8 184.3 195.5 201.5 209.7 217.3 225.8 230.1 234.4 235.2 233.2 227.8 220.1 211.3 203.9 198.1 190.1 183.3 175.5 166.7 153 136.1 116.8 103.8 97.9 92.1 91.4 96 96.3 94.7 93.3 91.2 85.5 69.4 70.5 79.2 87.9 91.2 91.1 92.5 94.3 96.6 102 106.8 108.3 107.2 105.8 105.5 106.2 103.7 102.7 106.7 112.8 116.8 118.2 116.3 113.1 113.6 112 106.5 104.8 105.1 105.6 107.3 111.6 110.4 105.9 105.2 101 98.1 97.6 97.5 98.3 101.7 105.7 108.4 109.5 109.2 108.7 108.9 112.8 118.1 123.5 120.2 113.2 110.4 108.3 103.8 103.1 103.4 103.4 103.6 104.8 109.6 113.7 118 123.3 130.3 135.9 135.5 132.6 128.1 125.5 123.5 120.5 120.3 121.8 124.3 127.6 132.6 129.6 121.6 116.8 111.9 108.1 109.5 110.8 107.5 105.2 106 110.1 109.8 108.8 102.9 97 90.1
28.1 28.9 29.8 28.7 27.2 26.3 25.8 26.3 28.1 29.3 29.2 28.5 28.7 29 28.8 32.5 35.8 34.3 33.5 32.8 31.2 33.2 37.3 40.2 29.3 22.7 23.4 24.6 25.5 29.5 25 24.5 23.8 23.8 23.2 23.2 27.2 33.4 34 29.5 26.6 29.3 31.3 31.7 34.1 36.5 36.1 31.8 31.3 30.3 30.8 31.9 31.9 32 33.7 35.2 39.4 42.5 40.8 39.6 40.6 42.7 42.1 42.7 43.6 43.9 46 51.3 56.4 64.1 74.1 94.2 118.5 146.2 175.5 198.6 209.5 216.7 222 229.6 234.8 239.2 242.4 243.8 241.6 236.7 228.9 220.1 212.8 205.3 198.4 191.9 186.2 177.9 167.1 151.6 134 115.2 102.8 98.2 94.4 99.3 102.3 100.3 96.7 92.8 75.3 70.1 71.7 79.7 87.8 92.5 93.7 103.9 97.8 97.5 102.7 106.8 107.4 105.5 105.1 106.5 107 105.7 102.6 108.1 114 118.9 121.7 121.7 121.3 117.6 112.5 106.4 103.6 103.5 105.4 107.6 107 105 102.1 101.5 98.9 98.8 97.5 96.8 97.1 98.5 100.8 102.1 103.2 104.6 104.5 107.6 109.9 115.5 118.4 114.9 111.7 107.9 104.6 102.3 102.2 102.3 102.9 103.3 107.1 111.7 117.4 120.6 129.6 136.6 140.6 137.6 132.8 126.5 123.9 121.8 120.3 118.8 121 124.3 131.4 135.5 128.5 123.2 118 113 108.8 108.7 108.6 105.8 105.2 109.7 111.5 110.9 109.1 103.1 97.2 92.3
28 29.9 30.2 27.7 26.3 25.4 25.7 27.3 29.5 28.5 28.3 28.3 28.9 27.9 29.3 33.5 36.8 34.9 33.6 32.6 32.7 34.2 37 35 26.3 22.4 24.1 25.1 25.5 29 24.1 23.3 24.1 23.6 23.1 23.3 28.5 33.4 31.4 28.3 26.8 30.2 31.4 33.9 37.1 37.7 35.5 31.3 31.7 30.5 31.1 32.3 33.9 34.4 34.3 36.7 41.3 42.1 40.8 41 42.6 41.4 41.9 42.5 43.7 45.4 49.4 55.3 60.5 67.6 78.6 98.9 124.1 154.9 181.8 211.4 227.4 232.8 233.9 238.5 242.8 246.3 248.1 247.3 246.8 241.5 233.9 226.5 219.8 213 206.4 200.5 195.5 189.6 179.6 166 149.4 131.7 114.6 103.6 99.8 98.5 99.2 98 95 92.6 83.6 71.5 71.2 78.2 85.1 90.2 94.5 103.9 101.2 97.5 103 106.1 105.7 104.2 104.8 106.7 106.9 105.5 102.4 105.4 111.4 117.3 122.8 126.9 128.9 125.7 114.1 106.4 104.9 104.8 105.7 109.3 106.2 102.3 101.2 99.7 100.8 100.2 98.2 97.3 97 97.3 97.7 97.4 98 99.9 101.7 104.1 104.8 108.8 109.2 108.3 111 111.8 106.3 101.6 101.3 101.3 101.5 102.9 110.4 115.3 122.2 125.5 129.5 134.7 137.1 134.7 131.1 125.7 123.5 121.6 120.2 118.9 120 126.7 133.8 137 131.9 124.1 118.4 113 109 107.4 106.1 103.8 104.8 108.1 107.3 108.3 106.9 100.1 97.4 94.9
29.3 31.5 32.3 27.7 25.7 25.3 25.8 27.1 28.1 27.7 27.7 27.9 27.5 27.8 30.6 34.7 35.7 34.4 31.2 31.1 32.6 35.2 35.9 32.3 26.2 22.9 23.6 25 25.4 24.9 24.1 24.6 26.3 24.7 23.2 23.9 30 32.2 29.1 26.8 28.1 31.6 35.3 37.1 37.5 37.3 34.5 30.9 30.8 30.5 32.2 34.3 34.2 34.9 35.4 38 39.7 40.2 40.2 40.7 44.9 41.4 41.8 43.5 47.3 49.2 53.6 58.6 63.9 71.4 85.1 104.9 128.6 157.9 185.6 213.5 233.4 239.1 240.8 242.7 247.4 252.1 253.1 251.6 247.4 243.7 235.8 230.1 223.9 218.7 215.5 211.4 203.5 200.5 192.4 180.3 166 147.1 129.1 112.1 104 99.5 97.2 94.1 93 91.2 86.3 78.8 71.3 72.2 79.7 86.7 92.1 96.7 93.2 95.4 100.8 104.5 104.5 101.8 105.5 107.8 108.6 107.7 104.2 102.5 104.3 113.2 122.6 130.4 132.9 128.2 114.9 106.1 105.7 106.5 104.3 104 103.8 102.6 102.8 101.2 99.7 98.8 98.3 97.7 98.7 99.4 97.2 97.1 96.9 96.9 98.1 98.9 100.5 104 106.4 112.3 115.8 114.6 109.3 102.2 100.7 100.9 101.4 103.7 111.3 119.2 124.7 122.4 125.2 128.7 130.2 128.5 128.6 124.3 121.7 118.9 117.2 117.4 120.5 128.7 136.6 138.3 131.2 124.5 119 114.5 110.1 106.6 104.4 102.5 103.8 98.1 97.9 101.9 105 100.9 99.7 98.4
35.1 37.7 35.7 27.8 25.6 24.8 27.3 27.6 28 27.4 27.8 27.5 27 27.4 31.2 34.6 34 33.1 30.6 31.8 33.7 37.3 36 30.2 25 22.3 24.4 25 25.3 25.6 24.2 26.8 27.5 27.2 26.6 26.4 28.6 29.6 28.2 26.9 30.2 34.7 36.5 37 36.6 36.1 33.2 30.9 32.1 32.2 33.9 34.6 35.4 36.7 37.3 38.1 39 39.8 40.2 40.6 45.4 43.5 42.9 50.7 53.2 54 57.1 60.8 66 73.9 90.1 108.2 126.4 149.9 177.2 208.5 231.7 239.2 244 247.4 251.8 257.3 257.6 254.3 249.8 242.4 235.8 230.7 224 217.5 212.2 208.8 205.8 204.8 202.9 193.7 180.9 164.2 143.7 124.5 108.4 104.4 99.8 97.4 97.6 94.5 91 85.2 80.1 74.4 74.9 82.9 89.3 91.4 89.4 90.5 95.9 101.6 102.2 99.1 103.2 108.4 110.1 110.3 108.8 106.6 99.4 108.8 119.2 128.2 130.4 125.7 116.6 110.4 113.5 113 110.6 110.6 109.7 108.3 105.5 102.2 100.5 99.1 98.5 99.3 99.6 98.9 97.3 98.1 99.8 97.6 96.4 97.7 101.5 103.4 109.3 113.4 117.8 116.1 111.1 105.5 100.9 100.5 101.3 105.4 111 118.4 122.1 117 118.6 120.9 122.9 121.6 124.5 122.1 119.1 116.2 114.4 113.7 121.2 127.1 134 136.7 131.5 124.4 118.3 113.1 109 106.4 103.3 101 100.3 96.1 94.1 94.5 96.4 100.8 101.4 101.8
39.2 43.9 37.2 29.8 24.8 25.3 27.9 27.8 28.2 27.8 27.9 27.6 27.5 28.5 31.5 33.4 32.4 30.8 28.8 31.9 34.6 38.8 34.4 28.6 24.1 23.1 25.1 25.2 25.1 25 26.5 30.8 28.2 27.7 28.4 27.8 28.2 28.5 28.2 29.5 33.7 35.8 36.6 36.6 35.4 35.1 34.7 33.4 35.7 35.2 35.4 36.2 37.5 38.2 38.5 38.7 39.9 40.2 40.5 41.8 45.9 47.8 51.2 55.2 54.9 54.5 58.1 63.1 68.1 77.8 94.7 109.7 123.4 145 167.8 193.2 218.3 235.1 242.9 245.8 246.9 254.7 259.2 257 252.8 247 241.8 236.2 224.2 218 213 211.5 210.6 207.9 201.6 200.5 193.3 180.9 161.2 138.3 118.4 110.3 104.8 102.9 100.9 97.7 92.5 87.7 85.4 81.1 75.1 76.4 86.3 89.6 89.4 89.5 91.8 97.5 99.2 98.6 100.7 107.8 113.1 114.2 111.1 107.8 99 103.4 113.8 120.8 125.5 121.6 115.7 119 122.2 122.5 117 115.4 114.8 113.1 110.3 106.8 102.9 98.7 99.7 99 99.4 98 97.1 99.7 102 97.6 96 98.3 102.4 106.8 111.4 115.2 119.3 116.3 111.2 106.8 100.7 99.9 101 104.1 108.4 113.6 115 110.5 111.1 113.4 115.9 117.7 120 119.9 116.6 113.6 111 108.5 116.7 121.6 126.1 130.3 129.6 123.6 117.1 110.9 109.3 107.8 106.3 103.7 105.4 99.6 94.1 92.8 93.1 97.4 102.9 104.8
45.6 46.2 37.5 27 24.8 25.7 27.3 27.7 28 28 28.6 27.9 28.4 31.2 33 32.7 31.4 28.2 28.9 32.6 36 38 32.6 26.3 23.7 23.5 25 25.2 25.1 25.5 28.2 32.9 30.3 27.8 28.5 28.3 28.6 29.3 28.6 29.3 31.9 34.5 35.1 35 34.4 35.3 34.1 33.9 35.4 35.1 35.8 36.9 37.9 38.3 39.1 39.5 40.3 42.4 44.7 46.7 46.7 50 53.2 55.8 55.7 54.5 59.4 64.9 70.2 83.5 97.5 108.8 120.9 140 160.4 182 205.8 226.5 233.4 239.8 241 246.1 249 255.4 254.6 248.5 242.8 236.7 230.9 226 220.4 220.3 219.2 217 209.9 207.3 202.2 191.8 179.4 152.2 129.5 118.5 112.1 107.3 104.8 99.3 93.1 91.5 86.9 84.5 74.8 74.3 80.9 88 90.1 91.8 93.8 96.7 98.2 99 102.7 109.2 113 113.9 110.4 106.1 98 99.8 107.1 112.9 116.7 115.2 118.6 123 125.1 127.5 125.5 121.4 119.9 117.4 114.1 110 104.1 100.2 103 101.8 100 98.7 97.4 102 104.3 98 95.9 97.4 103.1 107.7 114.3 118.7 121.3 116 111 106.5 100.4 99.7 100.3 101.4 103.9 107.1 104.9 103.2 104.7 108.9 111.6 113.6 117.7 118.5 114 110.8 107.5 107.4 112 116.3 119.8 123.4 123.8 120.6 116.4 113.5 115.3 113.8 110.5 109.1 107.3 100.2 94.8 92.8 92.3 97.2 104 107.4
47.9 42.7 35.7 26.7 24.2 24.4 25.3 26.1 27.2 28.2 28.3 28.2 29.9 32.4 31.9 30.6 29.4 26.8 29.5 32.3 34.8 36.2 32.3 26.3 23.2 23.7 24.8 25 25.1 26.6 29.2 35.5 30.9 28.2 27.2 27.8 31 30.2 30 31.6 32.4 33.3 33.4 34.2 34.6 34.1 33.7 34.8 35.6 35.3 36.3 37.5 38.7 39 40.1 42.5 45.2 44.8 46 46.7 48.2 51.2 54.1 55.9 55.8 56.1 60.9 66 72.3 86.1 97.6 106.7 118.4 136.2 154.4 173.6 198.2 219.4 231.1 232.5 238.3 239.3 234.9 246.3 248.9 249.2 248.8 248.2 241.4 235.8 228.6 221.7 220.1 219.4 220.8 213.6 205.9 199.4 188.9 169.7 147.3 128.4 116.1 111.5 107.3 103.8 98.5 94.4 89.3 86.3 79 74.5 75.4 82.7 91 93.9 96.4 99.3 100.6 98.3 102 107 109.7 112.1 104.9 102.6 97.2 96.9 104.1 107.8 108.8 111.9 117.1 120.2 123.8 125.9 127.1 125.3 125.6 122.1 117 112.7 106.8 105.3 108 106.7 104.3 101.1 96.8 102.9 104.2 97.5 95.6 97.3 103.4 110 119.8 125.8 121 115 109.6 105.8 99.8 99.7 99.8 99.7 100.1 101.2 99.2 97.5 100.8 105 107.2 110.5 117 116.3 111.9 108.6 106.1 106.1 107.9 110.8 114.3 117 118.8 118 117.2 119.8 120.2 119 115.5 111.4 106.6 100.8 96.4 92.6 92.1 96.3 103.9 111
49.4 40.2 34.4 28.8 24.5 24.2 24.8 25.4 26.5 27.3 27.7 28 32.3 33.6 32.1 30.3 27.9 27.2 33.1 32.8 36.9 34.1 29.7 23.9 22.7 23.9 24.8 24.7 25.1 27.5 29.3 34.3 30.8 29.9 28.4 30.1 30.6 31.2 32.1 32.7 33.3 33.4 33.5 34.3 34.5 34 34.5 34.5 36 37 37.1 38.4 39.4 41.6 46.7 47.2 46.3 44.2 46 48 49.7 52.3 54.2 55.9 55.7 58.3 61.9 66.6 75.3 87.4 95.5 104.9 114.4 131 149.1 167.9 194.8 216.1 226.1 228.3 234 232.8 235.4 259.5 257.6 252.8 248.8 242.4 242.3 242.9 240 238.9 237.4 232.2 219.8 218.6 213.4 206 196.1 180.7 162.4 138.5 126.2 116.1 111.4 109.1 103.4 97 92.5 90.7 86.3 81.2 76.5 76.9 86.4 93.9 96.2 97.5 98.2 97.8 100.9 103.4 106.2 107.6 102.3 99 91.1 89.4 96 99.1 101.8 103.4 108.4 113 115.6 118.1 120.4 122 122.8 120.9 116.5 111.9 102.9 107.4 110.6 110.7 107.6 103.2 97.5 102.7 102.1 96.7 94.9 98 104.3 112.1 120.6 129.5 119.1 112.7 107.5 104 99 99.1 99.7 99.6 99.2 98.6 98 96.8 97.7 100.7 102.3 104.5 111.9 112.3 109.9 109.6 105.9 104.7 104 106.4 108.9 111.7 114.4 117.1 120.1 123.9 126.6 124 119.4 111.9 106.7 102.8 97.7 93.8 91.7 95.6 102.8 111
51.2 40.1 29.8 25.6 24.4 24.8 24.5 25.3 25.3 26.3 28 31 35.4 38.4 33.2 28.7 27.3 27.8 29.7 33.7 38.2 36.8 30.5 23.7 22.1 24.2 24.8 24.4 25.1 28.7 29.3 32.6 30.7 31.3 31.1 31.7 31 32.1 33.2 35.3 36.6 33.5 33.7 34.5 35 35.5 35.4 35.6 37.1 36.9 37.5 40.5 44 46.3 46.7 46.2 45.5 43.7 45.2 48.6 50.9 53 54.7 55.4 55.7 59 62.8 67.8 75.6 85 93.2 101.7 111.8 125.9 143.5 164.4 192.8 213.7 218.6 226.1 228.6 224.9 244.6 260.4 255.5 249.8 240.3 237.8 238.4 240.4 242.7 244.8 243.9 241.6 234.1 218.2 217.5 212.5 202.8 191.3 176.3 158.2 141.2 125.7 118.4 112.5 107.5 102.3 99.2 95.3 90.3 86.8 83.1 77.2 77.1 87.8 96.3 97.4 97 96.2 97.5 99 102.2 101.7 100.9 96.2 85.7 85.8 85.8 88 90.6 91.8 96.9 100.8 104 108 112.6 114.7 116.1 113.8 109.2 105.3 102 103.7 108 110.1 107.9 102.2 99.3 100 97.8 96.5 94.4 98.7 103.7 110.8 118.9 122.2 113.9 108 105.2 99.7 98.6 98.5 99.3 98.7 98.6 98.1 97.7 96.9 96.7 97.4 100.7 104.6 109.7 111.9 113.6 113.4 108.3 104.1 103.1 103.3 104.8 107.8 111.2 115.5 121.4 129.7 132.8 128.7 122.6 115 106.6 102.5 99 95 91.8 95 102.3 109.8
46 37.5 26.8 24.1 23.8 24.3 24.5 23.8 25.3 27.3 27.6 29.6 35 34.6 31 26.9 27.9 27.8 28 29.6 31.8 32.9 31.1 24.4 23.3 24.1 24.8 25.9 27.7 28.8 29.3 31.2 30.6 31.5 32 32.4 32.3 32.2 34.7 36.4 39.8 35 34.1 34.8 35.6 35.5 34.9 36.5 36.4 37.2 41 44.7 45.7 46.2 45.6 45.7 44.9 44.9 46.1 49.3 51.1 52.7 54.1 54.3 55.4 59.4 64.3 68.7 75.8 83.1 89.7 96.8 107.8 120.3 138.6 161.5 190.3 209.8 211.7 220.2 218.1 218.3 247.3 255.3 250.5 247.1 243.9 234.2 234 237.6 241.9 245 249.2 245 240.2 228.2 215.9 216.7 209.6 199.5 188 173.2 157 140.5 127.9 119 113.1 107 103.7 98.5 94.3 91.4 88.4 84.8 77.5 78.7 94.8 95.6 94.8 90.9 91.6 92 95 96.4 97.2 93 83.8 97.1 95.1 89.6 87.1 87.6 87.6 88.7 93.7 99.2 104.3 107.7 107.4 106.2 103.4 99.6 94.7 94.1 98.1 102 103.1 96.7 94.8 94.5 94.9 95 93.9 97.3 100.6 105.6 110.7 107.7 102.9 99.2 98.2 97.5 98.2 98.6 98.9 98.5 98 97.7 97.3 96.6 96.7 98.4 104.8 108.9 112.7 114.4 115.9 115.4 111 105 103 103.1 103.7 107.2 110.4 115.6 122.1 130 136.1 131.8 124.8 117.4 107.5 102.6 99.6 94.8 92 92.2 100.5 107.7
41.4 34.3 26.5 24.1 23.8 24.2 24.8 24.7 24.3 25.4 26.7 28 33.9 33.7 27.8 25.6 26.6 26.5 28.2 29.3 30.2 31.3 25.5 23.2 23.5 25.9 28.9 34.7 30.6 30.4 29.1 30 31.1 32.7 32.3 31.9 31.5 31.8 33.3 36.6 39.7 35.4 34.6 34.7 35.4 34.9 34.7 35.8 36.6 38.5 43.8 45.7 45.8 45.4 44.9 44.6 44 45 46.3 49.9 51.2 51.9 52.9 52.8 54.8 58.4 65.3 69.7 75.8 81.5 87.3 93.6 104.5 117.4 135.8 158.5 184.9 203.5 208.9 212.9 210.5 226.4 244.4 248.1 245.7 247.6 243 238.9 235.8 241.5 242.5 244.2 247.1 248.4 246.3 241.2 236.3 224.8 215.5 206.3 197.4 186.7 172.4 156.7 140.8 127.7 117.6 113.5 108.6 103.5 101.8 97.4 93.9 91.3 81.6 78.7 89.6 90.3 81.7 82.1 83.1 84.4 87 89 90 86.3 83.6 100.8 104.3 97.6 93.7 93.9 89.2 88 88.6 93.5 98.9 100.3 98.2 97.9 96.8 93.7 90.8 90.5 91.7 95 95.6 92.3 92 92.6 93.7 93.9 93.7 94.1 94.9 97.9 99.3 96.6 95.4 95.8 96.4 97.4 97.6 98.2 98.3 98.1 97.7 97.2 97 96.2 97.1 102.4 107.5 112.6 118.7 120.6 118.2 115.7 111.4 106.6 103 102.7 103.3 106.6 111.3 115.7 121 130 135.8 134.4 127.2 119.6 108.9 99.4 97.9 95.5 92.5 91.6 97.5 104.4
38.6 32.4 29.2 28.5 27.5 28.1 28.1 25.7 22.9 24.3 27.1 28 33.2 33.7 26.5 24.6 25.3 26.8 27.9 28.5 29.3 24.8 23 23.1 27.9 35.2 35 34.7 30.8 30.1 31.1 29.8 32.2 33.3 32.2 32.7 32.2 31.9 34.7 36.4 37.2 35.9 34.5 34.5 34.9 34 34.7 35.9 37.4 41.2 44.3 45.1 45.2 44.3 44.4 43.6 43.8 44.6 46.5 50.5 51.9 53 53.1 53.7 56.9 60.7 65.7 70.5 76.3 80.1 84.7 90.7 102.2 116 131.7 152.1 180.2 195.9 203.6 206.1 206.2 226.9 244.5 241.5 241.1 244.3 245.8 240 239.1 242.5 243.1 242.8 243.5 245.6 247.7 250.4 245.7 240.4 231.4 218 207.3 197.8 185.6 170.9 155.3 140.4 127.5 118.6 112.9 109.3 107.6 106 100.1 94.5 83.5 78.5 79.8 80.2 81.3 82.1 82.4 82.7 83 83.6 84.9 87.1 94.1 105.8 104.8 100.2 97.8 96 91 88.6 88 89.2 89.3 90 89.4 89.3 89.6 89.6 89.7 90.4 90.4 91.1 91.5 91.4 91.7 92.1 92.2 92.5 92.4 93.4 93.6 93.8 94.2 96.7 97.8 98.3 99.1 98.3 98 97.6 97.7 97.7 97.3 96.8 96.5 96.2 100.2 104.3 109.5 114.7 123.4 122.8 119.5 116.8 111.1 106.6 103.4 103.8 103.6 106.7 111.3 115.5 119.9 128.1 134 135.7 129.8 122.3 111.9 100.3 95.4 96.2 93.7 91.3 93.7 99.4
